# .PCD v0.7 - Point Cloud Data file format
VERSION 0.7
FIELDS x y z
SIZE 4 4 4
TYPE F F F
COUNT 1 1 1
WIDTH 1390
HEIGHT 1
VIEWPOINT 0 0 0 1 0 0 0
POINTS 1390
DATA ascii
-0.82833171 0.63638461 0.4997018
-0.8691113 0.63331527 0.5124141
-0.73260051 0.63427567 0.48486626
-0.7683928 0.62818885 0.49743053
-0.81898159 0.63500881 0.5185082
-0.85972762 0.63090336 0.53320181
-0.72037107 0.63099784 0.49758232
-0.76007205 0.62885237 0.51429248
-0.80570006 0.63067341 0.53418642
-0.85229045 0.63246197 0.55609852
-0.71308756 0.63170129 0.51246369
-0.7507593 0.62751275 0.53109956
-0.79929626 0.63327152 0.55512065
-0.84585702 0.63302416 0.578996
-0.70085818 0.62842357 0.52517974
-0.74243855 0.62817633 0.54796147
-0.78894621 0.63189214 0.57390827
-0.8334887 0.63161951 0.5987457
-0.69257486 0.62912333 0.54004234
-0.73016787 0.6258623 0.56269491
-0.77564216 0.62853849 0.59060419
-0.8211242 0.62921494 0.61847746
-0.68133348 0.62884867 0.55283129
-0.71889293 0.62455165 0.57746506
-0.76628011 0.63016218 0.60946465
-0.81073284 0.62879914 0.63928235
-0.6710732 0.62855953 0.56663859
-0.70957232 0.62521166 0.59430826
-0.75494903 0.62879717 0.62723386
-0.80227327 0.63133585 0.66317797
-0.66376704 0.63024473 0.58253771
-0.69729763 0.62389743 0.60905963
-0.74064511 0.62544 0.64391094
-0.78400052 0.62498289 0.67872626
-0.65449876 0.63195884 0.5963999
-0.68600398 0.62256867 0.62482953
-0.73028338 0.62706 0.66275269
-0.7765367 0.62852287 0.70265859
-0.63931119 0.62770671 0.60704225
-0.67765272 0.62621373 0.64274514
-0.71992159 0.62868011 0.68159437
-0.76021057 0.62614024 0.72031587
-0.631024 0.62940627 0.62192285
-0.66439694 0.62491399 0.65647811
-0.70268226 0.62336665 0.69518006
-0.74488419 0.62376118 0.73799187
-0.61487812 0.62418693 0.63052905
-0.65114504 0.62261438 0.67019314
-0.6903435 0.62399793 0.7129665
-0.73344368 0.62630504 0.76083142
-0.60460997 0.62589747 0.64437246
-0.63688946 0.62131107 0.68390727
-0.67702758 0.6236437 0.72971642
-0.71811336 0.62492579 0.77852541
-0.59336853 0.62562281 0.65716136
-0.62560672 0.6220001 0.69871348
-0.66175348 0.62231869 0.74441153
-0.70081002 0.62155777 0.79514617
-0.57724136 0.62042153 0.66476792
-0.61037385 0.61971146 0.71139121
-0.64743775 0.62196094 0.76114261
-0.68447596 0.62117475 0.81283939
-0.56599212 0.62214655 0.67759281
-0.59613699 0.6184262 0.72410566
-0.63314074 0.62162125 0.77687418
-0.66814184 0.62079179 0.83053267
-0.55572402 0.62385708 0.69143617
-0.58287334 0.61912614 0.73787463
-0.61882108 0.62226337 0.79362339
-0.65374339 0.6223613 0.85129857
-0.54057395 0.61964113 0.7000792
-0.56959099 0.61980796 0.75264335
-0.60061157 0.61898214 0.80522704
-0.63447386 0.62002212 0.8659004
-0.53027922 0.62333322 0.71495837
-0.55535406 0.61852276 0.76535779
-0.58531076 0.61963874 0.82095778
-0.61615884 0.61965001 0.88255644
-0.5160985 0.6221022 0.72467387
-0.54013604 0.61725199 0.77705389
-0.56803697 0.61830658 0.83561522
-0.59786654 0.61829615 0.89819473
-0.50289488 0.62185657 0.73542583
-0.52391428 0.61697751 0.78874922
-0.55080062 0.61701059 0.84827328
-0.57859308 0.61695677 0.91281456
-0.48869145 0.62160736 0.74615908
-0.51062799 0.61865914 0.80353594
-0.53258699 0.61472923 0.85989499
-0.56027412 0.61758453 0.92948866
-0.47548795 0.62136173 0.75691104
-0.49540606 0.61838824 0.81524992
-0.517241 0.61734927 0.87766111
-0.54099685 0.61724496 0.94412649
-0.46321627 0.62406492 0.77073485
-0.47727132 0.61517948 0.82285494
-0.49995545 0.61901659 0.89237261
-0.52359104 0.62080342 0.96487206
-0.45000872 0.62481904 0.78150487
-0.46104959 0.614905 0.83455026
-0.481738 0.61773509 0.90401232
-0.5013783 0.61850774 0.97641855
-0.43193805 0.61966491 0.78607488
-0.44482782 0.61463046 0.84624547
-0.46060777 0.61351568 0.91154289
-0.48014265 0.61719733 0.98900151
-0.41774946 0.62043357 0.79582644
-0.42860216 0.61535585 0.85795879
-0.44236374 0.61421579 0.9242183
-0.45794857 0.61491978 0.99954832
-0.4045006 0.62215149 0.80861378
-0.41237649 0.61608118 0.86967218
-0.42605138 0.61786824 0.93998432
-0.43670902 0.61460924 1.0121493
-0.38644472 0.61801517 0.8122021
-0.39427924 0.61290854 0.87527782
-0.40583035 0.61757946 0.95160443
-0.41451102 0.6133315 1.0227143
-0.37321061 0.62075096 0.82400787
-0.37609529 0.61266309 0.88493621
-0.38569209 0.61536324 0.95918989
-0.39322621 0.61498445 1.0373507
-0.35611317 0.6175819 0.82963228
-0.35888857 0.61340284 0.89563096
-0.36453137 0.61412525 0.96777421
-0.36910734 0.61277205 1.0438612
-0.34190193 0.61933237 0.84040153
-0.34074599 0.61219376 0.90327209
-0.3453289 0.6138581 0.9784134
-0.34684142 0.61443955 1.057479
-0.32575509 0.61913019 0.84809816
-0.3226034 0.61098462 0.91091311
-0.32320973 0.61165285 0.98496169
-0.3227452 0.61124533 1.0629721
-0.30958951 0.61891001 0.85679442
-0.30347976 0.60979003 0.91753572
-0.30489379 0.61629796 1.0007081
-0.29956222 0.61098194 1.0725365
-0.29252556 0.61677694 0.86043769
-0.28624645 0.61251134 0.92926621
-0.28277072 0.61509264 1.0072744
-0.27637529 0.6117183 1.082119
-0.27637875 0.61657482 0.86813426
-0.26714149 0.6113348 0.93488914
-0.2616474 0.61389071 1.0138593
-0.25129804 0.60853863 1.0865934
-0.26018265 0.61933601 0.87788427
-0.24893099 0.61307091 0.94558328
-0.23862991 0.60977268 1.0153544
-0.22721274 0.60736221 1.0911227
-0.24218684 0.61425418 0.87845564
-0.22984478 0.61191243 0.95020652
-0.217416 0.61249787 1.02601
-0.20304862 0.6071133 1.0996686
-0.22503623 0.61504829 0.88615149
-0.20974001 0.61073232 0.95581067
-0.19528899 0.61229223 1.0325943
-0.17794085 0.60691506 1.105197
-0.20793097 0.61387891 0.89181203
-0.18967272 0.60958838 0.95941544
-0.17324468 0.6101594 1.0351439
-0.15383291 0.60672039 1.1107439
-0.1917536 0.61665815 0.90056241
-0.1705865 0.60842991 0.96403873
-0.15117773 0.60900825 1.0387112
-0.12955162 0.61237997 1.1243962
-0.17362583 0.61646694 0.90722179
-0.15049654 0.60826772 0.96866125
-0.12808834 0.60883528 1.0432773
-0.10359081 0.60830539 1.1228359
-0.15559956 0.61436647 0.90884686
-0.13125573 0.61298156 0.98039025
-0.10595738 0.60962945 1.0498796
-0.078516565 0.6091432 1.1263829
-0.13848639 0.61519676 0.91454339
-0.11120714 0.61185569 0.98299539
-0.083886519 0.60947818 1.0534648
-0.053528994 0.60705382 1.1258771
-0.12044137 0.6130783 0.91716814
-0.090181388 0.60974449 0.98456413
-0.060834557 0.60934138 1.0560315
-0.028458683 0.60689169 1.1294059
-0.10234712 0.61392301 0.92184615
-0.070087507 0.61058205 0.98920459
-0.037759952 0.61018634 1.0596161
-0.0034258105 0.60676581 1.1309355
-0.083302282 0.61180091 0.92445213
-0.049016468 0.61043429 0.9928087
-0.014836036 0.60615873 1.0561128
0.02161099 0.60763973 1.1324831
-0.065204106 0.61364549 0.92914826
-0.029050628 0.60738122 0.99137908
0.0073480811 0.61091608 1.0647864
0.046497092 0.60364115 1.126943
-0.046219371 0.61057782 0.92873716
-0.0080357473 0.6072877 0.99198419
0.030362597 0.61081553 1.0653539
0.072450951 0.60258418 1.1244371
-0.028061101 0.61336797 0.9364503
0.012084711 0.61010683 0.9976604
0.053331807 0.60875136 1.063886
0.097427666 0.60251254 1.1229677
-0.0089631099 0.61520904 0.94112766
0.033118315 0.60999537 0.99926507
0.076135531 0.60283262 1.0543488
0.12242702 0.60342264 1.1225159
0.0089203455 0.61023575 0.93570101
0.054005146 0.60601109 0.9938001
0.099153981 0.60373181 1.0549343
0.14840353 0.60334742 1.1210277
0.027995687 0.61109507 0.93936056
0.07504268 0.60689944 0.99542284
0.12217633 0.60563087 1.0555378
0.17219621 0.5994429 1.110508
0.046946913 0.60906339 0.93696827
0.096034907 0.60582417 0.99501026
0.14504802 0.60265732 1.0490537
0.19821803 0.60133111 1.1110551
0.067048654 0.61190063 0.94164473
0.11701234 0.60576689 0.99361598
0.16807038 0.60455638 1.0496571
0.22212002 0.60133541 1.1056058
0.086018592 0.60985088 0.94025207
0.13794447 0.60374612 0.99018639
0.1920059 0.60352463 1.0461892
0.24806303 0.60229623 1.1021364
0.10603365 0.609761 0.94087589
0.15994439 0.60466701 0.98979098
0.21499082 0.60545993 1.0447934
0.27402869 0.60423881 1.0996846
0.12503411 0.61069262 0.94053686
0.18198957 0.6075514 0.991431
0.2379078 0.60444987 1.0403445
0.29680672 0.60135567 1.088202
0.14498512 0.60865742 0.93812579
0.20184308 0.60460669 0.98400348
0.26189646 0.60738128 1.0389479
0.32173118 0.60233814 1.0837516
0.16395903 0.60760754 0.93675101
0.22276042 0.60360384 0.9795922
0.2826483 0.60252386 1.0264673
0.34449053 0.59947324 1.0712694
0.18395929 0.60853559 0.9363932
0.24476424 0.6055246 0.97921485
0.3066557 0.60543728 1.0260704
0.36835903 0.60051352 1.0638388
0.20389944 0.608518 0.93301845
0.26568553 0.60552156 0.97482163
0.32745284 0.60254323 1.0156251
0.39327261 0.60351378 1.0584248
0.22381306 0.60651892 0.92860794
0.28656542 0.60455489 0.96841103
0.3503629 0.60455084 1.0102307
0.40871313 0.59094691 1.030899
0.24377194 0.60648334 0.92623281
0.30848649 0.60454828 0.96399903
0.37322763 0.60459495 1.0028008
0.43781802 0.599769 1.034515
0.26371211 0.60646582 0.92285806
0.33147538 0.60748339 0.96262121
0.39296484 0.60075897 0.98935735
0.46167174 0.6018272 1.0261028
0.28469741 0.60840821 0.92149979
0.34925038 0.60361844 0.95121461
0.41589752 0.60374826 0.98498058
0.48239791 0.60000545 1.0116769
0.30356979 0.60544902 0.91509074
0.37113401 0.60364801 0.94480324
0.43770236 0.60285038 0.97455263
0.50727403 0.60304177 1.0042635
0.32454032 0.6084094 0.9127509
0.39099929 0.60370284 0.93742985
0.46057495 0.6048941 0.96715879
0.5259366 0.59928179 0.98684025
0.34439775 0.60646451 0.90534145
0.4118644 0.60375404 0.93003762
0.48137996 0.60399979 0.95674962
0.5476892 0.59943801 0.97343123
0.36431921 0.6064651 0.900967
0.43372932 0.60380179 0.92262655
0.50010264 0.60118544 0.94234324
0.5704869 0.60155416 0.96203887
0.38316199 0.60554177 0.89259464
0.45355713 0.60389274 0.91325384
0.52296031 0.60424703 0.93396783
0.5901984 0.60075384 0.94665003
0.40304205 0.60457873 0.88620281
0.47340372 0.6039657 0.9048807
0.53964204 0.60047609 0.9175818
0.60991001 0.59995353 0.9312613
0.42290735 0.60463357 0.87882942
0.49423134 0.60405314 0.89548916
0.56354487 0.60549766 0.91122293
0.62966686 0.60111678 0.91790789
0.44379511 0.60566652 0.87245488
0.51095438 0.60124588 0.88112044
0.58123022 0.602723 0.89483607
0.64938235 0.60131639 0.90253723
0.46468285 0.60669959 0.86608028
0.53280443 0.60231149 0.87272775
0.60200173 0.60286474 0.88244545
0.66805673 0.60055584 0.8851679
0.48039818 0.60189623 0.85169429
0.55363995 0.60439855 0.86337227
0.61869121 0.60109347 0.86609542
0.68573117 0.59979892 0.86781746
0.50333482 0.60588533 0.84733558
0.57343036 0.6045258 0.85200018
0.63435823 0.59834409 0.84874654
0.70545453 0.60199815 0.85248274
0.5231626 0.60597634 0.83796281
0.59015727 0.60271841 0.83764946
0.65820491 0.6034199 0.83938867
0.72417414 0.60320115 0.83714879
0.53990048 0.60215122 0.82457566
0.60892522 0.60186738 0.82527846
0.67489833 0.6026485 0.82305664
0.73774791 0.60054934 0.81483918
0.5607546 0.60422021 0.81621987
0.62770098 0.60301614 0.81294352
0.69361401 0.60285163 0.80770469
0.75340408 0.59981763 0.79652661
0.58058637 0.6053111 0.8068651
0.64849907 0.60513943 0.80158865
0.71235627 0.60503632 0.79338849
0.77313131 0.60301673 0.78120989
0.59833181 0.60348201 0.79349524
0.66418874 0.60337174 0.78525746
0.73007214 0.60524303 0.77805531
0.78977245 0.60329938 0.76189691
0.61816758 0.60557264 0.78415847
0.68294179 0.60353875 0.77190483
0.74267966 0.60155886 0.75774574
0.80339158 0.60261106 0.74162263
0.63384938 0.60180533 0.76779121
0.70065773 0.60374546 0.75657165
0.75936216 0.6028052 0.74045002
0.81701064 0.60192281 0.72134835
0.65568858 0.60488868 0.75843489
0.71839619 0.60493392 0.74225622
0.77401853 0.60207719 0.72215635
0.83167481 0.60319436 0.70309061
0.67241943 0.60408109 0.74410224
0.73408979 0.60416609 0.72594297
0.78867483 0.601349 0.70386255
0.84629762 0.60350233 0.68281549
0.69219506 0.60522622 0.73174846
0.7497834 0.60339826 0.70962977
0.80333507 0.60162079 0.68558675
0.85992444 0.60481375 0.66257721
0.70891112 0.6054365 0.71643412
0.7695294 0.60657918 0.69531268
0.82306623 0.6058197 0.67028821
0.87152523 0.60415071 0.64134085
0.72561926 0.60364717 0.70108378
0.78620797 0.60682571 0.67799902
0.83670795 0.6061132 0.65103149
0.88210732 0.60350937 0.61912358
0.74129415 0.60289747 0.68377078
0.79579335 0.60217053 0.65672815
0.84932333 0.60442859 0.63075793
0.89980143 0.60775155 0.60186321
0.76105493 0.60506052 0.67043543
0.8165431 0.60634774 0.6424104
0.86499125 0.60669649 0.61249948
0.90431291 0.60318667 0.57668763
0.7787708 0.60526723 0.65510231
0.82918501 0.60664475 0.62317252
0.87559205 0.60603708 0.59128189
0.91287667 0.60257059 0.55350834
0.79444957 0.60551733 0.63780737
0.84588629 0.60787302 0.60687655
0.89125997 0.60830486 0.57302332
0.92552644 0.60486734 0.53430647
0.81521809 0.60967642 0.62448931
0.85748297 0.60621017 0.58562207
0.90084237 0.60766715 0.55082488
0.93916112 0.60817838 0.51410425
0.82885194 0.60797018 0.60519665
0.87010229 0.60552549 0.56536663
0.91448796 0.60896039 0.53158629
0.95179611 0.61149299 0.4939208
0.84350824 0.60724217 0.58690292
0.88274419 0.6058225 0.54612875
0.92509276 0.60930079 0.51038671
0.9573378 0.6099059 0.46978018
0.85712725 0.60655385 0.56662852
0.89436358 0.6051414 0.52589202
0.93670136 0.61063737 0.48918635
0.96087605 0.60732621 0.44565907
0.87076509 0.60584748 0.54735386
0.91103524 0.60840547 0.50763273
0.93923575 0.60706151 0.46506602
0.9724924 0.61066246 0.42449474
0.88845527 0.60908991 0.53007549
0.92061752 0.60776776 0.48543426
0.94984055 0.60740185 0.44386643
0.97300845 0.60711181 0.39941233
0.9000482 0.60642719 0.50880307
0.93121856 0.60710824 0.46421668
0.95943075 0.60876381 0.42170402
0.98362499 0.6104517 0.37826684
0.91467488 0.60773504 0.48854598
0.94687164 0.610394 0.44497654
0.97002071 0.61012208 0.39952278
0.9952454 0.61478788 0.35712054
0.92930156 0.60904276 0.46828896
0.95545411 0.60975987 0.42279685
0.98668545 0.6164037 0.3803179
1.0008137 0.6151824 0.33401558
0.94495082 0.6113286 0.44903079
0.96906626 0.6120891 0.40157694
0.99427217 0.61677295 0.35817504
0.99532306 0.60965353 0.30900988
0.95755523 0.61166191 0.42779362
0.98370475 0.61639643 0.38137394
0.9947921 0.61422211 0.33311066
1.004925 0.61401486 0.28690153
0.97619295 0.61595476 0.40751547
0.98924643 0.61480945 0.35723329
1.0003566 0.61361676 0.30998769
1.0105159 0.61539119 0.26481426
0.98173082 0.61336792 0.38335678
0.99983644 0.61616766 0.33505207
1.0039212 0.61301863 0.28690231
1.0100586 0.61382568 0.24078634
0.99734646 0.61668986 0.36211729
1.0064045 0.61655861 0.31192833
1.0125155 0.61538398 0.26477671
1.0156387 0.61721969 0.21773547
1.0038879 0.61509925 0.33795789
1.0119501 0.61597139 0.28780568
1.0160654 0.61580378 0.24070965
0.63123584 0.36706272 0.14138156
1.0124329 0.61450118 0.31377888
1.0195181 0.61635876 0.26466316
1.0206339 0.61620188 0.2176235
-0.02611593 -0.059798401 0.050936799
1.0250078 0.61687028 0.29057842
1.0280936 0.61874211 0.2415379
0.64326805 0.37100089 0.1422278
0.60657436 0.3507306 0.10953706
1.0315495 0.61527961 0.26641899
1.0316358 0.61716229 0.21743482
0.60279489 0.34451079 0.1224997
0.57720155 0.33112749 0.093727037
1.0340691 0.61272162 0.24131703
0.72763634 0.42051002 0.15154693
0.58745486 0.33385596 0.10658878
-0.02611593 -0.059798401 0.050936799
1.0486326 0.61710125 0.21711537
0.6218189 0.35144141 0.12226881
0.58719271 0.33410919 0.092593528
0.58774412 0.33955699 0.067673303
0.93559098 0.54325765 0.17688243
0.59844196 0.33583418 0.10541846
0.56786442 0.32145092 0.077721387
0.57046068 0.32885501 0.054798942
0.64484221 0.35835767 0.12196276
0.59414619 0.33212057 0.090426639
0.56661725 0.32068983 0.064726561
-0.02611593 -0.059798401 0.050936799
0.6134057 0.3368164 0.1031553
0.58985037 0.32840696 0.075434804
0.57539183 0.32589185 0.051651951
0.56598943 0.32832173 0.029864555
0.62115395 0.34004039 0.089063779
0.5795626 0.32169726 0.061501324
0.57013756 0.32314545 0.038696252
0.57575685 0.33653775 0.015825545
0.59577352 0.32344052 0.072232984
0.58230388 0.32293957 0.047467716
0.57189775 0.32437325 0.025681097
-0.02611593 -0.059798401 0.050936799
0.60151803 0.32567191 0.058161028
0.58306026 0.32317114 0.034453332
0.5696547 0.3246156 0.012723081
0.57026708 0.33602619 -0.010089707
0.60626292 0.32790685 0.044107854
0.58680916 0.32640955 0.020436974
0.57239985 0.32685772 -0.0012925044
0.59004152 0.3512232 -0.025190152
0.61898845 0.33514845 0.02799513
0.58554327 0.32566655 0.006442491
0.57916009 0.33308482 -0.015311182
0.59379828 0.35646123 -0.039170485
0.59867895 0.32247567 0.01414144
0.59526557 0.33191907 -0.0096318871
0.58890486 0.3403191 -0.030367874
0.57655221 0.34572306 -0.050045524
0.59839422 0.32174715 -0.00087149069
0.59601104 0.33416837 -0.023609895
0.5976311 0.34757501 -0.046405446
0.59328586 0.35996717 -0.067106932
0.60711265 0.32700348 -0.016945086
0.60774076 0.34241334 -0.039685816
0.61237597 0.35980856 -0.062465653
0.72786659 0.45520821 -0.10891801
0.62782282 0.34025148 -0.035099346
0.63643563 0.36166784 -0.059881605
0.75092947 0.45305362 -0.10538758
0.75750607 0.47953054 -0.13304116
0.72646385 0.40144658 -0.066849977
0.75700831 0.4399077 -0.098736934
0.75958872 0.46238163 -0.12538776
0.76217693 0.48685515 -0.15200254
0.74910676 0.41675943 -0.089004427
0.7566604 0.44225106 -0.11769447
0.76323318 0.46772817 -0.14536604
0.76582921 0.49420133 -0.17194478
0.76172775 0.42610919 -0.11107909
0.75731635 0.44559062 -0.13665277
0.76788527 0.47507074 -0.16532709
0.80937821 0.52959824 -0.20313042
0.76236105 0.42846704 -0.13105506
0.76394546 0.45194435 -0.15766907
0.76854503 0.47941023 -0.18426737
0.93259746 0.62322277 -0.26376438
0.76297551 0.43084303 -0.15203069
0.7625978 0.45429131 -0.1766078
0.76619756 0.48176077 -0.20318732
0.21197669 0.11179809 -0.032445189
0.76559746 0.43521139 -0.17300788
0.7682122 0.46166649 -0.19858696
0.20799431 0.10175986 -0.029551227
0.19295175 0.0998502 -0.031304725
0.76921928 0.43957624 -0.19400384
0.21695131 0.1007639 -0.031737681
0.19593158 0.094840303 -0.031451192
-0.02611593 -0.059798401 0.050936799
0.20898053 0.088722304 -0.027804933
0.20189999 0.091837361 -0.032617655
-0.02611593 -0.059798401 0.050936799
0.16291615 0.079925105 -0.029102061
0.20487979 0.08682745 -0.032764118
-0.02611593 -0.059798401 0.050936799
0.16788864 0.077925585 -0.030231707
-0.02611593 -0.059798401 0.050936799
-0.02611593 -0.059798401 0.050936799
0.16786508 0.071926601 -0.030339818
-0.02611593 -0.059798401 0.050936799
0.14486146 0.070009485 -0.029943675
0.17182992 0.067931026 -0.031486716
-0.02611593 -0.059798401 0.050936799
0.14881149 0.067031831 -0.032072216
-0.02611593 -0.059798401 0.050936799
-0.02611593 -0.059798401 0.050936799
0.14780682 0.06101834 -0.031161871
-0.02611593 -0.059798401 0.050936799
0.12583651 0.058061637 -0.028803214
0.15175295 0.057040844 -0.033308428
-0.02611593 -0.059798401 0.050936799
0.127783 0.054091312 -0.030912191
-0.02611593 -0.059798401 0.050936799
-0.02611593 -0.059798401 0.050936799
0.12874837 0.050106492 -0.032002725
-0.02611593 -0.059798401 0.050936799
0.10781533 0.047110017 -0.027663529
0.13071358 0.046118081 -0.03311203
-0.02611593 -0.059798401 0.050936799
0.10978445 0.044121437 -0.02875483
-0.02611593 -0.059798401 0.050936799
-0.02611593 -0.059798401 0.050936799
0.11173093 0.040151116 -0.030863803
-0.02611593 -0.059798401 0.050936799
0.097778797 0.042164851 -0.028565377
0.11070754 0.034155726 -0.030953124
-0.02611593 -0.059798401 0.050936799
0.099729195 0.039194349 -0.030656334
-0.02611593 -0.059798401 0.050936799
-0.02611593 -0.059798401 0.050936799
0.099694766 0.035213124 -0.031728074
-0.02611593 -0.059798401 0.050936799
0.084772401 0.035194602 -0.02744757
0.099656403 0.030232068 -0.032817818
-0.02611593 -0.059798401 0.050936799
0.084734045 0.030213546 -0.028537322
-0.02611593 -0.059798401 0.050936799
-0.02611593 -0.059798401 0.050936799
0.081725821 0.023207409 -0.027607419
-0.02611593 -0.059798401 0.050936799
0.076739438 0.031242087 -0.02836898
0.085646264 0.022265578 -0.031699244
-0.02611593 -0.059798401 0.050936799
0.076686278 0.027278941 -0.030440371
-0.02611593 -0.059798401 0.050936799
-0.02611593 -0.059798401 0.050936799
0.073678054 0.020272814 -0.029510472
-0.02611593 -0.059798401 0.050936799
0.06575533 0.025246404 -0.026271068
0.073643625 0.016291581 -0.030582204
-0.02611593 -0.059798401 0.050936799
0.066683255 0.021297758 -0.02936092
-0.02611593 -0.059798401 0.050936799
-0.02611593 -0.059798401 0.050936799
0.065663815 0.016302202 -0.029432219
-0.02611593 -0.059798401 0.050936799
0.059707191 0.022304624 -0.028211705
0.064610831 0.012342647 -0.031484827
-0.02611593 -0.059798401 0.050936799
0.059672758 0.018323397 -0.029283438
-0.02611593 -0.059798401 0.050936799
-0.02611593 -0.059798401 0.050936799
0.055664726 0.011320849 -0.028334748
-0.02611593 -0.059798401 0.050936799
0.052715413 0.019312171 -0.027134571
0.055611566 0.0073577119 -0.03040614
-0.02611593 -0.059798401 0.050936799
0.051658519 0.014352785 -0.029205192
-0.02611593 -0.059798401 0.050936799
-0.02611593 -0.059798401 0.050936799
0.050624266 0.010375141 -0.030258134
-0.02611593 -0.059798401 0.050936799
0.043734867 0.014309141 -0.025056221
0.050556313 0.0074299234 -0.033311173
-0.02611593 -0.059798401 0.050936799
0.044648014 0.011378416 -0.02912771
-0.02611593 -0.059798401 0.050936799
-0.02611593 -0.059798401 0.050936799
0.042628743 0.0063864402 -0.029180221
-0.02611593 -0.059798401 0.050936799
0.039675504 0.013377933 -0.02799806
0.045515854 0.0064842082 -0.035234563
-0.02611593 -0.059798401 0.050936799
0.039622348 0.0094147958 -0.030069456
-0.02611593 -0.059798401 0.050936799
-0.02611593 -0.059798401 0.050936799
0.038573306 0.0064550634 -0.032104038
-0.02611593 -0.059798401 0.050936799
0.034683362 0.010378296 -0.026958507
0.037520334 0.0024955152 -0.034156654
-0.02611593 -0.059798401 0.050936799
0.034600616 0.0084509989 -0.030993186
-0.02611593 -0.059798401 0.050936799
-0.02611593 -0.059798401 0.050936799
0.029630205 0.0014158615 -0.02802638
-0.02611593 -0.059798401 0.050936799
0.0286914 0.007382256 -0.025900152
0.027610932 -0.0035761101 -0.028078891
-0.02611593 -0.059798401 0.050936799
0.028608654 0.005454951 -0.029934835
-0.02611593 -0.059798401 0.050936799
-0.02611593 -0.059798401 0.050936799
0.025589567 0.00046656828 -0.029968556
-0.02611593 -0.059798401 0.050936799
0.023688387 0.0064003626 -0.025824215
0.023555497 -0.0035074875 -0.031002712
-0.02611593 -0.059798401 0.050936799
0.02262062 0.0034587341 -0.028858464
-0.02611593 -0.059798401 0.050936799
-0.02611593 -0.059798401 0.050936799
0.020567829 -0.00049723231 -0.030892286
-0.02611593 -0.059798401 0.050936799
0.017711222 0.002386403 -0.023784228
0.018533761 -0.0044712806 -0.031926431
-0.02611593 -0.059798401 0.050936799
0.017613681 0.0014770175 -0.028800551
-0.02611593 -0.059798401 0.050936799
-0.02611593 -0.059798401 0.050936799
0.013628292 -0.0045437817 -0.026834182
-0.02611593 -0.059798401 0.050936799
0.016629573 0.005479929 -0.028709687
0.014497049 -0.004420747 -0.033850603
-0.02611593 -0.059798401 0.050936799
0.013591762 0.00050963525 -0.029743068
-0.02611593 -0.059798401 0.050936799
-0.02611593 -0.059798401 0.050936799
0.010591391 -0.0044968366 -0.02877713
-0.02611593 -0.059798401 0.050936799
0.01065633 0.0024657925 -0.02665168
0.0094940383 -0.005402633 -0.03377467
-0.02611593 -0.059798401 0.050936799
0.0095550492 0.00056016911 -0.031667225
-0.02611593 -0.059798401 0.050936799
-0.02611593 -0.059798401 0.050936799
0.0065546832 -0.004446303 -0.030701295
-0.02611593 -0.059798401 0.050936799
0.0076194373 0.0025127372 -0.028594628
0.0045206142 -0.0084203547 -0.031735439
-0.02611593 -0.059798401 0.050936799
-0.02611593 -0.059798401 0.050936799
-0.02611593 -0.059798401 0.050936799
-0.02611593 -0.059798401 0.050936799
0.0015703896 -0.005446278 -0.029625691
-0.02611593 -0.059798401 0.050936799
0.0046012634 0.0025415933 -0.029537916
0.00048390019 -0.0083698211 -0.033659607
-0.02611593 -0.059798401 0.050936799
-0.02611593 -0.059798401 0.050936799
-0.02611593 -0.059798401 0.050936799
-0.02611593 -0.059798401 0.050936799
-0.0014665048 -0.0053993333 -0.031568639
-0.02611593 -0.059798401 0.050936799
0.00059806649 0.0015561181 -0.02948077
-0.00450039 -0.0093697999 -0.032584008
-0.02611593 -0.059798401 0.050936799
-0.02611593 -0.059798401 0.050936799
-0.02611593 -0.059798401 0.050936799
-0.02611593 -0.059798401 0.050936799
-0.0064507951 -0.0063993083 -0.030493051
-0.02611593 -0.059798401 0.050936799
-0.0024536243 0.0026209827 -0.032405365
-0.0085519003 -0.0083013428 -0.035489812
-0.02611593 -0.059798401 0.050936799
-0.02611593 -0.059798401 0.050936799
-0.02611593 -0.059798401 0.050936799
-0.02611593 -0.059798401 0.050936799
-0.02611593 -0.059798401 0.050936799
-0.02611593 -0.059798401 0.050936799
-0.02611593 -0.059798401 0.050936799
-0.012536371 -0.0093049109 -0.034433011
-0.02611593 -0.059798401 0.050936799
-0.02611593 -0.059798401 0.050936799
-0.02611593 -0.059798401 0.050936799
-0.02611593 -0.059798401 0.050936799
-0.02611593 -0.059798401 0.050936799
-0.02611593 -0.059798401 0.050936799
-0.02611593 -0.059798401 0.050936799
-0.016569156 -0.008254542 -0.036339149
-0.02611593 -0.059798401 0.050936799
-0.02611593 -0.059798401 0.050936799
-0.02611593 -0.059798401 0.050936799
-0.02611593 -0.059798401 0.050936799
-0.02611593 -0.059798401 0.050936799
-0.02611593 -0.059798401 0.050936799
-0.02611593 -0.059798401 0.050936799
-0.02611593 -0.059798401 0.050936799
-0.02611593 -0.059798401 0.050936799
-0.02611593 -0.059798401 0.050936799
-0.02611593 -0.059798401 0.050936799
-0.02611593 -0.059798401 0.050936799
-0.02611593 -0.059798401 0.050936799
-0.02611593 -0.059798401 0.050936799
-0.02611593 -0.059798401 0.050936799
-0.02611593 -0.059798401 0.050936799
-0.02611593 -0.059798401 0.050936799
-0.02611593 -0.059798401 0.050936799
-0.02611593 -0.059798401 0.050936799
-0.02611593 -0.059798401 0.050936799
-0.02611593 -0.059798401 0.050936799
-0.02611593 -0.059798401 0.050936799
-0.02611593 -0.059798401 0.050936799
-0.02611593 -0.059798401 0.050936799
-0.02611593 -0.059798401 0.050936799
-0.02611593 -0.059798401 0.050936799
-0.02611593 -0.059798401 0.050936799
-0.02611593 -0.059798401 0.050936799
-0.028521661 -0.0062479959 -0.034078304
-0.02611593 -0.059798401 0.050936799
-0.02611593 -0.059798401 0.050936799
-0.02611593 -0.059798401 0.050936799
-0.02611593 -0.059798401 0.050936799
-0.02611593 -0.059798401 0.050936799
-0.02611593 -0.059798401 0.050936799
-0.02611593 -0.059798401 0.050936799
-0.02611593 -0.059798401 0.050936799
-0.02611593 -0.059798401 0.050936799
-0.02611593 -0.059798401 0.050936799
-0.036561571 -0.0071829371 -0.035945319
-0.02611593 -0.059798401 0.050936799
-0.02611593 -0.059798401 0.050936799
-0.02611593 -0.059798401 0.050936799
-0.02611593 -0.059798401 0.050936799
-0.02611593 -0.059798401 0.050936799
-0.02611593 -0.059798401 0.050936799
-0.02611593 -0.059798401 0.050936799
-0.02611593 -0.059798401 0.050936799
-0.02611593 -0.059798401 0.050936799
-0.02611593 -0.059798401 0.050936799
-0.02611593 -0.059798401 0.050936799
-0.02611593 -0.059798401 0.050936799
-0.02611593 -0.059798401 0.050936799
-0.02611593 -0.059798401 0.050936799
-0.02611593 -0.059798401 0.050936799
-0.045574717 -0.0061327172 -0.036757849
-0.02611593 -0.059798401 0.050936799
-0.02611593 -0.059798401 0.050936799
-0.02611593 -0.059798401 0.050936799
-0.02611593 -0.059798401 0.050936799
-0.02611593 -0.059798401 0.050936799
-0.02611593 -0.059798401 0.050936799
-0.02611593 -0.059798401 0.050936799
-0.048488412 -0.0082120532 -0.031739205
-0.02611593 -0.059798401 0.050936799
-0.02611593 -0.059798401 0.050936799
-0.02611593 -0.059798401 0.050936799
-0.02611593 -0.059798401 0.050936799
-0.02611593 -0.059798401 0.050936799
-0.02611593 -0.059798401 0.050936799
-0.02611593 -0.059798401 0.050936799
-0.053535808 -0.0061401837 -0.0346082
-0.02611593 -0.059798401 0.050936799
-0.02611593 -0.059798401 0.050936799
-0.02611593 -0.059798401 0.050936799
-0.02611593 -0.059798401 0.050936799
-0.02611593 -0.059798401 0.050936799
-0.02611593 -0.059798401 0.050936799
-0.02611593 -0.059798401 0.050936799
-0.057497632 -0.0061620064 -0.03253372
-0.02611593 -0.059798401 0.050936799
-0.02611593 -0.059798401 0.050936799
-0.02611593 -0.059798401 0.050936799
-0.02611593 -0.059798401 0.050936799
-0.02611593 -0.059798401 0.050936799
-0.02611593 -0.059798401 0.050936799
-0.048419546 -0.00024959724 -0.02959574
-0.061478179 -0.0061657396 -0.031458888
-0.02611593 -0.059798401 0.050936799
-0.02611593 -0.059798401 0.050936799
-0.02611593 -0.059798401 0.050936799
-0.02611593 -0.059798401 0.050936799
-0.060466576 -0.0031698407 -0.031423625
-0.02611593 -0.059798401 0.050936799
-0.02611593 -0.059798401 0.050936799
-0.066502921 -0.0031121289 -0.033310208
-0.02611593 -0.059798401 0.050936799
-0.058425572 -0.0022133621 -0.029443871
-0.02611593 -0.059798401 0.050936799
-0.02611593 -0.059798401 0.050936799
-0.02611593 -0.059798401 0.050936799
-0.02611593 -0.059798401 0.050936799
-0.055366024 -0.0012785689 -0.026483238
-0.071479365 -0.0021124389 -0.032198578
-0.02611593 -0.059798401 0.050936799
-0.02611593 -0.059798401 0.050936799
-0.02611593 -0.059798401 0.050936799
-0.02611593 -0.059798401 0.050936799
-0.066375792 -0.0042385794 -0.026330598
-0.02611593 -0.059798401 0.050936799
-0.06041342 0.00079330418 -0.029352233
-0.075441182 -0.0021342614 -0.030124083
-0.02611593 -0.059798401 0.050936799
-0.067430861 0.00083651557 -0.030220352
-0.02611593 -0.059798401 0.050936799
-0.02611593 -0.059798401 0.050936799
-0.071370952 -0.0032208078 -0.026218627
-0.02611593 -0.059798401 0.050936799
-0.064375244 0.00077148154 -0.027277745
-0.080432415 -0.00011666294 -0.029994093
-0.02611593 -0.059798401 0.050936799
-0.071392685 0.00081469305 -0.028145872
-0.02611593 -0.059798401 0.050936799
-0.02611593 -0.059798401 0.050936799
-0.075332776 -0.00324263 -0.024144139
-0.02611593 -0.059798401 0.050936799
-0.067355968 0.00076415937 -0.026221715
-0.089504741 0.0050052358 -0.034733199
-0.02611593 -0.059798401 0.050936799
-0.075369306 0.0018107865 -0.027053032
-0.02611593 -0.059798401 0.050936799
-0.02611593 -0.059798401 0.050936799
-0.08340136 0.0028755069 -0.028884012
-0.02611593 -0.059798401 0.050936799
-0.07439515 0.0048428681 -0.029017095
-0.089366741 0.0018610314 -0.026789963
-0.02611593 -0.059798401 0.050936799
-0.081397802 0.0038681598 -0.028903574
-0.02611593 -0.059798401 0.050936799
-0.02611593 -0.059798401 0.050936799
-0.086329848 0.0018140866 -0.024847016
-0.02611593 -0.059798401 0.050936799
-0.077342361 0.0037995367 -0.025979754
-0.099420168 0.0069684228 -0.030510612
-0.02611593 -0.059798401 0.050936799
-0.084341079 0.0038246592 -0.025848217
-0.02611593 -0.059798401 0.050936799
-0.02611593 -0.059798401 0.050936799
-0.094383635 0.0069142999 -0.028605245
-0.02611593 -0.059798401 0.050936799
-0.081322908 0.0037958035 -0.024904929
-0.1064219 0.011010957 -0.031306669
-0.02611593 -0.059798401 0.050936799
-0.093394682 0.0089284685 -0.029587649
-0.02611593 -0.059798401 0.050936799
-0.02611593 -0.059798401 0.050936799
-0.10034116 0.007899493 -0.026475154
-0.02611593 -0.059798401 0.050936799
-0.086295411 0.00579532 -0.023775276
-0.11034627 0.010952956 -0.027232856
-0.02611593 -0.059798401 0.050936799
-0.099367008 0.010931567 -0.02843922
-0.02611593 -0.059798401 0.050936799
-0.02611593 -0.059798401 0.050936799
-0.10937212 0.013985038 -0.029196907
-0.02611593 -0.059798401 0.050936799
-0.094334401 0.0098776212 -0.026551865
-0.12036225 0.016024176 -0.028954178
-0.02611593 -0.059798401 0.050936799
-0.1022955 0.0098701548 -0.02440222
-0.02611593 -0.059798401 0.050936799
-0.02611593 -0.059798401 0.050936799
-0.11534444 0.015988143 -0.028048478
-0.02611593 -0.059798401 0.050936799
-0.099310838 0.0108773 -0.025440235
-0.12832634 0.020034121 -0.027732126
-0.02611593 -0.059798401 0.050936799
-0.11232626 0.015959287 -0.027105182
-0.02611593 -0.059798401 0.050936799
-0.02611593 -0.059798401 0.050936799
-0.12331247 0.018998258 -0.026844427
-0.02611593 -0.059798401 0.050936799
-0.10934161 0.016966442 -0.028143201
-0.13932343 0.025090836 -0.028434992
-0.02611593 -0.059798401 0.050936799
-0.11929448 0.018965812 -0.025919933
-0.02611593 -0.059798401 0.050936799
-0.02611593 -0.059798401 0.050936799
-0.13330972 0.024051381 -0.027566098
-0.02611593 -0.059798401 0.050936799
-0.11225531 0.0148871 -0.023124557
-0.15231228 0.032154396 -0.029064249
-0.02611593 -0.059798401 0.050936799
-0.12929566 0.023019105 -0.026659612
-0.02611593 -0.059798401 0.050936799
-0.02611593 -0.059798401 0.050936799
-0.14225492 0.028046826 -0.025325581
-0.02611593 -0.059798401 0.050936799
-0.12328196 0.021979652 -0.025790714
-0.16225336 0.037153251 -0.026786931
-0.02611593 -0.059798401 0.050936799
-0.14130342 0.030097157 -0.028307319
-0.02611593 -0.059798401 0.050936799
-0.02611593 -0.059798401 0.050936799
-0.15524378 0.035110377 -0.025954839
-0.02611593 -0.059798401 0.050936799
-0.13326442 0.026014864 -0.025530737
-0.17924841 0.047248736 -0.028286628
-0.02611593 -0.059798401 0.050936799
-0.14823811 0.032067683 -0.025140766
-0.02611593 -0.059798401 0.050936799
-0.02611593 -0.059798401 0.050936799
-0.16923244 0.042177528 -0.026565306
-0.02611593 -0.059798401 0.050936799
-0.14426149 0.031071585 -0.026233606
-0.1982244 0.057333317 -0.02874909
-0.02611593 -0.059798401 0.050936799
-0.16222286 0.040134646 -0.02573321
-0.02611593 -0.059798401 0.050936799
-0.02611593 -0.059798401 0.050936799
-0.18720859 0.05225851 -0.027046543
-0.02611593 -0.059798401 0.050936799
-0.1552024 0.036074031 -0.023937501
-0.21313407 0.065331526 -0.025324099
-0.02611593 -0.059798401 0.050936799
-0.18121755 0.05023732 -0.027195327
-0.02611593 -0.059798401 0.050936799
-0.02611593 -0.059798401 0.050936799
-0.2061432 0.063306741 -0.025491666
-0.02611593 -0.059798401 0.050936799
-0.17120551 0.044166267 -0.02549202
-0.23606007 0.078393772 -0.023658007
-0.02611593 -0.059798401 0.050936799
-0.19917892 0.059300389 -0.026694927
-0.02611593 -0.059798401 0.050936799
-0.02611593 -0.059798401 0.050936799
-0.22910665 0.076405168 -0.025824897
-0.02611593 -0.059798401 0.050936799
-0.19018146 0.054250855 -0.025954481
-0.26297355 0.094469845 -0.021862708
-0.02611593 -0.059798401 0.050936799
-0.22212362 0.072380707 -0.026028506
-0.02611593 -0.059798401 0.050936799
-0.02611593 -0.059798401 0.050936799
-0.26404434 0.095545627 -0.025824547
-0.02611593 -0.059798401 0.050936799
-0.21113442 0.065324351 -0.025361679
-0.97576058 0.55150843 -0.19730955
-0.02611593 -0.059798401 0.050936799
-0.25107422 0.088500164 -0.026194949
-0.02611593 -0.059798401 0.050936799
-0.98537242 0.55418199 -0.17707434
-0.97001278 0.54972231 -0.2104539
-0.02611593 -0.059798401 0.050936799
-0.23707466 0.079415277 -0.024620865
-1.0010051 0.56091261 -0.15865366
-0.97763693 0.5493893 -0.19031039
-0.96727943 0.54896504 -0.22452354
-0.02611593 -0.059798401 0.050936799
-1.0697004 0.60202664 -0.14962073
-0.98824477 0.55306637 -0.17003837
-0.97889489 0.55064589 -0.20426881
-0.02611593 -0.059798401 0.050936799
-1.1563678 0.65422148 -0.14105102
-1.0038625 0.55877906 -0.15063605
-0.98448974 0.54826993 -0.18219957
-0.96112561 0.53574675 -0.21387428
-1.1558888 0.65175152 -0.11509588
-1.0435106 0.57966578 -0.13551077
-0.99811584 0.55197579 -0.16287085
-0.97675127 0.53945982 -0.19450796
-1.1624304 0.65334219 -0.090936445
-1.1431857 0.6389423 -0.12856999
-1.007713 0.55363142 -0.14165403
-0.99237692 0.54317278 -0.17514169
-1.1619663 0.65189016 -0.065962933
-1.1727242 0.65466738 -0.1067251
-1.0203055 0.55629778 -0.12036281
-0.99996752 0.54180372 -0.15301685
-1.1605102 0.64843488 -0.041044258
-1.1812466 0.65624708 -0.081528418
-1.0589204 0.57614487 -0.10327503
-1.0095537 0.54144162 -0.1308364
-1.1620378 0.64898962 -0.015997134
-1.17778 0.65076679 -0.055683702
-1.1155072 0.60707283 -0.086650491
-1.0261378 0.54612195 -0.10943399
-1.1635842 0.64956242 0.0080503374
-1.1812927 0.65031087 -0.029617347
-1.1890332 0.64804202 -0.068526641
-1.0387118 0.54877013 -0.087143108
-1.1611243 0.64710343 0.032968242
-1.1858157 0.65187627 -0.0044958293
-1.2045386 0.65364617 -0.04312636
-1.0522776 0.55342162 -0.064797394
-1.1626521 0.64765817 0.058015373
-1.1853368 0.64940625 0.021459319
-1.2040449 0.65015823 -0.016189568
-1.0898255 0.57119316 -0.043765806
-1.1622027 0.64722401 0.082007237
-1.1898599 0.65097165 0.04658084
-1.2105341 0.65069479 0.010950834
-1.1603302 0.60811603 -0.0237711
-1.1597537 0.64678276 0.10596152
-1.1873814 0.64849448 0.072498411
-1.2170383 0.65224934 0.037109587
-1.2347475 0.64798051 0.00035147369
-1.1573086 0.64534163 0.12989779
-1.1909086 0.64905649 0.097583123
-1.2195174 0.65075374 0.065138459
-1.2472053 0.65151989 0.028658349
-1.1508681 0.64288628 0.15374088
-1.1844347 0.64556515 0.12340751
-1.2200345 0.64928722 0.091130421
-1.2556567 0.65202749 0.057835646
-1.1474195 0.64244139 0.17767638
-1.1889353 0.64811224 0.14954671
-1.2225244 0.64980936 0.11819566
-1.2581171 0.65051383 0.086864173
-1.1489393 0.64499581 0.20275953
-1.1834798 0.64464259 0.17439023
-1.2259955 0.65031707 0.14627934
-1.2576046 0.64700782 0.11480063
-1.1504589 0.64755028 0.22784272
-1.1799974 0.64316165 0.20030703
-1.2244979 0.64782542 0.17321537
-1.2660443 0.6505149 0.14403199
-1.1370729 0.64110667 0.24948287
-1.1824983 0.64570159 0.22640863
-1.2209783 0.64630824 0.20113149
-1.2595073 0.64395165 0.17380098
-1.1336201 0.64166158 0.27343637
-1.1780162 0.64421707 0.25230664
-1.2234495 0.64681244 0.2291964
-1.2689241 0.64844406 0.20406879
-1.1281757 0.64020967 0.29731625
-1.1715571 0.64174366 0.27714938
-1.2199485 0.64531338 0.25611287
-1.2673706 0.6458981 0.23400381
-1.1237231 0.64076096 0.32125098
-1.1710665 0.64227319 0.30315858
-1.2204014 0.64579231 0.28513983
-1.2717813 0.64735496 0.26512331
-1.1103481 0.63633519 0.3419275
-1.1626077 0.63979262 0.32796377
-1.2139088 0.64228284 0.31196389
-1.2622596 0.64179897 0.29385424
-1.1108642 0.63988584 0.36700991
-1.1591176 0.64031136 0.35391659
-1.2143538 0.64476138 0.3410269
-1.2736082 0.64924371 0.32721269
-1.1004659 0.63645256 0.38876051
-1.1526544 0.63883781 0.37877738
-1.2018929 0.63824898 0.36668447
-1.2621095 0.64269876 0.35488841
-1.0960094 0.63800371 0.41271323
-1.1491642 0.63935649 0.4047302
-1.2003608 0.6397385 0.39469224
-1.2625064 0.64312333 0.38691437
-1.0866032 0.63657361 0.43451864
-1.1426747 0.63986456 0.43062663
-1.1958374 0.63921767 0.4226076
-1.2519808 0.63856357 0.41564459
-1.0761969 0.63513994 0.45630527
-1.1312617 0.63540965 0.45334011
-1.1912912 0.6396786 0.45154062
-1.2553465 0.64198029 0.4487806
-1.0677904 0.63371342 0.47812948
-1.1227952 0.63492876 0.4781813
-1.1837909 0.63816524 0.47838193
-1.2428403 0.63743138 0.47647357
-1.0653031 0.63825321 0.50317347
-1.1133515 0.63346249 0.50198603
-1.1782638 0.63864064 0.50629652
-1.2471793 0.64283329 0.51066411
-1.0479701 0.63284934 0.52175754
-1.1088388 0.6349594 0.52893776
-1.1687638 0.63712007 0.53310025
-1.2287045 0.6352815 0.53719056
-1.0395371 0.63340437 0.54461741
-1.0934453 0.63050824 0.55057639
-1.1622181 0.63757378 0.56199569
-1.2310477 0.63967633 0.57132554
-1.0281538 0.63098532 0.56536758
-1.0859706 0.63203055 0.57547241
-1.1497451 0.63406098 0.58770734
-1.2095962 0.63113207 0.59677792
-1.0246665 0.63552147 0.59039289
-1.0765042 0.63154602 0.60029483
-1.1402413 0.63354021 0.61452901
-1.2138711 0.63847935 0.63400352
-1.0083482 0.63113916 0.60801399
-1.0680337 0.632065 0.62515402
-1.1257876 0.6300382 0.63920343
-1.1904573 0.62996399 0.65741909
-0.99891132 0.63269049 0.63087314
-1.0536135 0.62959898 0.64784712
-1.118234 0.63248801 0.66811609
-1.1907595 0.63531542 0.69353378
-0.98554325 0.63128227 0.65060407
-1.043162 0.6301288 0.67166913
-1.1087075 0.63294911 0.69595551
-1.1732916 0.63078475 0.71913344
-0.97612518 0.6328516 0.6724636
-1.0317147 0.62965512 0.69545424
-1.0972041 0.6324212 0.7227397
-1.1636863 0.63217324 0.75098956
-0.95882571 0.62848377 0.68906623
-1.0182904 0.62819254 0.71818417
-1.0787925 0.62794119 0.74532163
-1.1412647 0.62566119 0.7744599
-0.94248468 0.62508321 0.70770508
-1.003881 0.62774444 0.7399137
-1.0672625 0.62939495 0.7731415
-1.1415027 0.63295794 0.8136096
-0.93108958 0.62566364 0.72850931
-0.99241114 0.62825251 0.76471651
-1.0527821 0.62787449 0.79885161
-1.1131648 0.624497 0.83293253
-0.92066771 0.62822932 0.750368
-0.97504759 0.62583011 0.78435427
-1.0373168 0.62736845 0.82356125
-1.1084492 0.62981236 0.86995298
-0.90238327 0.62487578 0.76597023
-0.96063823 0.62538189 0.8060838
-1.0208743 0.62587708 0.84723437
-1.0801301 0.62136948 0.88827622
-0.88507986 0.62150782 0.78259104
-0.94523305 0.62393022 0.82777643
-1.0073485 0.62632376 0.87499869
-1.0773463 0.62963724 0.92838728
-0.87365818 0.62406981 0.80443096
-0.92784697 0.62248957 0.84843183
-0.98694807 0.6238544 0.89657938
-1.046069 0.62022001 0.94463682
-0.85832781 0.62269056 0.8221249
-0.91439217 0.62400842 0.87221551
-0.97048301 0.62334466 0.92127025
-1.0412854 0.62848049 0.98471028
-0.84492916 0.62426364 0.84290963
-0.89504778 0.62159687 0.89081597
-0.94912416 0.61990809 0.94081485
-1.0080687 0.6181106 0.99790525
-0.83057207 0.62486953 0.8616581
-0.88061184 0.6231302 0.91358113
-0.93361354 0.62136555 0.96755987
-0.99539602 0.62243354 1.032758
-0.81130648 0.62153059 0.87624198
-0.86029023 0.61973339 0.93114519
-0.90929669 0.61695439 0.98503065
-0.97100019 0.61895001 1.0542455
-0.7979266 0.62312174 0.89602697
-0.84389603 0.62029588 0.95185542
-0.89378607 0.61841184 1.0117757
-0.94756293 0.61643362 1.0777692
-0.78059268 0.62273514 0.91370147
-0.82356662 0.61889869 0.96945548
-0.87142342 0.61597145 1.0313195
-0.92607993 0.61588794 1.1033658
-0.76523185 0.62433732 0.9324491
-0.80419958 0.61746889 0.98907369
-0.85488641 0.61940688 1.0590816
-0.90263486 0.61537129 1.1269255
-0.74204975 0.61905664 0.94292313
-0.78582448 0.61804229 1.0087466
-0.82667178 0.61307222 1.0714428
-0.8772167 0.61286581 1.1494119
-0.72962427 0.62261486 0.96476227
-0.76547641 0.61662704 1.0273464
-0.81206638 0.61945999 1.1022954
-0.85181713 0.61037844 1.1708986
-0.71033216 0.62125742 0.98038179
-0.74709731 0.6182003 1.0470375
-0.7838704 0.6131435 1.1136571
-0.82930392 0.61281055 1.19753
-0.69399023 0.62287414 0.99811113
-0.72676396 0.61780298 1.0646555
-0.76437533 0.61560446 1.1393453
-0.80390054 0.61132312 1.2190349
-0.67273974 0.6205458 1.0116757
-0.70445365 0.61641663 1.0812184
-0.74005055 0.61319304 1.1568522
-0.77845186 0.61179906 1.2425749
-0.65154952 0.61727202 1.0222234
-0.68216211 0.61504847 1.0967815
-0.71957046 0.6166684 1.1815399
-0.75010914 0.60935527 1.2610064
-0.63225335 0.61691439 1.0378609
-0.66371906 0.61856711 1.1195077
-0.6894123 0.61038089 1.1908647
-0.72274345 0.60789669 1.2804742
-0.61391181 0.61852384 1.0555526
-0.6414274 0.61719888 1.1350707
-0.67276198 0.61872494 1.2237151
-0.69339699 0.60644913 1.2989049
-0.59461176 0.61916602 1.0712081
-0.61332506 0.61097282 1.1414342
-0.63778889 0.60858297 1.2238768
-0.66406918 0.60501963 1.3163359
-0.57341754 0.6168921 1.0817738
-0.59291983 0.61452043 1.1621233
-0.61533189 0.61106932 1.2475094
-0.63765419 0.60652798 1.3378758
-0.55026507 0.61364722 1.0902845
-0.56871134 0.6112178 1.1736143
-0.58710152 0.60873407 1.2599428
-0.60830379 0.60608023 1.3563243
-0.53187817 0.61722016 1.1100116
-0.54538941 0.61282736 1.1902122
-0.56272358 0.61028576 1.279521
-0.57607806 0.60273075 1.3686646
-0.51065737 0.61692768 1.121613
-0.51924139 0.60857195 1.1986487
-0.53351206 0.60796499 1.2909361
-0.54670101 0.60426456 1.388149
-0.48652765 0.61269748 1.1290872
-0.49685523 0.61213052 1.2183006
-0.50813037 0.61051303 1.3105136
-0.51547122 0.60191852 1.4005259
-0.4662239 0.61433601 1.1447419
-0.46880904 0.6059587 1.2216649
-0.47706601 0.6043123 1.3148212
-0.48323756 0.60056865 1.4129024
-0.4439806 0.61502171 1.1573422
-0.44638154 0.6104809 1.2433342
-0.44974479 0.6059075 1.3313442
-0.45098525 0.59920067 1.4262784
-0.42174122 0.61470765 1.1699244
-0.41833138 0.60530895 1.2467166
-0.41869521 0.60072476 1.3346703
-0.4224987 0.60464698 1.4508518
-0.39953932 0.61442971 1.1805073
-0.39400572 0.60791481 1.2633138
-0.3922044 0.60717803 1.3592993
-0.38557047 0.59755152 1.4480311
-0.37257177 0.60733396 1.1798738
-0.36595166 0.60374266 1.2667143
-0.3602151 0.6010462 1.3595896
-0.35423124 0.59911436 1.4654785
-0.35126033 0.61096847 1.1955459
-0.34066361 0.606381 1.2812935
-0.33470541 0.60748488 1.3852372
-0.32098997 0.59976065 1.477872
-0.32807729 0.61070502 1.2051103
-0.31265092 0.60124516 1.2826767
-0.30177245 0.60140371 1.3825096
-0.28772604 0.60138857 1.4912832
-0.30478892 0.61335069 1.2197272
-0.28823856 0.6067782 1.3033266
-0.27244377 0.60499144 1.399031
-0.2536051 0.60014009 1.497624
-0.2797116 0.61017096 1.2242016
-0.25926352 0.60167497 1.3026917
-0.24051061 0.59891373 1.3963224
-0.21950686 0.59790987 1.502947
-0.25554752 0.60992205 1.2327476
-0.23387006 0.6072225 1.3223232
-0.21205765 0.60539603 1.4189144
-0.18440482 0.59667587 1.5082693
-0.23046634 0.60774231 1.2372401
-0.20401931 0.59922469 1.3156173
-0.17826378 0.59743816 1.4091346
-0.15029874 0.59644532 1.5136284
-0.20532113 0.60750782 1.2447675
-0.17762212 0.60576844 1.3352482
-0.14884841 0.60395306 1.4297086
-0.11521546 0.59522945 1.517951
-0.18021731 0.60630971 1.2502778
-0.14868452 0.60070139 1.3326138
-0.11599036 0.59794414 1.4229825
-0.080169618 0.59404975 1.5202744
-0.15598525 0.60900599 1.2618768
-0.12049456 0.60241967 1.3421202
-0.085759386 0.60061896 1.4344687
-0.045078479 0.59483349 1.5246329
-0.12983628 0.60976779 1.2694035
-0.091511652 0.59931606 1.3415213
-0.052938774 0.59464628 1.4257432
-0.010051366 0.59367192 1.5259567
-0.10389812 0.60471153 1.2668256
-0.063257679 0.60297978 1.3540629
-0.021478482 0.60311741 1.448315
0.023874462 0.59060466 1.5222647
-0.077749178 0.60547328 1.2743523
-0.034417603 0.59700328 1.3464122
0.0090755373 0.59138805 1.4265234
0.059010897 0.5933519 1.5286586
-0.051596291 0.60723495 1.2818971
-0.0051825251 0.60068148 1.3579352
0.042543322 0.6018517 1.4490938
0.095023029 0.59320462 1.5289819
-0.025548816 0.60608757 1.2843895
0.022721751 0.596654 1.3533385
0.073244117 0.59399503 1.4343719
0.11395833 0.5268327 1.3783758
0.00058141537 0.60686749 1.2909167
0.052919202 0.6003648 1.3628434
0.10646366 0.5986768 1.444838
0.1436711 0.52197909 1.3637266
0.027545968 0.60378915 1.2893555
0.081868596 0.59829718 1.3602631
0.11054257 0.48496971 1.2046236
0.20103022 0.59480572 1.5280259
0.054619845 0.60461968 1.2928647
0.096994862 0.52774137 1.2206563
0.17139168 0.59749794 1.4405998
0.23480627 0.59188324 1.5163366
0.081712447 0.60543227 1.2973738
0.14077112 0.59515834 1.3551017
0.2022018 0.59355021 1.4309481
0.26972497 0.59183002 1.5116802
0.097507626 0.54727721 1.1909901
0.17082572 0.59599626 1.357555
0.23519967 0.59443158 1.4303461
0.30566615 0.5927549 1.5080229
0.13563462 0.60229319 1.2933061
0.20190674 0.5988121 1.3610252
0.26709628 0.59340733 1.4247286
0.33948749 0.59179586 1.498369
0.16473079 0.60409832 1.2977955
0.23082262 0.59778053 1.3564637
0.29901552 0.59336483 1.4201287
0.37332755 0.5908187 1.4897149
0.19276702 0.60496151 1.2992867
0.26077968 0.59770906 1.3539006
0.32876965 0.58947492 1.4074968
0.40717155 0.59084135 1.4810786
0.21973942 0.60388279 1.2977617
0.28963155 0.59473217 1.3463041
0.36708677 0.60006535 1.421976
0.44197795 0.59089667 1.4704244
0.24765156 0.60185504 1.2932009
0.32173893 0.59952605 1.3507911
0.3946383 0.59236419 1.3993131
0.47582585 0.59191924 1.4618062
0.2756277 0.60177267 1.2916751
0.35048929 0.5946399 1.33816
0.42756131 0.59331793 1.3947124
0.50860995 0.5909999 1.4501718
0.30462632 0.6026684 1.2911482
0.38257799 0.59945184 1.3416476
0.45836446 0.59238768 1.3841153
0.44450319 0.47973552 1.2002747
0.33145982 0.59971678 1.2825893
0.41031376 0.59558713 1.3280538
0.48600271 0.58761364 1.3655052
0.40414095 0.40684789 1.0356562
0.36148092 0.60159063 1.2830615
0.44125977 0.59752977 1.3245083
-0.02611593 -0.059798401 0.050936799
0.59015727 0.57402557 1.3753127
0.38617194 0.59577328 1.2674886
0.46901819 0.59464693 1.3119323
0.44692099 0.47422382 1.1171017
0.63652611 0.58855039 1.3917128
0.418302 0.60154885 1.2729934
0.4462873 0.53011781 1.1791456
0.58261144 0.59264457 1.3427798
0.66823936 0.58870691 1.3761165
0.44299302 0.59573156 1.2574207
0.44169304 0.49252805 1.1015253
0.61025751 0.58987021 1.3242056
0.69893414 0.58888507 1.3595395
0.46137285 0.5822084 1.2268215
0.56169856 0.59861994 1.2932626
0.6410498 0.5909577 1.3126448
0.72963285 0.59006304 1.3429805
0.41266358 0.48760632 1.0479616
0.58530015 0.59389645 1.2727282
0.66871858 0.58916509 1.2950884
0.76032764 0.59024119 1.3264034
