# .PCD v0.7 - Point Cloud Data file format
VERSION 0.7
FIELDS x y z
SIZE 4 4 4
TYPE F F F
COUNT 1 1 1
WIDTH 1406
HEIGHT 1
VIEWPOINT 0 0 0 1 0 0 0
POINTS 1406
DATA ascii
2.4154723 0.34046897 3.2815592
2.4504876 0.2147868 3.1996024
2.4967906 0.095810711 3.1315603
2.5490472 -0.02515037 3.0613699
2.460793 0.33589315 3.1925979
2.5050242 0.21297918 3.1215219
2.5553715 0.095952228 3.0554402
2.6044831 -0.02385355 2.9773269
2.5113444 0.33308196 3.1155746
2.5646985 0.21302667 3.0503817
2.6037817 0.095292598 2.9704928
2.6508265 -0.022433978 2.8884549
2.5629373 0.33123088 3.0405495
2.6121423 0.21133462 2.9674346
2.655252 0.09556777 2.8885067
2.7063746 -0.02124569 2.81041
2.6124895 0.32842326 2.9635448
2.6596653 0.21057004 2.8885043
2.7088563 0.096708983 2.8134983
2.7609265 -0.019053975 2.7324018
2.6621017 0.32656127 2.8895574
2.7163548 0.2096104 2.8184016
2.757364 0.096958742 2.7335675
2.8042934 -0.016641896 2.6446037
2.7137885 0.32461968 2.8195307
2.7618406 0.20888917 2.7375097
2.8028352 0.097255431 2.6516938
2.8609159 -0.015529554 2.5705388
2.7593262 0.32284439 2.7416193
2.8094199 0.20807034 2.6615784
2.8584952 0.098335192 2.5796468
2.9470317 -0.011992119 2.5219741
2.8008237 0.32011977 2.6617661
2.8539472 0.20831637 2.5827224
2.929404 0.10112562 2.5203493
3.0036397 -0.0098618604 2.4469271
2.8535702 0.31912017 2.5947378
2.9137561 0.20923705 2.5185974
2.9962535 0.10298482 2.4581106
3.0582333 -0.0067064911 2.3709364
2.8981647 0.31729418 2.5198445
2.9958878 0.21177092 2.4710894
3.0519364 0.10504633 2.3870814
3.1138597 -0.0045907274 2.2969079
2.9925864 0.32251316 2.48716
3.052604 0.21279281 2.4020228
3.0984674 0.10628501 2.3082056
3.1573243 -0.0012692735 2.2141261
3.0432584 0.32159308 2.4161706
3.0971687 0.21300267 2.325166
3.1460168 0.10750201 2.2303109
3.2129362 0.0018644147 2.1391163
3.0908935 0.32071999 2.3432381
3.1427372 0.21420878 2.2483087
3.1986625 0.10961044 2.1573389
3.2614558 0.0051136576 2.0592396
3.1344883 0.3188976 2.2683637
3.1974163 0.21527404 2.1772802
3.2451825 0.11286688 2.0774999
4.6883049 0.036593843 2.7763376
3.185164 0.31897736 2.197392
3.2450404 0.21641867 2.103384
4.6633854 0.18619137 2.8055201
4.7743983 0.043122251 2.6728089
3.2348404 0.31906074 2.1264396
4.6595964 0.33156943 2.8422334
4.7485652 0.19063324 2.7069724
4.6332288 0.042648643 2.4523685
3.2734022 0.31829232 2.0496778
4.7236185 0.33323193 2.7360287
4.8125196 0.19436775 2.5968051
4.6356668 0.046108741 2.3153391
4.4438276 0.44440001 2.6222394
4.800735 0.33575714 2.6345959
4.607832 0.18359241 2.3513594
4.7158175 0.052604415 2.214922
4.5535169 0.45026702 2.5502677
4.5929933 0.31601217 2.3880448
4.683013 0.18807018 2.2529995
5.0661688 0.066002056 2.2276092
4.5822968 0.44627318 2.4326165
4.6661859 0.31847939 2.2906861
5.028482 0.20739432 2.2708869
5.1289625 0.071902588 2.1084995
4.6454086 0.44684899 2.3314111
4.9189525 0.33682144 2.2722793
5.104424 0.21310349 2.1595304
13.535316 0.30123368 5.0882688
4.7176385 0.4492836 2.2360704
4.8840814 0.33168721 2.1207879
5.176363 0.2178272 2.0482314
13.757 0.32157171 4.7993884
5.000648 0.47329992 2.2292039
5.0771232 0.34492934 2.0653944
8.4287758 0.39569226 3.0689008
14.016867 0.34159237 4.5197902
4.9225059 0.45955667 2.0653627
6.5323672 0.45797262 2.4683299
8.6058235 0.4079026 2.9077525
-0.02611593 -0.059798401 0.050936799
5.2133074 0.48374322 2.0473497
6.5301266 0.45608121 2.2962792
8.4617729 0.40326917 2.6412752
-0.02611593 -0.059798401 0.050936799
5.2560592 0.4827348 1.9274904
6.6004434 0.46040559 2.1519918
8.618619 0.41575024 2.4695063
-0.02611593 -0.059798401 0.050936799
5.3431077 0.48729613 1.8219072
6.6113586 0.46032238 1.9877306
8.6727533 0.42428577 2.2615767
-0.02611593 -0.059798401 0.050936799
5.4139824 0.49007803 1.7075918
6.7338734 0.46927848 1.8525528
8.7008448 0.43095091 2.0521002
-0.02611593 -0.059798401 0.050936799
5.4808168 0.49191061 1.5913342
6.7920389 0.4727909 1.7004757
8.7188988 0.43668848 1.8407943
-0.02611593 -0.059798401 0.050936799
5.5647345 0.49660936 1.4788098
6.8050137 0.47364607 1.5391936
8.6456871 0.43800661 1.6171131
12.340692 0.39615136 1.8022382
5.6335502 0.49845287 1.3615152
6.834012 0.47642553 1.3786466
8.7390881 0.44914833 1.4225
11.823847 0.39264047 1.4437299
5.6902547 0.50044805 1.2384479
6.8560271 0.47821212 1.2192127
8.8634939 0.46317828 1.2273582
11.334546 0.38950801 1.1137224
5.7760077 0.50630218 1.1169071
6.9171624 0.48374957 1.0651159
8.7202082 0.46182051 1.0009397
6.0628357 0.18971342 0.47359198
5.8436956 0.50927579 0.99265134
6.9551668 0.48849633 0.90443587
6.1511869 0.31357446 0.57421243
6.035089 0.19747949 0.32620201
5.9283366 0.51524204 0.86513138
6.967113 0.49139103 0.74120927
5.9932261 0.30899015 0.41903436
6.03442 0.20707594 0.18233934
6.0159397 0.5212338 0.73555565
6.094409 0.42393267 0.51225072
6.0386195 0.31734934 0.27828798
3.075835 0.081159987 0.044407543
6.0854812 0.52534467 0.60328323
5.9915829 0.41800651 0.36401847
3.6483579 0.17288259 0.10236719
3.0955029 0.087386191 -0.027872562
5.9996557 0.51534009 0.45565909
3.5605037 0.22630647 0.15399595
3.0556092 0.13765639 0.021800525
3.1350961 0.094612785 -0.10450911
6.0190606 0.51575768 0.31725639
3.5319242 0.22492336 0.070477702
3.0862937 0.14382501 -0.049686614
2.7311254 0.079002813 -0.14924322
3.5291481 0.27795172 0.12550758
3.0373368 0.18716487 -0.0019698665
3.1129 0.1490805 -0.12511526
2.7488682 0.085163824 -0.2174871
3.1193876 0.23803325 0.043429472
3.0829771 0.19231601 -0.0757562
2.7149346 0.12541419 -0.16810696
2.7815938 0.092288926 -0.28699449
3.0470397 0.23157372 -0.026356485
3.0536265 0.19171923 -0.1472417
2.7377102 0.13052125 -0.23446348
2.8551698 0.10141126 -0.36523354
3.0806935 0.23475017 -0.098953724
2.6847148 0.16387719 -0.18685175
2.7774303 0.1366214 -0.30412039
2.3881838 0.080073096 -0.35587311
2.7845809 0.20682701 -0.14993207
2.7414505 0.16989821 -0.25582847
2.3142807 0.10739688 -0.30197695
2.4130378 0.086100459 -0.41825059
2.5946009 0.18841319 -0.19672409
2.7641664 0.17405973 -0.32520202
2.3780611 0.11535629 -0.36904979
2.4547656 0.094193101 -0.48790905
2.7461863 0.20325455 -0.2763207
2.3469739 0.14068888 -0.32499462
2.4148564 0.12139484 -0.43465173
2.8051858 0.12245407 -0.63400811
1.945663 0.12752751 -0.22868644
2.3788042 0.1457094 -0.38852128
2.4625645 0.12948403 -0.50542265
2.861619 0.13278197 -0.71990705
2.3527379 0.16698854 -0.34263277
2.4056351 0.15074781 -0.45195401
2.7790847 0.15777659 -0.64588451
2.5816903 0.11971688 -0.71089935
2.3825605 0.17001654 -0.40615788
2.5210843 0.16284554 -0.53792584
2.6723018 0.15491745 -0.68595064
2.4750466 0.11873075 -0.74393165
2.4073882 0.17406233 -0.46957105
2.710083 0.18312852 -0.65013546
2.5426989 0.14896046 -0.71564192
2.7203765 0.14345972 -0.89312816
2.5935295 0.19221172 -0.57376307
2.6162677 0.17724131 -0.69149959
2.4330816 0.14494945 -0.74667263
-0.02611593 -0.059798401 0.050936799
2.6849003 0.20246823 -0.66331863
2.4936554 0.16925952 -0.72135842
2.4259524 0.14907388 -0.80748516
0.18739104 -0.043107525 -0.033787414
2.5691853 0.19255213 -0.69834334
2.3960133 0.1642237 -0.75363237
-0.02611593 -0.059798401 0.050936799
-0.02611593 -0.059798401 0.050936799
2.4555674 0.18353824 -0.72838938
2.3868952 0.16633758 -0.81344366
0.18836127 -0.041075274 -0.035769489
0.16535369 -0.043992221 -0.035391361
2.4663002 0.1867249 -0.79655582
-0.02611593 -0.059798401 0.050936799
-0.02611593 -0.059798401 0.050936799
-0.02611593 -0.059798401 0.050936799
-0.02611593 -0.059798401 0.050936799
0.18734667 -0.04005377 -0.036732346
0.16632392 -0.041959971 -0.037373446
0.13741107 -0.044945829 -0.031884268
0.19537178 -0.038100906 -0.035846967
-0.02611593 -0.059798401 0.050936799
-0.02611593 -0.059798401 0.050936799
-0.02611593 -0.059798401 0.050936799
-0.02611593 -0.059798401 0.050936799
0.15936264 -0.041971024 -0.03524258
0.14135808 -0.043906085 -0.034940388
0.12535314 -0.045848325 -0.034675777
0.16438438 -0.041007228 -0.034318864
-0.02611593 -0.059798401 0.050936799
-0.02611593 -0.059798401 0.050936799
-0.02611593 -0.059798401 0.050936799
-0.02611593 -0.059798401 0.050936799
0.13836256 -0.042895488 -0.034865998
0.12137654 -0.044852227 -0.033582944
0.11033716 -0.045776404 -0.035393588
0.14534648 -0.041902691 -0.035979178
-0.02611593 -0.059798401 0.050936799
-0.02611593 -0.059798401 0.050936799
-0.02611593 -0.059798401 0.050936799
-0.02611593 -0.059798401 0.050936799
0.11837708 -0.044841461 -0.033526573
0.10934129 -0.044772983 -0.035356779
0.091411613 -0.0467804 -0.031055938
0.12436117 -0.043845076 -0.034620948
-0.02611593 -0.059798401 0.050936799
-0.02611593 -0.059798401 0.050936799
-0.02611593 -0.059798401 0.050936799
-0.02611593 -0.059798401 0.050936799
0.10237608 -0.04578387 -0.033243943
0.096339732 -0.045726158 -0.035130519
0.083375633 -0.046715509 -0.032904938
0.11034109 -0.044776574 -0.035375569
-0.02611593 -0.059798401 0.050936799
-0.02611593 -0.059798401 0.050936799
-0.02611593 -0.059798401 0.050936799
-0.02611593 -0.059798401 0.050936799
0.092359185 -0.04572989 -0.034055691
0.083356909 -0.046697419 -0.03390459
0.073358737 -0.04666153 -0.033716686
0.096335806 -0.046725988 -0.035148535
-0.02611593 -0.059798401 0.050936799
-0.02611593 -0.059798401 0.050936799
-0.02611593 -0.059798401 0.050936799
-0.02611593 -0.059798401 0.050936799
0.07839527 -0.046715654 -0.031811319
0.076302029 -0.046618029 -0.03677205
0.060432084 -0.047687057 -0.02949179
0.085337818 -0.046686508 -0.034941837
-0.02611593 -0.059798401 0.050936799
-0.02611593 -0.059798401 0.050936799
-0.02611593 -0.059798401 0.050936799
-0.02611593 -0.059798401 0.050936799
0.067412078 -0.047694094 -0.030622985
0.06433773 -0.047610968 -0.034565255
0.057339016 -0.047585845 -0.034433722
0.074335903 -0.047646858 -0.034753162
-0.02611593 -0.059798401 0.050936799
-0.02611593 -0.059798401 0.050936799
-0.02611593 -0.059798401 0.050936799
-0.02611593 -0.059798401 0.050936799
0.06233811 -0.047603793 -0.034527674
0.0622297 -0.046495426 -0.040507626
0.048378102 -0.047589727 -0.032265291
0.068276912 -0.04857089 -0.037657425
-0.02611593 -0.059798401 0.050936799
-0.02611593 -0.059798401 0.050936799
-0.02611593 -0.059798401 0.050936799
-0.02611593 -0.059798401 0.050936799
0.051392362 -0.048618414 -0.031340014
0.052265041 -0.047495548 -0.038338415
0.042379208 -0.047568191 -0.032152545
0.058297466 -0.048553091 -0.036469858
-0.02611593 -0.059798401 0.050936799
-0.02611593 -0.059798401 0.050936799
-0.02611593 -0.059798401 0.050936799
-0.02611593 -0.059798401 0.050936799
0.046355832 -0.048564289 -0.033245381
0.044285227 -0.047484923 -0.037188429
0.037342679 -0.047514066 -0.034057911
0.047370438 -0.049585797 -0.032282539
-0.02611593 -0.059798401 0.050936799
-0.02611593 -0.059798401 0.050936799
-0.02611593 -0.059798401 0.050936799
-0.02611593 -0.059798401 0.050936799
0.036428619 -0.049600586 -0.029076856
0.040229797 -0.047416303 -0.040112253
0.034272261 -0.046431117 -0.037982166
0.043296278 -0.049499087 -0.036206018
-0.02611593 -0.059798401 0.050936799
-0.02611593 -0.059798401 0.050936799
-0.02611593 -0.059798401 0.050936799
-0.02611593 -0.059798401 0.050936799
0.032391902 -0.049550056 -0.031001013
0.033231076 -0.04739118 -0.039980721
0.025363596 -0.047489092 -0.03283276
0.037274726 -0.050459288 -0.037110955
-0.02611593 -0.059798401 0.050936799
-0.02611593 -0.059798401 0.050936799
-0.02611593 -0.059798401 0.050936799
-0.02611593 -0.059798401 0.050936799
0.027374094 -0.049514022 -0.031906728
0.026288526 -0.047420323 -0.036850203
0.021308158 -0.047420468 -0.035756588
0.029313635 -0.050466757 -0.034961313
-0.02611593 -0.059798401 0.050936799
-0.02611593 -0.059798401 0.050936799
-0.02611593 -0.059798401 0.050936799
-0.02611593 -0.059798401 0.050936799
-0.02611593 -0.059798401 0.050936799
0.024176555 -0.047304612 -0.042810589
0.017275376 -0.046370108 -0.037662726
0.024295829 -0.050430723 -0.03586702
-0.02611593 -0.059798401 0.050936799
-0.02611593 -0.059798401 0.050936799
-0.02611593 -0.059798401 0.050936799
-0.02611593 -0.059798401 0.050936799
-0.02611593 -0.059798401 0.050936799
0.016252907 -0.047348257 -0.038661622
-0.02611593 -0.059798401 0.050936799
0.020259114 -0.050380193 -0.037791174
-0.02611593 -0.059798401 0.050936799
-0.02611593 -0.059798401 0.050936799
-0.02611593 -0.059798401 0.050936799
-0.02611593 -0.059798401 0.050936799
-0.02611593 -0.059798401 0.050936799
0.013178566 -0.047265135 -0.042603895
-0.02611593 -0.059798401 0.050936799
-0.02611593 -0.059798401 0.050936799
-0.02611593 -0.059798401 0.050936799
-0.02611593 -0.059798401 0.050936799
-0.02611593 -0.059798401 0.050936799
-0.02611593 -0.059798401 0.050936799
-0.02611593 -0.059798401 0.050936799
0.0071983868 -0.047261693 -0.041491486
-0.02611593 -0.059798401 0.050936799
-0.02611593 -0.059798401 0.050936799
-0.02611593 -0.059798401 0.050936799
-0.02611593 -0.059798401 0.050936799
-0.02611593 -0.059798401 0.050936799
-0.02611593 -0.059798401 0.050936799
-0.02611593 -0.059798401 0.050936799
-0.02611593 -0.059798401 0.050936799
-0.02611593 -0.059798401 0.050936799
-0.02611593 -0.059798401 0.050936799
-0.02611593 -0.059798401 0.050936799
-0.02611593 -0.059798401 0.050936799
-0.02611593 -0.059798401 0.050936799
-0.02611593 -0.059798401 0.050936799
-0.02611593 -0.059798401 0.050936799
-0.02611593 -0.059798401 0.050936799
-0.02611593 -0.059798401 0.050936799
-0.02611593 -0.059798401 0.050936799
-0.02611593 -0.059798401 0.050936799
-0.02611593 -0.059798401 0.050936799
-0.02611593 -0.059798401 0.050936799
-0.02611593 -0.059798401 0.050936799
-0.02611593 -0.059798401 0.050936799
-0.02611593 -0.059798401 0.050936799
-0.02611593 -0.059798401 0.050936799
-0.02611593 -0.059798401 0.050936799
-0.02611593 -0.059798401 0.050936799
-0.02611593 -0.059798401 0.050936799
-0.02611593 -0.059798401 0.050936799
-0.02611593 -0.059798401 0.050936799
-0.02611593 -0.059798401 0.050936799
-0.02611593 -0.059798401 0.050936799
-0.02611593 -0.059798401 0.050936799
-0.02611593 -0.059798401 0.050936799
-0.02611593 -0.059798401 0.050936799
-0.02611593 -0.059798401 0.050936799
-0.02611593 -0.059798401 0.050936799
-0.02611593 -0.059798401 0.050936799
-0.02611593 -0.059798401 0.050936799
-0.02611593 -0.059798401 0.050936799
-0.02611593 -0.059798401 0.050936799
-0.02611593 -0.059798401 0.050936799
-0.02611593 -0.059798401 0.050936799
-0.02611593 -0.059798401 0.050936799
-0.02611593 -0.059798401 0.050936799
-0.02611593 -0.059798401 0.050936799
-0.02611593 -0.059798401 0.050936799
-0.02611593 -0.059798401 0.050936799
-0.02611593 -0.059798401 0.050936799
-0.02611593 -0.059798401 0.050936799
-0.02611593 -0.059798401 0.050936799
-0.02611593 -0.059798401 0.050936799
-0.02611593 -0.059798401 0.050936799
-0.02611593 -0.059798401 0.050936799
-0.02611593 -0.059798401 0.050936799
-0.02611593 -0.059798401 0.050936799
-0.02611593 -0.059798401 0.050936799
-0.02611593 -0.059798401 0.050936799
-0.02611593 -0.059798401 0.050936799
-0.02611593 -0.059798401 0.050936799
-0.02611593 -0.059798401 0.050936799
-0.02611593 -0.059798401 0.050936799
-0.02611593 -0.059798401 0.050936799
-0.02611593 -0.059798401 0.050936799
-0.02611593 -0.059798401 0.050936799
-0.02611593 -0.059798401 0.050936799
-0.02611593 -0.059798401 0.050936799
-0.02611593 -0.059798401 0.050936799
-0.02611593 -0.059798401 0.050936799
-0.02611593 -0.059798401 0.050936799
-0.02611593 -0.059798401 0.050936799
-0.02611593 -0.059798401 0.050936799
-0.02611593 -0.059798401 0.050936799
-0.02611593 -0.059798401 0.050936799
-0.02611593 -0.059798401 0.050936799
-0.02611593 -0.059798401 0.050936799
-0.02611593 -0.059798401 0.050936799
-0.02611593 -0.059798401 0.050936799
-0.02611593 -0.059798401 0.050936799
-0.02611593 -0.059798401 0.050936799
-0.02611593 -0.059798401 0.050936799
-0.02611593 -0.059798401 0.050936799
-0.02611593 -0.059798401 0.050936799
-0.02611593 -0.059798401 0.050936799
-0.02611593 -0.059798401 0.050936799
-0.02611593 -0.059798401 0.050936799
-0.02611593 -0.059798401 0.050936799
-0.02611593 -0.059798401 0.050936799
-0.02611593 -0.059798401 0.050936799
-0.02611593 -0.059798401 0.050936799
-0.02611593 -0.059798401 0.050936799
-0.02611593 -0.059798401 0.050936799
-0.02611593 -0.059798401 0.050936799
-0.02611593 -0.059798401 0.050936799
-0.02611593 -0.059798401 0.050936799
-0.02611593 -0.059798401 0.050936799
-0.02611593 -0.059798401 0.050936799
-0.02611593 -0.059798401 0.050936799
-0.02611593 -0.059798401 0.050936799
-0.02611593 -0.059798401 0.050936799
-0.02611593 -0.059798401 0.050936799
-0.02611593 -0.059798401 0.050936799
-0.02611593 -0.059798401 0.050936799
-0.02611593 -0.059798401 0.050936799
-0.02611593 -0.059798401 0.050936799
-0.02611593 -0.059798401 0.050936799
-0.02611593 -0.059798401 0.050936799
-0.02611593 -0.059798401 0.050936799
-0.02611593 -0.059798401 0.050936799
-0.02611593 -0.059798401 0.050936799
-0.02611593 -0.059798401 0.050936799
-0.02611593 -0.059798401 0.050936799
-0.02611593 -0.059798401 0.050936799
-0.02611593 -0.059798401 0.050936799
-0.02611593 -0.059798401 0.050936799
-0.02611593 -0.059798401 0.050936799
-0.02611593 -0.059798401 0.050936799
-0.02611593 -0.059798401 0.050936799
-0.02611593 -0.059798401 0.050936799
-0.02611593 -0.059798401 0.050936799
-0.02611593 -0.059798401 0.050936799
-0.02611593 -0.059798401 0.050936799
-0.02611593 -0.059798401 0.050936799
-0.02611593 -0.059798401 0.050936799
-0.02611593 -0.059798401 0.050936799
-0.02611593 -0.059798401 0.050936799
-0.02611593 -0.059798401 0.050936799
-0.062795743 -0.043992888 -0.041121759
-0.02611593 -0.059798401 0.050936799
-0.02611593 -0.059798401 0.050936799
-0.02611593 -0.059798401 0.050936799
-0.02611593 -0.059798401 0.050936799
-0.02611593 -0.059798401 0.050936799
-0.02611593 -0.059798401 0.050936799
-0.02611593 -0.059798401 0.050936799
-0.065739021 -0.044036388 -0.038066402
-0.02611593 -0.059798401 0.050936799
-0.02611593 -0.059798401 0.050936799
-0.02611593 -0.059798401 0.050936799
-0.02611593 -0.059798401 0.050936799
-0.02611593 -0.059798401 0.050936799
-0.02611593 -0.059798401 0.050936799
-0.02611593 -0.059798401 0.050936799
-0.070715465 -0.043036703 -0.036954772
-0.02611593 -0.059798401 0.050936799
-0.073757201 -0.049006827 -0.038006172
-0.02611593 -0.059798401 0.050936799
-0.02611593 -0.059798401 0.050936799
-0.02611593 -0.059798401 0.050936799
-0.02611593 -0.059798401 0.050936799
-0.02611593 -0.059798401 0.050936799
-0.076766603 -0.041961074 -0.039822988
-0.02611593 -0.059798401 0.050936799
-0.076681763 -0.049068417 -0.033951156
-0.02611593 -0.059798401 0.050936799
-0.02611593 -0.059798401 0.050936799
-0.02611593 -0.059798401 0.050936799
-0.02611593 -0.059798401 0.050936799
-0.02611593 -0.059798401 0.050936799
-0.080709703 -0.042000983 -0.036748845
-0.078646049 -0.040062767 -0.03375141
-0.081662133 -0.049068563 -0.032857541
-0.02611593 -0.059798401 0.050936799
-0.02611593 -0.059798401 0.050936799
-0.02611593 -0.059798401 0.050936799
-0.02611593 -0.059798401 0.050936799
-0.082593992 -0.046119746 -0.029785708
-0.085690066 -0.042001128 -0.035655227
-0.082589149 -0.040102676 -0.030677252
-0.08969418 -0.048003841 -0.034688517
-0.02611593 -0.059798401 0.050936799
-0.02611593 -0.059798401 0.050936799
-0.02611593 -0.059798401 0.050936799
-0.02611593 -0.059798401 0.050936799
-0.087589152 -0.045101974 -0.02967374
-0.092703581 -0.040958088 -0.036505342
-0.088621572 -0.03904514 -0.032545824
-0.095689155 -0.046982475 -0.034557756
-0.02611593 -0.059798401 0.050936799
-0.02611593 -0.059798401 0.050936799
-0.02611593 -0.059798401 0.050936799
-0.02611593 -0.059798401 0.050936799
-0.092550792 -0.045120209 -0.027580462
-0.096646674 -0.040997997 -0.033431195
-0.094616547 -0.038023777 -0.032415062
-0.098594993 -0.047062155 -0.029503081
-0.02611593 -0.059798401 0.050936799
-0.02611593 -0.059798401 0.050936799
-0.02611593 -0.059798401 0.050936799
-0.02611593 -0.059798401 0.050936799
-0.102616 -0.043012306 -0.031355161
-0.10366019 -0.039954953 -0.034281302
-0.1005928 -0.037020497 -0.03128463
-0.10559371 -0.047037032 -0.029371545
-0.02611593 -0.059798401 0.050936799
-0.02611593 -0.059798401 0.050936799
-0.02611593 -0.059798401 0.050936799
-0.02611593 -0.059798401 0.050936799
-0.1065591 -0.043052215 -0.028281014
-0.1116548 -0.038926415 -0.03411296
-0.10758758 -0.03599555 -0.031135079
-0.11662129 -0.044961721 -0.031128135
-0.02611593 -0.059798401 0.050936799
-0.02611593 -0.059798401 0.050936799
-0.02611593 -0.059798401 0.050936799
-0.02611593 -0.059798401 0.050936799
-0.1176054 -0.040958807 -0.031037267
-0.12066403 -0.036876369 -0.034907468
-0.11560092 -0.034948923 -0.031966407
-0.12867133 -0.043864552 -0.033883613
-0.02611593 -0.059798401 0.050936799
-0.02611593 -0.059798401 0.050936799
-0.02611593 -0.059798401 0.050936799
-0.02611593 -0.059798401 0.050936799
-0.1265811 -0.039944764 -0.029850468
-0.12560694 -0.036912691 -0.031814534
-0.11852548 -0.035010509 -0.027911384
-0.13359553 -0.043918964 -0.029791009
-0.02611593 -0.059798401 0.050936799
-0.02611593 -0.059798401 0.050936799
-0.02611593 -0.059798401 0.050936799
-0.02611593 -0.059798401 0.050936799
-0.13455698 -0.038934316 -0.028682474
-0.13964877 -0.03380869 -0.034496393
-0.12955305 -0.032935191 -0.029667966
-0.14558548 -0.041876238 -0.029529482
-0.02611593 -0.059798401 0.050936799
-0.02611593 -0.059798401 0.050936799
-0.02611593 -0.059798401 0.050936799
-0.02611593 -0.059798401 0.050936799
-0.13948119 -0.038988728 -0.024589878
-0.14355442 -0.033884779 -0.029422916
-0.1365104 -0.031946417 -0.027519096
-0.15554228 -0.040876698 -0.027324241
-0.02611593 -0.059798401 0.050936799
-0.02611593 -0.059798401 0.050936799
-0.02611593 -0.059798401 0.050936799
-0.02611593 -0.059798401 0.050936799
-0.15348949 -0.036920734 -0.02529043
-0.15454455 -0.031845637 -0.029180184
-0.14548217 -0.029932545 -0.026314285
-0.16953185 -0.038826793 -0.027025137
-0.02611593 -0.059798401 0.050936799
-0.02611593 -0.059798401 0.050936799
-0.02611593 -0.059798401 0.050936799
-0.02611593 -0.059798401 0.050936799
-0.17354894 -0.03377711 -0.028859202
-0.17256692 -0.028745372 -0.030787233
-0.1605051 -0.026843045 -0.027977698
-0.19660875 -0.03563996 -0.031462047
-0.02611593 -0.059798401 0.050936799
-0.02611593 -0.059798401 0.050936799
-0.02611593 -0.059798401 0.050936799
-0.02611593 -0.059798401 0.050936799
-0.1925524 -0.030691339 -0.02944779
-0.18553796 -0.026717143 -0.02950725
-0.17852746 -0.023742775 -0.029584732
-0.2165933 -0.032568689 -0.031032182
-0.02611593 -0.059798401 0.050936799
-0.02611593 -0.059798401 0.050936799
-0.02611593 -0.059798401 0.050936799
-0.02611593 -0.059798401 0.050936799
-0.21655102 -0.026587799 -0.029924411
-0.21157366 -0.022570247 -0.031945609
-0.19852681 -0.019653592 -0.030136514
-0.24357267 -0.02847247 -0.030452766
-0.02611593 -0.059798401 0.050936799
-0.02611593 -0.059798401 0.050936799
-0.02611593 -0.059798401 0.050936799
-0.02611593 -0.059798401 0.050936799
-0.24253055 -0.022495165 -0.029363785
-0.23455375 -0.018488379 -0.031441353
-0.21649301 -0.016607588 -0.02874456
-0.25743511 -0.027549017 -0.023174047
-0.02611593 -0.059798401 0.050936799
-0.02611593 -0.059798401 0.050936799
-0.02611593 -0.059798401 0.050936799
-0.02611593 -0.059798401 0.050936799
-0.24836095 -0.022636436 -0.020254083
-0.26352882 -0.013385153 -0.030806337
-0.2465014 -0.010464762 -0.030072056
-0.96756083 0.074481294 -0.2020936
-0.02611593 -0.059798401 0.050936799
-0.02611593 -0.059798401 0.050936799
-0.02611593 -0.059798401 0.050936799
-0.98419023 0.077198103 -0.18272658
-0.98054612 0.1016138 -0.20636114
-0.97185445 0.12395763 -0.22712673
-0.25634587 -0.0095737549 -0.021868847
-0.99277276 0.077832259 -0.16054687
-0.99416119 0.10330193 -0.1860688
-0.97544187 0.12357403 -0.20505904
-0.02611593 -0.059798401 0.050936799
-1.0033698 0.079491548 -0.13931125
-1.0067766 0.10498647 -0.16579528
-0.98805714 0.12525856 -0.18478547
-0.97937346 0.14560273 -0.20558712
-1.0239757 0.083204463 -0.11885136
-1.0063272 0.10455233 -0.14180341
-1.0046905 0.12697555 -0.16543646
-0.989012 0.14629474 -0.18638764
-1.0365537 0.0848528 -0.096578501
-1.0249561 0.10727631 -0.12239876
-1.0092776 0.12659553 -0.14334996
-1.0096593 0.14904402 -0.16794507
-1.0451095 0.08746855 -0.073363125
-1.0275024 0.10785277 -0.098332524
-1.0098468 0.12618308 -0.12033896
-1.0082327 0.14762455 -0.14498967
-1.0626825 0.090134673 -0.050978296
-1.0491083 0.11156928 -0.077853829
-1.0164298 0.12681007 -0.098196872
-1.0138198 0.14724812 -0.12288439
-1.0772374 0.092771947 -0.027650185
-1.0696994 0.11426425 -0.05641228
-1.0460676 0.13159128 -0.079549149
-1.0244206 0.14790757 -0.10166679
-1.0907737 0.095387556 -0.0033411905
-1.0882494 0.11791571 -0.032990992
-1.0606599 0.13426474 -0.058220364
-1.0380359 0.14959566 -0.081374474
-1.1063057 0.099010162 0.021023396
-1.1008087 0.11954597 -0.0097184703
-1.0752186 0.13590218 -0.034910262
-1.0526321 0.1512693 -0.06006369
-1.1198235 0.10160766 0.046332046
-1.1103457 0.12214722 0.014515355
-1.091792 0.13856471 -0.012544222
-1.0822324 0.15601434 -0.039416656
-1.1383362 0.10522296 0.071752667
-1.1208678 0.12373414 0.039749611
-1.0983335 0.14015536 0.011615217
-1.0907962 0.15663041 -0.016237319
-1.1478544 0.1078061 0.096986152
-1.1363811 0.12733865 0.065113865
-1.109874 0.14176396 0.035868604
-1.0993562 0.15824634 0.0069600269
-0.02611593 -0.059798401 0.050936799
-1.1419227 0.12892571 0.089254506
-1.1324048 0.14541169 0.060364727
-1.1029062 0.15782654 0.03102706
-1.1817828 0.11593528 0.15278734
-1.1544218 0.13150154 0.11554404
-1.1369505 0.14599533 0.084468566
-1.1154466 0.15943873 0.055299245
-1.1952405 0.11947835 0.181113
-1.1798733 0.13608749 0.14411318
-1.1514453 0.14957815 0.11081369
-1.1419725 0.16410063 0.079888545
-0.02611593 -0.059798401 0.050936799
-1.1863548 0.1386237 0.17128962
-1.1679437 0.15216835 0.13717836
-1.1684799 0.16874446 0.10547751
-1.2340705 0.12853488 0.24202448
-1.2137643 0.14418052 0.20191371
-1.1754287 0.15370831 0.16435558
-0.02611593 -0.059798401 0.050936799
-0.02611593 -0.059798401 0.050936799
-1.2052789 0.1436815 0.22775456
-1.1908859 0.15725854 0.1927188
-1.1635296 0.16680776 0.15636703
-0.02611593 -0.059798401 0.050936799
-1.2386274 0.15020539 0.26150841
-1.1923761 0.15777716 0.21976528
-0.02611593 -0.059798401 0.050936799
-1.2513386 0.13797316 0.33254918
-0.02611593 -0.059798401 0.050936799
-0.02611593 -0.059798401 0.050936799
-1.2064232 0.17393321 0.21431866
-0.02611593 -0.059798401 0.050936799
-1.2972696 0.16317019 0.33186468
-1.2540926 0.17082509 0.2861793
-0.02611593 -0.059798401 0.050936799
-0.02611593 -0.059798401 0.050936799
-1.280767 0.16262436 0.3585549
-1.2824272 0.17631313 0.32082081
-1.2701204 0.18697025 0.28176993
-3.1181517 0.45748624 0.99150395
-1.341862 0.17503066 0.40493888
-1.3067436 0.1817687 0.35638684
-0.02611593 -0.059798401 0.050936799
-3.1037636 0.46211806 1.064343
-1.3551471 0.17941076 0.44227952
-1.2952255 0.1802229 0.38415265
-0.02611593 -0.059798401 0.050936799
-3.1658237 0.47955364 1.1648544
-3.0853305 0.49571347 1.0275931
-0.02611593 -0.059798401 0.050936799
-1.294351 0.19138025 0.3753351
-3.2337439 0.49888384 1.2725123
-3.1464319 0.51218188 1.1260685
-3.1005349 0.52908731 1.0104758
-1.3275645 0.19877732 0.41610456
-3.3025436 0.52010882 1.3862228
-3.2134163 0.52956313 1.2306724
-3.1169651 0.53566724 1.0929303
-3.1187479 0.55545503 0.99428821
-3.3752451 0.54225743 1.5050249
-3.2733457 0.54686499 1.3381439
-3.1879485 0.5530628 1.1976094
-3.1063645 0.55407691 1.0680565
-3.4666464 0.56820232 1.639251
-3.3530273 0.56902063 1.4580771
-3.2489228 0.56840485 1.3030642
-3.1753936 0.56950188 1.1706628
-3.664912 0.61553615 1.8308842
-3.4385498 0.59305286 1.5861565
-3.3207114 0.5876227 1.4177949
-3.2284563 0.58188802 1.2719145
-3.6322613 0.62084991 1.9173983
-3.5100682 0.61401719 1.7149184
-3.4072831 0.60869515 1.5438397
-3.3062325 0.59910971 1.3877214
-3.5362687 0.61451489 1.9705045
-3.5210862 0.62519848 1.818362
-3.4788201 0.62967765 1.6716019
-3.3809121 0.61723 1.5084884
-3.4690039 0.61404777 2.0372593
-3.4518747 0.6207611 1.8830079
-3.4324508 0.62617785 1.7446952
-3.4554791 0.63524187 1.6352533
-3.3948789 0.61168253 2.096849
-3.432143 0.62704903 1.9737829
-3.3841004 0.62268901 1.8167514
-3.4021828 0.62777191 1.7051439
-3.3227684 0.61034238 2.1554945
-3.3363159 0.61685944 2.0188196
-3.349582 0.62310505 1.8971398
-3.3696945 0.62521374 1.7845163
-3.147018 0.58784109 2.1447933
-3.2800338 0.61541384 2.0867629
-3.3061895 0.62059784 1.9713072
-3.3500609 0.62557501 1.8711847
-2.6321599 0.49249575 1.8843409
-3.1645629 0.60147876 2.113358
-3.261812 0.61910492 2.0444741
-3.3175313 0.62398052 1.9525744
-3.0779717 0.60070723 2.3037872
-3.144846 0.60878462 2.2031515
-3.2035797 0.61468887 2.1103263
-3.27017 0.61847746 2.0256128
-2.8641105 0.56888181 2.2471883
-2.7001081 0.52389622 1.9882163
-3.1552215 0.61319971 2.1824183
-3.2336411 0.61686856 2.1069274
-2.9271493 0.59738195 2.399936
-2.9052467 0.58020782 2.2381604
-2.6256342 0.5070194 1.9094899
-3.1527219 0.60564256 2.1572263
-2.8384659 0.5933792 2.4362152
-2.9485791 0.60189068 2.3764105
-3.053581 0.61027575 2.32251
-2.6437628 0.50219339 1.90374
-2.318368 0.48565713 2.08441
-2.8805656 0.59965551 2.430115
-2.9687853 0.6011616 2.3657722
-3.1082342 0.6101476 2.3415372
-1.8766012 0.39163744 1.7663304
-2.806711 0.59554392 2.4756732
-2.9185023 0.59973764 2.4338281
-2.9219823 0.57604301 2.3064213
-1.8240718 0.3899264 1.7943254
-1.8879145 0.38796699 1.7504704
-2.8623183 0.59738266 2.4967551
-3.0124581 0.60310107 2.4896667
-1.9196389 0.42712745 1.9708474
-1.8402905 0.3861835 1.7835577
-1.908885 0.38500673 1.7528101
-2.9630256 0.60153598 2.5657389
-2.0982349 0.48883817 2.2484016
-1.8731047 0.40527955 1.8965558
-1.847508 0.37839091 1.7735484
-1.9229295 0.373059 1.752857
-2.3488691 0.57301968 2.6267452
-2.0527909 0.46306697 2.170058
-1.8322511 0.38314575 1.8393711
-1.8585796 0.36445084 1.7725033
-2.3172734 0.58340859 2.7093694
-2.2898526 0.53957945 2.5270014
-2.0120094 0.43698812 2.1098022
-1.8246682 0.36344603 1.8208665
-2.2290099 0.57780421 2.7236204
-2.3943005 0.5837658 2.7618358
-2.2344837 0.50481004 2.4463084
-1.9995818 0.41139814 2.0840979
-2.1544654 0.5759961 2.7522016
-2.3186517 0.57984596 2.7963603
-2.4955659 0.58548886 2.8547945
-2.2083335 0.47140631 2.4072013
-2.0926371 0.57898062 2.7951126
-2.2479012 0.57785332 2.8360131
-2.4236882 0.58236617 2.9014082
-2.6211274 0.58361477 2.9861562
-2.0151911 0.57625234 2.8186212
-2.1693053 0.57497674 2.8675001
-2.352735 0.57917458 2.9520392
-2.5627296 0.58305335 3.0600774
-1.9328955 0.5736509 2.8340385
-2.097611 0.5730347 2.9041352
-2.2828157 0.57702273 3.0007076
-2.4906871 0.57876801 3.11567
-1.8643049 0.57382786 2.864768
-2.0288744 0.57206714 2.9428439
-2.2109525 0.57491791 3.0463395
-2.4224904 0.57535207 3.1793532
-1.7870085 0.57124436 2.8802793
-1.9591154 0.57207769 2.9825513
-2.1429956 0.57273698 3.0970449
-2.3533497 0.57198685 3.2400179
-1.7127117 0.56867152 2.8958471
-1.8875145 0.57022607 3.0141881
-2.0633702 0.56782103 3.1304765
-2.2754624 0.56682479 3.2874825
-1.6393507 0.56804782 2.9144688
-1.8158722 0.56933814 3.047842
-1.9954236 0.56765777 3.1802182
-2.2140841 0.56627071 3.3603482
-1.5631291 0.56554025 2.9260001
-1.7393883 0.56657737 3.0733688
-1.9226168 0.56560367 3.2228324
-2.1350951 0.56301433 3.4128282
-1.4878846 0.56401801 2.9385681
-1.6600589 0.56295061 3.0908239
-1.8439463 0.56265479 3.2583182
-2.0678113 0.56252915 3.4805825
-1.4242853 0.56621248 2.9694276
-1.5855483 0.56217855 3.117424
-1.771117 0.56158233 3.3019502
-1.9898033 0.55925828 3.5340812
-1.3520776 0.5647372 2.9800525
-1.5120788 0.56044638 3.1420255
-1.6982689 0.56049186 3.3465815
-1.9040859 0.55423033 3.5723982
-1.2827306 0.56514573 2.9977674
-1.4396051 0.55971766 3.1666634
-1.6110651 0.55394554 3.3578343
-1.8261116 0.5519954 3.6239152
-1.0170017 0.46066153 2.5217409
-1.3632712 0.55710155 3.1841929
-1.5382692 0.55390906 3.3994849
-1.7528626 0.55252469 3.6895759
-0.93598521 0.44825593 2.4709823
-1.0170722 0.42359555 2.5250731
-1.4577301 0.55107963 3.4279354
-1.6700053 0.5493806 3.734983
-0.85606992 0.43394452 2.4152083
-0.93025959 0.40734991 2.464133
-1.0043706 0.38168266 2.5170741
-1.5822241 0.54629081 3.7762976
-0.78012741 0.4216291 2.3605452
-0.84840089 0.39308566 2.4053223
-0.91277283 0.36361837 2.4450078
-0.98282909 0.3328653 2.5017827
-0.71293199 0.41111055 2.319083
-0.77242488 0.37973419 2.3526406
-0.83182025 0.34926727 2.3912144
-0.88928783 0.31484807 2.4266801
-0.64210868 0.3969219 2.2584796
-0.70040673 0.36736077 2.3020513
-0.75580287 0.33687949 2.3405499
-0.8073917 0.3005476 2.3698688
-0.57990837 0.3874211 2.2171292
-0.63148165 0.35508859 2.24652
-0.6810177 0.32271269 2.2778726
-0.73137438 0.28815988 2.3192039
-0.52166992 0.37789845 2.1778533
-0.56828535 0.34458435 2.2051327
-0.61292005 0.31128111 2.231375
-0.65649164 0.27490246 2.2615428
-0.46254393 0.36848068 2.1325607
-0.50808471 0.33509067 2.16382
-0.54779917 0.30084208 2.1859515
-0.58646923 0.2635361 2.211009
-0.40824074 0.36091781 2.0963948
-0.44890261 0.32561868 2.1215262
-0.48562139 0.29035944 2.1435833
-0.52231061 0.25306442 2.1676037
-0.35785794 0.35429671 2.0643208
-0.39269727 0.31713918 2.0803065
-0.42837885 0.28184021 2.1043444
-0.46106881 0.2445308 2.1282892
-0.30847502 0.34767923 2.0322659
-0.34133738 0.30953279 2.0471961
-0.3730571 0.2742556 2.0691595
-0.40192807 0.23409517 2.0839784
-0.26440424 0.34844875 2.0354557
-0.29275918 0.30473763 2.0251923
-0.32058108 0.26753688 2.0420461
-0.34664375 0.22654675 2.0467939
-0.22733396 0.35932267 2.0899768
-0.25110653 0.30997446 2.0585184
-0.27375126 0.26451346 2.0331113
-0.29407015 0.22073746 2.0246973
-0.18806502 0.37300792 2.154511
-0.21192428 0.32073262 2.119
-0.23355828 0.27325025 2.0945377
-0.25127581 0.22382629 2.0659661
-0.14479682 0.38667887 2.2189701
-0.16968247 0.33242553 2.1824422
-0.19030973 0.28192204 2.1589069
-0.20801246 0.23148012 2.1313167
-0.12369415 0.54769897 2.9917495
-0.17124887 0.53460854 3.2845023
-0.14496008 0.29249585 2.2282724
-0.16269328 0.23907255 2.1996286
-0.060013279 0.54575902 2.9745164
-0.098145954 0.53523785 3.2891467
-0.14034942 0.5218305 3.6538177
-0.18991813 0.50892603 4.1586838
0.0029229522 0.54658699 2.9703515
-0.025234204 0.53504819 3.283776
-0.056406185 0.52056533 3.6502221
-0.091636494 0.50828487 4.1728373
0.065742917 0.54652375 2.9601707
0.045306474 0.53121006 3.2593777
0.026788514 0.52106833 3.6596768
0.006891191 0.50234658 4.1478763
0.127368 0.54464525 2.9399762
0.11745094 0.53280669 3.2660584
0.10881095 0.52073789 3.6601353
0.10436809 0.50352788 4.1720805
0.18932313 0.54545873 2.9368298
0.18905546 0.53091037 3.2446761
0.19148442 0.51772994 3.6425271
0.20334606 0.50217277 4.1702023
0.24979466 0.54272866 2.9086387
0.26091123 0.53077853 3.2363255
0.27418053 0.51570368 3.6259365
0.30330509 0.50083202 4.1673055
0.31049874 0.54178125 2.8924797
0.3307299 0.53069013 3.2260134
0.35691804 0.51464111 3.6113632
0.40120831 0.49955285 4.1614475
-0.02611593 -0.059798401 0.050936799
0.4016085 0.53154373 3.2186992
0.43986538 0.51437944 3.6078043
0.5001114 0.49827009 4.155571
0.15702544 0.1821565 1.1812676
-0.02611593 -0.059798401 0.050936799
-0.02611593 -0.059798401 0.050936799
-0.02611593 -0.059798401 0.050936799
0.49181801 0.5437609 2.8541076
0.54093844 0.52965665 3.1820443
0.6065954 0.51501501 3.5916884
-0.02611593 -0.059798401 0.050936799
0.26216775 0.24204724 1.4424711
0.26134878 0.20674928 1.4588535
0.68497002 0.51231098 3.558161
-0.02611593 -0.059798401 0.050936799
0.61125702 0.54485464 2.8228807
0.28997597 0.20398937 1.439261
0.28554267 0.1652817 1.4236385
0.28529981 0.12737861 1.4179554
0.66453868 0.54133081 2.7848063
0.74675065 0.52801758 3.1171389
0.85061049 0.51404035 3.5370841
-0.02611593 -0.059798401 0.050936799
0.72432959 0.5433141 2.7727187
0.81436378 0.52813524 3.0958681
0.92789173 0.51143032 3.4985766
-0.02611593 -0.059798401 0.050936799
0.78082454 0.5415802 2.7456205
0.87778252 0.52644861 3.0646396
1.0075026 0.51150501 3.4770803
1.1836368 0.49105233 4.0185962
0.83530498 0.54087138 2.7175779
0.94645548 0.52750826 3.0463669
1.0880985 0.51259398 3.4545834
1.2769378 0.48936656 3.9808061
0.89196146 0.54199225 2.6985314
1.0130126 0.52768385 3.0221157
1.1644962 0.51087862 3.4221108
1.3755717 0.49135458 3.9599884
0.94747925 0.54124373 2.6724691
1.0774539 0.52697533 2.9918861
-0.02611593 -0.059798401 0.050936799
-0.02611593 -0.059798401 0.050936799
-0.02611593 -0.059798401 0.050936799
-0.02611593 -0.059798401 0.050936799
0.38775378 0.11623103 1.0707179
0.49112949 0.11965962 1.3019228
1.0534034 0.539873 2.6144416
0.50943941 0.19456419 1.3039358
0.51313972 0.156701 1.2951784
-0.02611593 -0.059798401 0.050936799
0.53358132 0.236489 1.3032417
1.2677673 0.52687836 2.90029
1.4763496 0.51377743 3.3042848
-0.02611593 -0.059798401 0.050936799
1.1603538 0.54048032 2.557431
1.3322351 0.52815133 2.8710961
1.5454451 0.51137686 3.2559314
1.8775569 0.50244331 3.8457515
1.2138759 0.54073876 2.531425
1.3894637 0.52566719 2.8299656
1.615567 0.51095432 3.2085948
1.9718131 0.50380766 3.8049977
1.2663044 0.54109114 2.5004387
1.4508345 0.52604163 2.7958119
1.6919763 0.51223856 3.1761763
2.0505097 0.5007512 3.7354453
1.3187933 0.54238927 2.4724703
1.5152876 0.52833271 2.7656364
1.7621584 0.51276159 3.1318567
2.1209788 0.49694085 3.6540296
1.3629642 0.53900617 2.4285672
1.5704644 0.52690983 2.7215626
1.8292018 0.51142234 3.08056
2.1904898 0.49409765 3.5746498
1.4174939 0.54126066 2.4025781
1.6349174 0.52920085 2.6913874
1.8994251 0.512909 3.0382578
2.2517698 0.48950055 3.4833884
1.4627849 0.53976524 2.3646903
1.6921953 0.52968007 2.6523101
1.9634358 0.51261652 2.9850359
2.3152404 0.48571521 3.4021041
1.5172999 0.54303765 2.3377197
1.7463388 0.52929682 2.6062739
2.0335803 0.51317573 2.9387169
2.3766406 0.48300934 3.3168766
1.5625534 0.54157841 2.2978325
1.803598 0.52979416 2.5661974
2.1202362 0.52020597 2.9182148
2.4340189 0.47933602 3.2307067
1.6109079 0.54201752 2.2629235
1.8598199 0.53033119 2.5241404
2.1883099 0.52184451 2.8679528
2.4904385 0.47662985 3.1465728
1.6613033 0.54341316 2.2299938
1.9180869 0.53282458 2.4840808
2.2502873 0.52259523 2.8127875
2.5479181 0.47486579 3.0654376
1.7045237 0.54299712 2.1881628
1.9599774 0.52972007 2.4252205
2.3204021 0.52519035 2.7645054
2.595227 0.47230053 2.9754746
1.7508037 0.5435158 2.1492925
2.0162032 0.53125697 2.3831813
2.3721449 0.52319449 2.6974778
2.6527481 0.47150007 2.8963563
1.797121 0.5439983 2.112422
2.0673137 0.53192055 2.3352199
2.4279928 0.52409333 2.6354272
2.70421 0.46977562 2.8143337
1.8464832 0.54643363 2.0775297
2.1174057 0.53260577 2.286278
2.497093 0.52770996 2.5861824
2.7618136 0.47090241 2.7392502
1.8886663 0.54605722 2.0337183
2.1685202 0.53426921 2.2383349
2.5407059 0.52586937 2.5123074
2.8072021 0.46927184 2.6533418
1.9329091 0.5466193 1.9928863
2.2206528 0.53591096 2.1913726
2.5944977 0.52682972 2.4472957
2.8567095 0.46951801 2.5733922
1.9771748 0.54816312 1.953072
2.2676709 0.53667933 2.1384883
2.6503866 0.52869213 2.3872626
2.9326856 0.47523573 2.5170543
2.0152836 0.5478735 1.9053371
2.3065884 0.5355671 2.0807199
2.6838667 0.52601445 2.30656
3.1569574 0.50729001 2.5764551
2.0564709 0.54850054 1.8615625
2.3647883 0.54013258 2.0366979
2.7326405 0.5270108 2.2406425
3.2185311 0.51043826 2.4993331
2.1078181 0.55194658 1.8256512
2.40065 0.53908551 1.975987
2.7692404 0.52621329 2.1659174
3.2587969 0.510952 2.4065571
2.145931 0.55265683 1.7779344
2.4466531 0.54087532 1.9221398
2.8240583 0.52915162 2.1019225
3.3163524 0.51413274 2.3285105
2.1728613 0.54956996 1.7213552
2.4875972 0.54173762 1.8653696
2.8687997 0.53119832 2.0340989
3.3272855 0.51005876 2.2191951
2.2180972 0.55314606 1.6795586
2.5275035 0.54263961 1.8066188
2.918581 0.53419071 1.9681987
3.3939636 0.5160982 2.1470315
2.2572284 0.55383462 1.6328226
2.571507 0.54443663 1.7528092
2.9633031 0.53625548 1.8993754
3.4312713 0.51758623 2.0563293
2.291286 0.55461347 1.5821818
2.6134398 0.54731309 1.6950566
2.9847522 0.53465676 1.8169169
3.4615242 0.51915365 1.9627595
2.32534 0.55439246 1.5315232
2.6442506 0.54733801 1.6314585
3.0213788 0.53584093 1.7432277
3.5079732 0.52348238 1.8789397
2.3725603 0.55897921 1.4887075
2.689239 0.55014938 1.5766487
3.0590312 0.53900301 1.6705554
3.5392675 0.52600986 1.7873685
2.4055808 0.55979782 1.4360863
2.7200348 0.55119216 1.512069
3.0906396 0.54022312 1.5959603
3.5756357 0.52844709 1.699702
2.4375782 0.55963832 1.3824662
2.7477896 0.55128217 1.4455283
3.1242514 0.54243594 1.5213456
3.6018932 0.53102869 1.6062254
2.4695985 0.56046051 1.3298637
2.7816453 0.55325985 1.3839093
3.1518233 0.5437066 1.4448265
3.6241515 0.53362465 1.5128239
2.5036225 0.56227529 1.2772416
2.8084235 0.55433512 1.3184054
3.1803989 0.5459736 1.3683066
3.6373663 0.53428942 1.4175563
2.5396497 0.56508279 1.2246001
2.8382382 0.55536348 1.2548442
3.206975 0.54824775 1.2918242
3.6475668 0.53598291 1.3213632
2.5696332 0.56594837 1.1700358
2.8670194 0.5574314 1.1893204
3.2365727 0.55149281 1.2163032
3.6648443 0.53857875 1.2290554
2.6006017 0.5678283 1.1144712
2.9018638 0.56142324 1.1267191
3.2399876 0.54999483 1.1321837
3.6841261 0.54216713 1.1367282
2.6325738 0.5707044 1.0589058
2.9215829 0.56157815 1.0583295
3.2725928 0.55522883 1.0566423
3.7064483 0.54670858 1.0463617
2.6585016 0.57163852 1.0014179
2.9413061 0.56273282 0.98995793
3.2991912 0.55848461 0.98117757
3.695626 0.54649591 0.94952762
2.6944768 0.57550013 0.94579524
2.971091 0.56579703 0.92443347
3.2945888 0.55703348 0.8962087
3.7199893 0.55199367 0.86114103
2.7153456 0.57550675 0.88538414
2.9938405 0.56892246 0.8570413
3.317173 0.56132162 0.81983751
3.7061718 0.55279154 0.76438135
2.7382367 0.5764879 0.82595319
3.0115447 0.57010245 0.78770769
3.3256736 0.56273288 0.73967671
3.7194953 0.5573653 0.67418402
2.7691565 0.58042169 0.76742566
3.0302532 0.57227862 0.71837324
3.3361773 0.56513673 0.65949637
3.718781 0.5610255 0.58223242
2.7749226 0.577573 0.70224398
3.0429213 0.57351267 0.6471343
3.351707 0.56950432 0.58025771
3.7020385 0.5617618 0.48952782
2.7907398 0.57865167 0.638946
3.0616338 0.57668877 0.57781786
3.3512051 0.56994802 0.50024801
3.7003427 0.56540763 0.39859468
2.8075759 0.57970858 0.57662868
3.0713022 0.57793361 0.50663519
3.3507113 0.57239133 0.42027441
3.693681 0.5680353 0.30973682
2.8163679 0.57883072 0.5124265
3.0759683 0.57819653 0.43552852
3.3612378 0.57577693 0.34111175
3.6379259 0.56391239 0.21767493
2.8452361 0.58382571 0.45095551
3.0836225 0.58046651 0.3634018
3.3507373 0.57625657 0.26128995
3.5321822 0.55093431 0.12838972
2.8580351 0.58493322 0.3867141
3.0922952 0.58271474 0.292256
3.3432407 0.57772523 0.1814298
-0.02611593 -0.059798401 0.050936799
2.8828585 0.5879792 0.32328296
3.0939467 0.58400637 0.22022402
3.3507755 0.5831213 0.10235953
2.9588511 0.46296239 -0.026519822
2.8805966 0.58719504 0.25628841
3.1036046 0.58726895 0.14807776
3.3292925 0.58262235 0.023726081
2.9855332 0.47316283 -0.0988594
2.899384 0.59029871 0.19097066
3.0992529 0.58758235 0.076140523
2.942728 0.51231903 -0.042330503
2.7393496 0.43408015 -0.15197514
2.9081504 0.59245658 0.12482315
3.0669062 0.58297896 0.0056389775
2.9564533 0.51851249 -0.11149888
2.7451365 0.44124794 -0.2179762
2.9109285 0.59261817 0.059751995
2.9395535 0.55866557 -0.060438842
2.725282 0.47835806 -0.16391484
2.5142426 0.40483952 -0.25632483
2.9126887 0.59280139 -0.0063000238
2.893291 0.55102253 -0.12573308
2.7450509 0.48649344 -0.23116061
2.5141017 0.41095659 -0.31823254
2.8664179 0.58315873 -0.071630284
2.7231398 0.51864779 -0.1791511
2.505188 0.44306439 -0.2664673
2.4182067 0.39913186 -0.36266607
1.3005612 0.23560023 -0.035588019
2.7199457 0.52081251 -0.24307382
2.5170484 0.45013818 -0.32858244
2.3004122 0.38327825 -0.40076035
1.2879899 0.23318648 -0.065406427
2.4910913 0.47532618 -0.27762359
2.359297 0.42435744 -0.36210665
2.3262897 0.39530098 -0.46304846
2.6229508 0.53221309 -0.24405195
2.5309103 0.48735303 -0.34317377
2.2924085 0.4154281 -0.40703106
2.3521111 0.40737799 -0.52833557
2.4840117 0.50252759 -0.28700215
2.3342645 0.44856972 -0.36820206
2.3213003 0.42642218 -0.46839392
2.5372422 0.45163509 -0.63803834
2.52583 0.51454723 -0.35258991
2.2923315 0.44360423 -0.41652316
2.3521018 0.43849933 -0.53477466
2.4574351 0.44367987 -0.67870176
2.3032475 0.46676838 -0.3722935
2.3142164 0.45262375 -0.47779047
2.5093725 0.47871292 -0.63602608
2.4841146 0.45789766 -0.75196898
2.2862649 0.46476689 -0.42402932
2.3450329 0.46368304 -0.54318964
2.4663758 0.47682282 -0.68827295
2.4162793 0.45293513 -0.79480326
2.3141158 0.47480085 -0.4873907
2.497319 0.50289655 -0.64336538
2.4632168 0.48296875 -0.75112391
-0.02611593 -0.059798401 0.050936799
2.3469465 0.48483506 -0.55184573
2.5001209 0.5090571 -0.70832849
2.4103265 0.47900641 -0.79722095
0.18650512 -0.014108866 -0.033246089
2.4434354 0.51101661 -0.63820791
2.4472044 0.50311327 -0.75546122
-0.02611593 -0.059798401 0.050936799
-0.02611593 -0.059798401 0.050936799
2.4960425 0.52721316 -0.71592623
2.3913443 0.49712583 -0.79953861
0.187498 -0.011094877 -0.034210492
0.16147526 -0.018000375 -0.033848066
2.4272215 0.51621896 -0.75685048
-0.02611593 -0.059798401 0.050936799
-0.02611593 -0.059798401 0.050936799
-0.02611593 -0.059798401 0.050936799
2.3783002 0.50926089 -0.80407637
0.18349873 -0.011080521 -0.03413533
0.16544887 -0.014979064 -0.035868492
0.14144841 -0.020909999 -0.034525964
-0.02611593 -0.059798401 0.050936799
-0.02611593 -0.059798401 0.050936799
-0.02611593 -0.059798401 0.050936799
-0.02611593 -0.059798401 0.050936799
0.18052194 -0.010088016 -0.033061273
0.16839999 -0.012935903 -0.03888781
0.14740293 -0.017877774 -0.037583642
0.12344385 -0.022845056 -0.034223769
-0.02611593 -0.059798401 0.050936799
-0.02611593 -0.059798401 0.050936799
-0.02611593 -0.059798401 0.050936799
-0.02611593 -0.059798401 0.050936799
0.15846887 -0.014972032 -0.034737293
0.1444222 -0.017885096 -0.036527611
0.12542869 -0.021834316 -0.035242997
0.10150705 -0.026837775 -0.029883813
-0.02611593 -0.059798401 0.050936799
-0.02611593 -0.059798401 0.050936799
-0.02611593 -0.059798401 0.050936799
-0.02611593 -0.059798401 0.050936799
0.13449107 -0.019921221 -0.032377094
0.12046313 -0.02285238 -0.033167746
0.10743892 -0.024787292 -0.033959158
0.093448423 -0.027754629 -0.032750495
-0.02611593 -0.059798401 0.050936799
-0.02611593 -0.059798401 0.050936799
-0.02611593 -0.059798401 0.050936799
-0.02611593 -0.059798401 0.050936799
0.11449774 -0.023866855 -0.031073697
0.10842002 -0.024772793 -0.034977619
0.094433449 -0.026740298 -0.033750918
0.080461681 -0.029725723 -0.031542588
-0.02611593 -0.059798401 0.050936799
-0.02611593 -0.059798401 0.050936799
-0.02611593 -0.059798401 0.050936799
-0.02611593 -0.059798401 0.050936799
0.095541678 -0.02785225 -0.027789764
0.095414542 -0.026725797 -0.034769375
0.085393719 -0.02767165 -0.035599153
0.072440483 -0.030678749 -0.032409951
-0.02611593 -0.059798401 0.050936799
-0.02611593 -0.059798401 0.050936799
-0.02611593 -0.059798401 0.050936799
-0.02611593 -0.059798401 0.050936799
0.086501949 -0.028783603 -0.029637992
0.085375004 -0.027653562 -0.036598813
0.077353813 -0.028606592 -0.037466168
0.062457114 -0.03166078 -0.031240392
-0.02611593 -0.059798401 0.050936799
-0.02611593 -0.059798401 0.050936799
-0.02611593 -0.059798401 0.050936799
-0.02611593 -0.059798401 0.050936799
0.079443134 -0.029704046 -0.032523464
0.071421951 -0.030657072 -0.033390813
0.062438391 -0.03164269 -0.032240059
0.05050762 -0.033671644 -0.028051969
-0.02611593 -0.059798401 0.050936799
-0.02611593 -0.059798401 0.050936799
-0.02611593 -0.059798401 0.050936799
-0.02611593 -0.059798401 0.050936799
0.067474917 -0.031696811 -0.030334689
0.067347787 -0.03057036 -0.037314303
0.057383131 -0.031570479 -0.035145093
0.047452003 -0.033606607 -0.030994575
-0.02611593 -0.059798401 0.050936799
-0.02611593 -0.059798401 0.050936799
-0.02611593 -0.059798401 0.050936799
-0.02611593 -0.059798401 0.050936799
0.055521503 -0.034707509 -0.027164273
0.055398297 -0.032581225 -0.034125865
0.05134679 -0.031512767 -0.037031669
0.040453285 -0.033581488 -0.030863039
-0.02611593 -0.059798401 0.050936799
-0.02611593 -0.059798401 0.050936799
-0.02611593 -0.059798401 0.050936799
-0.02611593 -0.059798401 0.050936799
0.050466247 -0.034635298 -0.030069306
0.051324144 -0.032494511 -0.038049348
0.043377843 -0.033519898 -0.034918062
0.035431549 -0.034545284 -0.031786773
-0.02611593 -0.059798401 0.050936799
-0.02611593 -0.059798401 0.050936799
-0.02611593 -0.059798401 0.050936799
-0.02611593 -0.059798401 0.050936799
0.044444695 -0.035595503 -0.030974239
0.045306511 -0.032454889 -0.038936272
