# .PCD v0.7 - Point Cloud Data file format
VERSION 0.7
FIELDS x y z
SIZE 4 4 4
TYPE F F F
COUNT 1 1 1
WIDTH 1375
HEIGHT 1
VIEWPOINT 0 0 0 1 0 0 0
POINTS 1375
DATA ascii
0.630813 0.60582501 0.71190184
0.67656845 0.60392201 0.75202435
0.72634584 0.60298645 0.79308939
0.77809632 0.60006207 0.83308113
0.64661199 0.60796618 0.70064092
0.69432968 0.60609227 0.73872656
0.74506938 0.6051892 0.77777344
0.79675978 0.60131931 0.81474823
0.65830237 0.60621291 0.68438482
0.70496017 0.60339695 0.71947223
0.75870717 0.60448283 0.75849879
0.81129986 0.59969991 0.79043841
0.67307889 0.60737598 0.67212504
0.71863538 0.6026544 0.7021969
0.77332604 0.603791 0.73820573
0.8269037 0.60002244 0.76914495
0.68479192 0.6066044 0.65688664
0.73437816 0.60484993 0.68793708
0.78389645 0.60015011 0.7159344
0.84353399 0.60232282 0.74886829
0.69750863 0.60682905 0.64164746
0.74805731 0.60510719 0.67067969
0.80058682 0.60339612 0.6986748
0.86014163 0.60364151 0.72757399
0.71126664 0.60801387 0.62840682
0.76378143 0.60732067 0.65542024
0.81320608 0.60271144 0.67841923
0.871701 0.6020149 0.70432025
0.72398341 0.60823852 0.61316764
0.77137107 0.60367256 0.63420492
0.82787025 0.60398299 0.6601615
0.88224173 0.60040981 0.68008566
0.73672295 0.60944492 0.59894609
0.78709513 0.60588616 0.61894536
0.84149712 0.60529441 0.63992321
0.8978309 0.6017502 0.65781045
0.74641365 0.60769886 0.58272755
0.79875588 0.60616869 0.60072601
0.85309786 0.6046313 0.61868691
0.91040176 0.60311943 0.634592
0.75811189 0.60794514 0.56650752
0.81143916 0.60742939 0.58350551
0.86674738 0.60692441 0.59946626
0.92196906 0.60349244 0.61137432
0.77083653 0.61016953 0.5513044
0.81802911 0.6037848 0.56230903
0.8773483 0.60626507 0.57824868
0.93556237 0.60583985 0.58915478
0.77950478 0.6074453 0.53408694
0.83069366 0.60506356 0.54408884
0.88591212 0.60564893 0.55506933
0.9420625 0.60328543 0.56297803
0.79120702 0.60869145 0.51788491
0.84033602 0.60537142 0.52490735
0.89449072 0.60401487 0.5328716
0.95565987 0.60663271 0.54077637
0.80090559 0.60894495 0.50170243
0.84997451 0.60467935 0.50570792
0.9040997 0.60535872 0.51170886
0.96621239 0.60802722 0.5165959
0.81158924 0.6102128 0.48451948
0.86569166 0.60991049 0.48950276
0.9147045 0.60569918 0.49050927
0.9717167 0.60647631 0.49045593
0.81924289 0.60851008 0.46633923
0.87228936 0.60826564 0.4683423
0.92429852 0.6080609 0.46836489
0.98127329 0.60887426 0.46631217
0.82790035 0.60780352 0.4481582
0.87788725 0.60662425 0.44720066
0.93188524 0.60843015 0.44622201
0.9878 0.60830152 0.44117111
0.8375802 0.60807514 0.43097606
0.89156336 0.61089897 0.42901576
0.94551998 0.61174113 0.42601979
0.99836051 0.61169559 0.41702658
0.84826773 0.61034286 0.41381118
0.90120971 0.61220652 0.40985233
0.94906205 0.61016124 0.40191671
1.0018878 0.61113369 0.39194188
0.85997385 0.61258882 0.39762715
0.90681154 0.61156505 0.38872868
0.95260805 0.60958123 0.37783167
1.0043964 0.61059338 0.36587629
0.86761665 0.61290377 0.37848324
0.91846538 0.61486524 0.36956367
0.96222091 0.61192483 0.35668692
1.0129347 0.61301291 0.34075171
0.86822242 0.6082629 0.35838115
0.92003739 0.61125666 0.34746149
0.96777439 0.61333728 0.3326003
1.0194958 0.61642152 0.31668234
0.88091743 0.61252302 0.34121469
0.92664689 0.61261123 0.32635507
0.97536492 0.61470634 0.31047547
1.016975 0.61291772 0.28965703
0.88655663 0.61184537 0.32209039
0.93325639 0.61396575 0.30524868
0.98396319 0.6180715 0.28836787
1.0194877 0.61337733 0.26360944
0.89520317 0.61315662 0.30294573
0.93986583 0.61532038 0.28414229
0.97845376 0.61256075 0.26236254
1.0260487 0.61678582 0.2395401
0.90387237 0.61544955 0.28481874
0.94647533 0.61667496 0.26303589
0.98303002 0.61495852 0.2393124
1.0265619 0.61725259 0.21353014
0.90547103 0.61382258 0.26375225
0.95008141 0.61704051 0.24196784
0.89409125 0.5539723 0.20186171
0.6260969 0.36019039 0.13535142
0.91211402 0.61414117 0.24462716
0.79473752 0.5075165 0.1928785
0.60415703 0.36021507 0.13876379
-0.02611593 -0.059798401 0.050936799
0.75976169 0.50260675 0.19544539
0.59528381 0.36815557 0.14407536
0.59082073 0.35055286 0.1228333
0.58636928 0.3359496 0.10164531
0.58239949 0.37311089 0.14940803
0.58697689 0.36145681 0.12910464
0.57648832 0.34189406 0.10693962
-0.02611593 -0.059798401 0.050936799
0.56707418 0.36143816 0.13447875
0.57667047 0.35476524 0.11417149
0.57822973 0.34313992 0.092924803
0.57077503 0.32754767 0.071775161
0.57686347 0.36561862 0.12236698
0.56838232 0.34804839 0.10020043
0.57195306 0.3394154 0.078970224
0.57853496 0.33377114 0.057737693
0.56053442 0.35294959 0.10743847
0.55909431 0.34133512 0.086248159
0.5616653 0.33270577 0.065036744
-0.02611593 -0.059798401 0.050936799
0.56230938 0.35315952 0.095404968
0.56285805 0.34355554 0.073213443
0.56142581 0.33394071 0.052059166
0.57100421 0.33230311 0.029842677
0.55302149 0.34644622 0.081452698
0.56562191 0.3457796 0.060197514
-0.02611593 -0.059798401 0.050936799
0.57074988 0.33455601 0.015883463
0.5517891 0.34466726 0.069439515
0.55334938 0.33805922 0.047283258
0.55292481 0.3304404 0.026146226
-0.02611593 -0.059798401 0.050936799
0.54853451 0.34191367 0.056446232
-0.02611593 -0.059798401 0.050936799
-0.02611593 -0.059798401 0.050936799
-0.02611593 -0.059798401 0.050936799
0.54932839 0.34210908 0.045431171
0.5528813 0.33851144 0.022291731
0.56744874 0.34389088 -0.0018918999
0.58097911 0.34931013 -0.028056063
0.5571031 0.34731466 0.032375347
0.55863768 0.34374228 0.008273825
0.57220542 0.34912533 -0.015891016
-0.02611593 -0.059798401 0.050936799
0.5648818 0.35352007 0.01933754
0.56642038 0.35094753 -0.004745964
0.57894689 0.35537052 -0.030909356
0.60043222 0.36883202 -0.06107834
0.55763876 0.34876314 0.0073830485
0.56216985 0.34919742 -0.017702427
0.57368177 0.35464188 -0.044828676
0.62012482 0.38711897 -0.081123054
0.57540184 0.36096779 -0.0077338777
0.57490718 0.35943842 -0.033761099
0.59441155 0.37288904 -0.062892839
0.75063145 0.48244667 -0.12685758
0.56014454 0.35224023 -0.019610118
0.58565962 0.36866879 -0.048800547
0.61612254 0.39115074 -0.08197546
0.76824951 0.50081307 -0.15086335
0.57391918 0.36244154 -0.033688251
0.59040141 0.37492114 -0.063781306
0.77057916 0.50349796 -0.13385265
0.92349702 0.61737311 -0.21468318
0.57366091 0.36369464 -0.047665495
0.61411589 0.39417547 -0.082883477
0.8939817 0.59594166 -0.18450803
0.93703699 0.63482648 -0.24263044
0.58040237 0.3699398 -0.062683828
0.83546805 0.5545454 -0.15014966
0.93648255 0.63339609 -0.21863782
-0.02611593 -0.059798401 0.050936799
0.6031279 0.38717997 -0.08080361
0.92790216 0.62499565 -0.19462097
0.92708713 0.63280845 -0.2394796
0.20599651 0.11180153 -0.03133278
0.87342131 0.58254898 -0.15835647
0.92550242 0.62840027 -0.21652189
-0.02611593 -0.059798401 0.050936799
0.18697159 0.099853642 -0.030192323
0.92691714 0.62398136 -0.19362053
0.92308789 0.63282281 -0.23940444
0.20102309 0.10878379 -0.029293567
-0.02611593 -0.059798401 0.050936799
0.92850578 0.62938935 -0.21656024
-0.02611593 -0.059798401 0.050936799
0.19094913 0.1038748 -0.032194741
0.1569251 0.081946298 -0.02895328
0.92708713 0.63280845 -0.2394796
0.20700026 0.11279776 -0.031333551
-0.02611593 -0.059798401 0.050936799
-0.02611593 -0.059798401 0.050936799
0.91669881 0.62920678 -0.25935701
0.19294874 0.10386763 -0.032232322
0.17084949 0.092002876 -0.035034135
0.14083652 0.073059522 -0.031813782
0.20998493 0.11380491 -0.032371573
-0.02611593 -0.059798401 0.050936799
-0.02611593 -0.059798401 0.050936799
-0.02611593 -0.059798401 0.050936799
0.1849789 0.096843258 -0.029209137
0.16588694 0.086967416 -0.032031287
0.14482492 0.075062908 -0.03285256
0.12181551 0.062111486 -0.030655298
-0.02611593 -0.059798401 0.050936799
-0.02611593 -0.059798401 0.050936799
-0.02611593 -0.059798401 0.050936799
-0.02611593 -0.059798401 0.050936799
0.15992063 0.080935694 -0.029027671
0.14383598 0.073048756 -0.031870153
0.12777397 0.066143543 -0.033694953
0.10776793 0.054181181 -0.03153605
-0.02611593 -0.059798401 0.050936799
-0.02611593 -0.059798401 0.050936799
-0.02611593 -0.059798401 0.050936799
-0.02611593 -0.059798401 0.050936799
0.14284308 0.070034757 -0.030905753
0.1277661 0.064143881 -0.033730991
0.10876776 0.054177593 -0.031554841
0.090769209 0.044207714 -0.029397469
-0.02611593 -0.059798401 0.050936799
-0.02611593 -0.059798401 0.050936799
-0.02611593 -0.059798401 0.050936799
-0.02611593 -0.059798401 0.050936799
0.12480317 0.059101231 -0.030765727
0.11175239 0.055184748 -0.032592844
0.095738702 0.046225604 -0.031454708
0.078762636 0.037233885 -0.028298449
-0.02611593 -0.059798401 0.050936799
-0.02611593 -0.059798401 0.050936799
-0.02611593 -0.059798401 0.050936799
-0.02611593 -0.059798401 0.050936799
0.10778181 0.048146024 -0.029644832
0.096738517 0.046222012 -0.031473499
0.0857061 0.042280275 -0.032338526
0.071718618 0.035295524 -0.030202273
-0.02611593 -0.059798401 0.050936799
-0.02611593 -0.059798401 0.050936799
-0.02611593 -0.059798401 0.050936799
-0.02611593 -0.059798401 0.050936799
0.089794137 0.036158398 -0.02652384
0.087697878 0.040273428 -0.032412149
0.073699526 0.035306435 -0.031239521
0.061719529 0.030314179 -0.029104799
-0.02611593 -0.059798401 0.050936799
-0.02611593 -0.059798401 0.050936799
-0.02611593 -0.059798401 0.050936799
-0.02611593 -0.059798401 0.050936799
0.078791313 0.030180812 -0.025425594
0.076680258 0.035313759 -0.032295544
0.065666556 0.031353921 -0.032160919
0.051735245 0.024314906 -0.027025688
-0.02611593 -0.059798401 0.050936799
-0.02611593 -0.059798401 0.050936799
-0.02611593 -0.059798401 0.050936799
-0.02611593 -0.059798401 0.050936799
0.072728381 0.028256945 -0.028347872
0.065677427 0.029336164 -0.031197306
0.055686191 0.026354481 -0.030063789
0.045709755 0.022354869 -0.02794864
-0.02611593 -0.059798401 0.050936799
-0.02611593 -0.059798401 0.050936799
-0.02611593 -0.059798401 0.050936799
-0.02611593 -0.059798401 0.050936799
0.062725373 0.022275766 -0.027268417
0.059648011 0.026376303 -0.032138269
0.049656786 0.023394611 -0.031004768
0.036747936 0.017333748 -0.02487063
-0.02611593 -0.059798401 0.050936799
-0.02611593 -0.059798401 0.050936799
-0.02611593 -0.059798401 0.050936799
-0.02611593 -0.059798401 0.050936799
0.053726107 0.017290825 -0.02618973
0.051633775 0.022405691 -0.03206002
0.043631308 0.021434572 -0.031927712
0.030737249 0.014355796 -0.024811946
-0.02611593 -0.059798401 0.050936799
-0.02611593 -0.059798401 0.050936799
-0.02611593 -0.059798401 0.050936799
-0.02611593 -0.059798401 0.050936799
0.045726646 0.012302302 -0.02512984
0.042634502 0.017420748 -0.030981343
0.038590845 0.020488869 -0.033851113
0.024745289 0.011359748 -0.023753598
-0.02611593 -0.059798401 0.050936799
-0.02611593 -0.059798401 0.050936799
-0.02611593 -0.059798401 0.050936799
-0.02611593 -0.059798401 0.050936799
0.036764827 0.0072811889 -0.02205183
0.036627743 0.015442628 -0.03090464
0.029643819 0.014449831 -0.029791459
0.01875725 0.0093635395 -0.022677232
-0.02611593 -0.059798401 0.050936799
-0.02611593 -0.059798401 0.050936799
-0.02611593 -0.059798401 0.050936799
-0.02611593 -0.059798401 0.050936799
0.032709386 0.0073498115 -0.024975654
0.033557329 0.016525581 -0.034828894
0.026592132 0.015514695 -0.032716054
0.016675789 0.012460647 -0.027583897
-0.02611593 -0.059798401 0.050936799
-0.02611593 -0.059798401 0.050936799
-0.02611593 -0.059798401 0.050936799
-0.02611593 -0.059798401 0.050936799
0.028653955 0.0074184341 -0.027899478
0.026584277 0.013515034 -0.032752089
0.02157039 0.014550898 -0.033639785
0.011721088 0.0094248401 -0.024545018
-0.02611593 -0.059798401 0.050936799
-0.02611593 -0.059798401 0.050936799
-0.02611593 -0.059798401 0.050936799
-0.02611593 -0.059798401 0.050936799
0.021710485 0.0023720474 -0.023859389
0.022528838 0.013583657 -0.035675909
0.015615879 0.011518673 -0.030582111
0.0076843752 0.0094753737 -0.026469182
-0.02611593 -0.059798401 0.050936799
-0.02611593 -0.059798401 0.050936799
-0.02611593 -0.059798401 0.050936799
-0.02611593 -0.059798401 0.050936799
0.016688753 0.0014082502 -0.024783116
0.017521901 0.01160194 -0.035617996
0.011564367 0.012587126 -0.033487916
0.0036663837 0.0095078181 -0.027393676
-0.02611593 -0.059798401 0.050936799
-0.02611593 -0.059798401 0.050936799
-0.02611593 -0.059798401 0.050936799
-0.02611593 -0.059798401 0.050936799
0.013651856 0.0014551951 -0.026726071
0.011582173 0.0075518023 -0.031578675
0.0065613575 0.01160524 -0.033411983
0.00065213849 0.010536497 -0.028318945
-0.02611593 -0.059798401 0.050936799
-0.02611593 -0.059798401 0.050936799
-0.02611593 -0.059798401 0.050936799
-0.02611593 -0.059798401 0.050936799
0.0086488435 0.00047331274 -0.026650138
0.0065791649 0.0065699085 -0.031502742
0.0015879315 0.0085875224 -0.031372748
-0.0033658529 0.010568942 -0.029243443
-0.02611593 -0.059798401 0.050936799
-0.02611593 -0.059798401 0.050936799
-0.02611593 -0.059798401 0.050936799
-0.02611593 -0.059798401 0.050936799
0.0046269256 -0.00049407687 -0.027592655
0.0025424492 0.0066204425 -0.033426911
-0.0014263139 0.0096162083 -0.032298028
-0.0083205542 0.0075331349 -0.026204567
-0.02611593 -0.059798401 0.050936799
-0.02611593 -0.059798401 0.050936799
-0.02611593 -0.059798401 0.050936799
-0.02611593 -0.059798401 0.050936799
0.0015939558 0.00055270223 -0.02951758
-0.0005092416 0.0076853144 -0.036351498
-0.0054778224 0.010684655 -0.035203833
-0.010398088 0.011630073 -0.03109321
-0.02611593 -0.059798401 0.050936799
-0.02611593 -0.059798401 0.050936799
-0.02611593 -0.059798401 0.050936799
-0.02611593 -0.059798401 0.050936799
-0.02611593 -0.059798401 0.050936799
-0.0063967248 0.0025810711 -0.029331218
-0.0094435737 0.0096630091 -0.033147372
-0.014382562 0.01062651 -0.030036416
-0.02611593 -0.059798401 0.050936799
-0.02611593 -0.059798401 0.050936799
-0.02611593 -0.059798401 0.050936799
-0.02611593 -0.059798401 0.050936799
-0.02611593 -0.059798401 0.050936799
-0.010414714 0.0026135161 -0.030255724
-0.013491153 0.011731286 -0.03603515
-0.018400554 0.010658954 -0.030960903
-0.02611593 -0.059798401 0.050936799
-0.02611593 -0.059798401 0.050936799
-0.02611593 -0.059798401 0.050936799
-0.02611593 -0.059798401 0.050936799
-0.02611593 -0.059798401 0.050936799
-0.014428778 0.0036457912 -0.031162195
-0.017509146 0.01176373 -0.036959652
-0.022351509 0.0086193886 -0.027922798
-0.02611593 -0.059798401 0.050936799
-0.02611593 -0.059798401 0.050936799
-0.02611593 -0.059798401 0.050936799
-0.02611593 -0.059798401 0.050936799
-0.02611593 -0.059798401 0.050936799
-0.018446768 0.0036782362 -0.032086696
-0.021478822 0.0097422544 -0.034921203
-0.026317259 0.0075977356 -0.025866337
-0.02611593 -0.059798401 0.050936799
-0.02611593 -0.059798401 0.050936799
-0.02611593 -0.059798401 0.050936799
-0.02611593 -0.059798401 0.050936799
-0.02611593 -0.059798401 0.050936799
-0.022446036 0.0036925918 -0.032011535
-0.025429778 0.0077026812 -0.031883091
-0.028327761 0.0096226642 -0.026792381
-0.02611593 -0.059798401 0.050936799
-0.02611593 -0.059798401 0.050936799
-0.02611593 -0.059798401 0.050936799
-0.02611593 -0.059798401 0.050936799
-0.02611593 -0.059798401 0.050936799
-0.026508411 0.0067787883 -0.035880964
-0.028444024 0.0087313671 -0.032808367
-0.031327214 0.0096334303 -0.02673601
-0.02611593 -0.059798401 0.050936799
-0.02611593 -0.059798401 0.050936799
-0.02611593 -0.059798401 0.050936799
-0.02611593 -0.059798401 0.050936799
-0.02611593 -0.059798401 0.050936799
-0.029507862 0.0067895548 -0.035824593
-0.032424569 0.0087276343 -0.031733539
-0.035326481 0.0096477866 -0.026660848
-0.02611593 -0.059798401 0.050936799
-0.02611593 -0.059798401 0.050936799
-0.02611593 -0.059798401 0.050936799
-0.02611593 -0.059798401 0.050936799
-0.02611593 -0.059798401 0.050936799
-0.032425482 0.0037103917 -0.030823965
-0.036438633 0.0097599095 -0.032640029
-0.038307209 0.0096404636 -0.025604814
-0.02611593 -0.059798401 0.050936799
-0.02611593 -0.059798401 0.050936799
-0.02611593 -0.059798401 0.050936799
-0.02611593 -0.059798401 0.050936799
-0.02611593 -0.059798401 0.050936799
-0.036406033 0.0037066583 -0.029749151
-0.039404564 0.0087346677 -0.030602336
-0.042317342 0.011672563 -0.026493274
-0.02611593 -0.059798401 0.050936799
-0.02611593 -0.059798401 0.050936799
-0.02611593 -0.059798401 0.050936799
-0.02611593 -0.059798401 0.050936799
-0.02611593 -0.059798401 0.050936799
-0.041497812 0.0088322908 -0.035563067
-0.043395977 0.010748677 -0.03049114
-0.046375789 0.015758596 -0.030344676
-0.02611593 -0.059798401 0.050936799
-0.02611593 -0.059798401 0.050936799
-0.02611593 -0.059798401 0.050936799
-0.02611593 -0.059798401 0.050936799
-0.02611593 -0.059798401 0.050936799
-0.045478359 0.0088285571 -0.034488246
-0.047410037 0.011780952 -0.031397626
-0.05032282 0.014718855 -0.027288556
-0.02611593 -0.059798401 0.050936799
-0.02611593 -0.059798401 0.050936799
-0.02611593 -0.059798401 0.050936799
-0.02611593 -0.059798401 0.050936799
-0.02611593 -0.059798401 0.050936799
-0.047366571 0.0037099582 -0.027543128
-0.052434791 0.014834567 -0.033248946
-0.053299621 0.015711363 -0.026214506
-0.02611593 -0.059798401 0.050936799
-0.02611593 -0.059798401 0.050936799
-0.02611593 -0.059798401 0.050936799
-0.02611593 -0.059798401 0.050936799
-0.02611593 -0.059798401 0.050936799
-0.054454062 0.0098425988 -0.033301458
-0.056411404 0.015830664 -0.032156106
-0.056280345 0.015704041 -0.025158476
-0.02611593 -0.059798401 0.050936799
-0.02611593 -0.059798401 0.050936799
-0.02611593 -0.059798401 0.050936799
-0.02611593 -0.059798401 0.050936799
-0.054391872 0.0017535085 -0.028447293
-0.05743086 0.0108351 -0.032227408
-0.059347752 0.012769583 -0.028155133
-0.060275689 0.016718227 -0.025065292
-0.02611593 -0.059798401 0.050936799
-0.02611593 -0.059798401 0.050936799
-0.02611593 -0.059798401 0.050936799
-0.02611593 -0.059798401 0.050936799
-0.058387212 0.0027676946 -0.028354112
-0.061392684 0.010813277 -0.030152909
-0.065401904 0.017862618 -0.031950951
-0.066325918 0.022811094 -0.028843082
-0.02611593 -0.059798401 0.050936799
-0.02611593 -0.059798401 0.050936799
-0.02611593 -0.059798401 0.050936799
-0.02611593 -0.059798401 0.050936799
-0.062345102 0.003745703 -0.026261609
-0.066402636 0.012848972 -0.031022586
-0.069389395 0.020876475 -0.031821735
-0.065155499 0.013610057 -0.018027764
-0.02611593 -0.059798401 0.050936799
-0.02611593 -0.059798401 0.050936799
-0.02611593 -0.059798401 0.050936799
-0.02611593 -0.059798401 0.050936799
-0.066306926 0.0037238807 -0.024187122
-0.072423272 0.016906008 -0.032837097
-0.074365824 0.021876153 -0.030710097
-0.067117684 0.013581056 -0.015990857
-0.02611593 -0.059798401 0.050936799
-0.02611593 -0.059798401 0.050936799
-0.02611593 -0.059798401 0.050936799
-0.02611593 -0.059798401 0.050936799
-0.072331496 0.0067810765 -0.026019651
-0.076370299 0.015866265 -0.029780962
-0.079371855 0.024911679 -0.031561755
-0.067024983 0.0084733758 -0.010082986
-0.02611593 -0.059798401 0.050936799
-0.02611593 -0.059798401 0.050936799
-0.02611593 -0.059798401 0.050936799
-0.02611593 -0.059798401 0.050936799
-0.077322721 0.0087986905 -0.025889661
-0.084416233 0.022966139 -0.033503156
-0.083329752 0.025889687 -0.02946924
-0.084268555 0.031856082 -0.02734302
-0.02611593 -0.059798401 0.050936799
-0.02611593 -0.059798401 0.050936799
-0.02611593 -0.059798401 0.050936799
-0.02611593 -0.059798401 0.050936799
-0.081280619 0.0097766984 -0.023797154
-0.088359341 0.022926228 -0.030429009
-0.090346277 0.03095014 -0.031246949
-0.087215759 0.03081275 -0.02430569
-0.02611593 -0.059798401 0.050936799
-0.02611593 -0.059798401 0.050936799
-0.02611593 -0.059798401 0.050936799
-0.02611593 -0.059798401 0.050936799
-0.088297144 0.014837145 -0.025574856
-0.092298508 0.023886148 -0.027336843
-0.096314669 0.033953071 -0.030080482
-0.095242977 0.037894536 -0.027028214
-0.02611593 -0.059798401 0.050936799
-0.02611593 -0.059798401 0.050936799
-0.02611593 -0.059798401 0.050936799
-0.02611593 -0.059798401 0.050936799
-0.094269462 0.016840251 -0.024426416
-0.10032964 0.029968102 -0.030077398
-0.10128719 0.035952587 -0.028950825
-0.1012301 0.040915553 -0.026861414
-0.02611593 -0.059798401 0.050936799
-0.02611593 -0.059798401 0.050936799
-0.02611593 -0.059798401 0.050936799
-0.02611593 -0.059798401 0.050936799
-0.10327777 0.023907537 -0.026130486
-0.10830855 0.034995966 -0.029836979
-0.11029549 0.04301988 -0.030654915
-0.10719848 0.04391849 -0.025694955
-0.02611593 -0.059798401 0.050936799
-0.02611593 -0.059798401 0.050936799
-0.02611593 -0.059798401 0.050936799
-0.02611593 -0.059798401 0.050936799
-0.10924617 0.026910473 -0.024964031
-0.11324754 0.035959475 -0.026726022
-0.11421986 0.042961877 -0.026581101
-0.11417364 0.049942598 -0.025455315
-0.02611593 -0.059798401 0.050936799
-0.02611593 -0.059798401 0.050936799
-0.02611593 -0.059798401 0.050936799
-0.02611593 -0.059798401 0.050936799
-0.11823968 0.032959841 -0.025686465
-0.12628077 0.046076786 -0.030300211
-0.12422406 0.051032577 -0.028248366
-0.11913135 0.050924186 -0.023344025
-0.02611593 -0.059798401 0.050936799
-0.02611593 -0.059798401 0.050936799
-0.02611593 -0.059798401 0.050936799
-0.02611593 -0.059798401 0.050936799
-0.12618506 0.036951695 -0.023464747
-0.13425575 0.052104473 -0.030041777
-0.13218422 0.056042351 -0.027008299
-0.12710634 0.05695188 -0.023085587
-0.02611593 -0.059798401 0.050936799
-0.02611593 -0.059798401 0.050936799
-0.02611593 -0.059798401 0.050936799
-0.02611593 -0.059798401 0.050936799
-0.14220989 0.049079433 -0.026946522
-0.14421162 0.058121249 -0.028746091
-0.14518002 0.066123478 -0.028583154
-0.13707307 0.064986415 -0.022753537
-0.02611593 -0.059798401 0.050936799
-0.02611593 -0.059798401 0.050936799
-0.02611593 -0.059798401 0.050936799
-0.02611593 -0.059798401 0.050936799
-0.15216577 0.055096209 -0.02565084
-0.16019902 0.070212819 -0.030228551
-0.15411736 0.072118573 -0.026306611
-0.15006886 0.075067542 -0.024328392
-0.02611593 -0.059798401 0.050936799
-0.02611593 -0.059798401 0.050936799
-0.02611593 -0.059798401 0.050936799
-0.02611593 -0.059798401 0.050936799
-0.16913033 0.068173103 -0.026096825
-0.17112812 0.078214757 -0.027878378
-0.16809033 0.083185047 -0.02684499
-0.16505642 0.087155506 -0.025829636
-0.02611593 -0.059798401 0.050936799
-0.02611593 -0.059798401 0.050936799
-0.02611593 -0.059798401 0.050936799
-0.02611593 -0.059798401 0.050936799
-0.1891052 0.083278507 -0.027450055
-0.18507151 0.087245367 -0.026453476
-0.18605074 0.097265355 -0.027254168
-0.17799605 0.097182378 -0.024405509
-0.02611593 -0.059798401 0.050936799
-0.02611593 -0.059798401 0.050936799
-0.02611593 -0.059798401 0.050936799
-0.02611593 -0.059798401 0.050936799
-0.20701341 0.096304722 -0.024878267
-0.20902993 0.10636446 -0.027659487
-0.19495457 0.10222445 -0.022996318
-0.19595258 0.11226252 -0.024796668
-0.02611593 -0.059798401 0.050936799
-0.02611593 -0.059798401 0.050936799
-0.02611593 -0.059798401 0.050936799
-0.02611593 -0.059798401 0.050936799
-0.23293401 0.11539479 -0.024047364
-0.22591957 0.119369 -0.024106819
-0.22291136 0.12637512 -0.025036719
-0.21890725 0.13237785 -0.026003435
-0.02611593 -0.059798401 0.050936799
-0.02611593 -0.059798401 0.050936799
-0.02611593 -0.059798401 0.050936799
-0.02611593 -0.059798401 0.050936799
-0.25881326 0.13544853 -0.021199115
-0.25984475 0.14652261 -0.024980765
-0.2508159 0.14947172 -0.024096154
-0.2367928 0.14638579 -0.022413962
-0.02611593 -0.059798401 0.050936799
-0.02611593 -0.059798401 0.050936799
-0.02611593 -0.059798401 0.050936799
-0.02611593 -0.059798401 0.050936799
-0.87787998 0.65065485 -0.17033951
-0.83890581 0.65053296 -0.17207201
-0.80892128 0.65746027 -0.1745089
-0.25667408 0.16140075 -0.018768895
-0.8794716 0.64926428 -0.14832741
-0.8435452 0.65120703 -0.15296647
-0.80959588 0.65413886 -0.15655029
-0.02611593 -0.059798401 0.050936799
-0.87607598 0.64485627 -0.12646332
-0.84718484 0.65187758 -0.13387974
-0.81726044 0.65785939 -0.13933364
-0.77434105 0.64874268 -0.14230312
-0.87969685 0.64550865 -0.10637692
-0.84982854 0.65154463 -0.11482981
-0.81594318 0.65253097 -0.12144863
-0.7830615 0.65252107 -0.12806669
-0.88129944 0.64613575 -0.08532843
-0.8484661 0.64817977 -0.09490943
-0.81761372 0.65021288 -0.10345319
-0.78676522 0.65124619 -0.11201496
-0.88389778 0.64776635 -0.064243138
-0.85310161 0.64985365 -0.075785883
-0.82229054 0.65092319 -0.086346976
-0.789473 0.64896786 -0.096000053
-0.88350463 0.64738649 -0.043250263
-0.8537457 0.6495136 -0.056773536
-0.8219614 0.6485979 -0.068389118
-0.79317266 0.64869279 -0.079930305
-0.88313019 0.64702469 -0.023257039
-0.85439366 0.64817369 -0.03777919
-0.82663828 0.64930815 -0.051282898
-0.79687238 0.64841771 -0.063860565
-0.87874556 0.64463079 -0.0023753494
-0.85603362 0.64883691 -0.018730029
-0.82730108 0.6489861 -0.033270217
-0.79957616 0.64713925 -0.047827646
-0.88036293 0.64627582 0.017691489
-0.85468203 0.64748985 0.00022672117
-0.82697195 0.64666086 -0.015312351
-0.80426782 0.64886737 -0.03170307
-0.8779701 0.64588881 0.038646787
-0.84934294 0.64312893 0.019054256
-0.83363277 0.65137768 0.001903519
-0.80896342 0.64959574 -0.015596516
-0.87260443 0.64350939 0.058510028
-0.85297471 0.6457991 0.038177028
-0.83329964 0.65005225 0.019879401
-0.81064481 0.64929545 0.0014353022
-0.87122625 0.64414382 0.078502476
-0.84862757 0.64344138 0.0570594
-0.82997894 0.64571655 0.037744842
-0.81033832 0.64598846 0.018375479
-0.86687517 0.64278597 0.097402856
-0.84627217 0.64309043 0.076015376
-0.83563989 0.65042973 0.054941915
-0.81203836 0.64570618 0.034407634
-0.86150557 0.64140648 0.1172841
-0.84495407 0.64277935 0.092990823
-0.83331108 0.64809728 0.072862215
-0.81473434 0.64642739 0.050476603
-0.85812771 0.6420337 0.13723898
-0.84359854 0.64243209 0.1119656
-0.82900536 0.64477593 0.089727223
-0.81342411 0.64411652 0.067416012
-0.85676038 0.64468592 0.15626779
-0.84125799 0.64309913 0.12993993
-0.83067882 0.64647514 0.10679508
-0.81611997 0.6448378 0.083484977
-0.84542632 0.63930368 0.17496458
-0.84089047 0.64575493 0.14898755
-0.82635438 0.64313573 0.12465976
-0.81580561 0.64353037 0.1004612
-0.8470279 0.64494795 0.19510348
-0.83356649 0.64240468 0.16679585
-0.82603216 0.64382809 0.14167202
-0.81947488 0.64623672 0.11758466
-0.83670455 0.64158696 0.21285543
-0.8332029 0.64406067 0.18582545
-0.82269961 0.64249188 0.15959153
-0.81220025 0.63992321 0.13333958
-0.82837689 0.63923299 0.23066296
-0.82688969 0.64273185 0.20268892
-0.82137758 0.64318067 0.17658499
-0.81784242 0.64461833 0.15153632
-0.82500994 0.64187807 0.2496542
-0.82155752 0.64138842 0.22057086
-0.81904089 0.64284784 0.19454131
-0.81654698 0.64332551 0.16749409
-0.81470525 0.6385352 0.26640648
-0.81522554 0.64004153 0.23843399
-0.81770015 0.64351845 0.21253444
-0.81422901 0.6430108 0.18445075
-0.81233013 0.64318341 0.28545254
-0.80891228 0.63871258 0.25529748
-0.8124094 0.64121139 0.22839904
-0.81389201 0.64268517 0.20244464
-0.80002588 0.63983339 0.30216727
-0.80656385 0.64137936 0.27330783
-0.80709594 0.63988614 0.24528131
-0.80760932 0.63837492 0.21825442
-0.79171306 0.63849729 0.31899315
-0.79725903 0.63804001 0.29007891
-0.80078661 0.63755751 0.26212674
-0.80728316 0.64006704 0.23528469
-0.78339225 0.63916087 0.33585507
-0.79293358 0.63971776 0.30703402
-0.79843813 0.6402241 0.28013715
-0.80893397 0.64274806 0.25337023
-0.77607137 0.63982815 0.35273582
-0.78561658 0.63938516 0.32389674
-0.79214758 0.63791353 0.29598293
-0.80262858 0.63941956 0.27019766
-0.76280862 0.63551086 0.36741436
-0.77632654 0.6370638 0.33968616
-0.78980309 0.63958037 0.31397527
-0.80030674 0.64010471 0.28717235
-0.75448388 0.63717419 0.38429433
-0.77197844 0.6397233 0.35765895
-0.78051698 0.63625926 0.32974669
-0.79499334 0.63877946 0.30405462
-0.743209 0.6358636 0.39906451
-0.76368034 0.63940519 0.37350321
-0.77719134 0.63794059 0.34672058
-0.79365253 0.63945001 0.32204771
-0.73390716 0.63654166 0.41490799
-0.74946308 0.63312072 0.38612759
-0.77187002 0.63861495 0.36363894
-0.78933501 0.63912815 0.33896682
-0.71671307 0.62926483 0.42645836
-0.74608827 0.63776547 0.40515491
-0.76455301 0.63828224 0.3805016
-0.78601331 0.63980973 0.3559227
-0.70643407 0.62895757 0.4412654
-0.73483998 0.63447326 0.4188894
-0.75628155 0.63598263 0.39531016
-0.77772701 0.63649213 0.37171289
-0.6991201 0.63264239 0.4572005
-0.72456479 0.63316619 0.43367839
-0.7489872 0.63466823 0.41115516
-0.77240968 0.63616663 0.38861316
-0.68981439 0.63432032 0.47306201
-0.7143085 0.63187718 0.44746771
-0.74068904 0.63435012 0.42699945
-0.76511538 0.63485235 0.40445819
-0.67658114 0.63203883 0.48577726
-0.70403343 0.63057017 0.46225673
-0.732391 0.63403201 0.44284368
-0.75782484 0.63253802 0.4202852
-0.66533589 0.63276404 0.49858421
-0.69572353 0.63325155 0.47815502
-0.72211981 0.63172507 0.45761466
-0.7534768 0.63519758 0.43825802
-0.6471982 0.62553781 0.50711679
-0.68349409 0.62997383 0.49087107
-0.71581352 0.63341379 0.47353256
-0.7441867 0.63287622 0.45404744
-0.6378845 0.62921536 0.52301431
-0.67223793 0.62868124 0.50464159
-0.70653433 0.63311017 0.48835835
-0.7368924 0.63156182 0.46989247
-0.62663913 0.62994057 0.53582126
-0.66197765 0.62839216 0.51844895
-0.69528198 0.63081771 0.50211084
-0.72957534 0.63122916 0.48675513
-0.61244363 0.62769175 0.54651839
-0.64973646 0.62811393 0.53121907
-0.68698001 0.63149941 0.51797312
-0.72028136 0.62990761 0.50256264
-0.60019857 0.62841326 0.55930656
-0.63749921 0.62683588 0.54397118
-0.67672366 0.6302104 0.53176248
-0.7110061 0.62860423 0.5173704
-0.58896798 0.6301564 0.57113183
-0.63018519 0.63052064 0.5599063
-0.66742176 0.63088858 0.54760593
-0.70173085 0.62730074 0.53217816
-0.57281816 0.62593693 0.57975602
-0.61501253 0.62728637 0.56956697
-0.65616566 0.62959599 0.56137645
-0.69438726 0.62894964 0.5500766
-0.56059176 0.62667656 0.59154451
-0.60279393 0.62602651 0.58131945
-0.64392835 0.62831795 0.57412857
-0.68213516 0.62665373 0.56381029
-0.5464071 0.62644541 0.60127807
-0.59055281 0.62574822 0.59408951
-0.63267225 0.62702543 0.58789909
-0.670883 0.62436128 0.57756281
-0.53322619 0.62521809 0.61101234
-0.58128047 0.62846214 0.6079697
-0.62436229 0.6297068 0.60379738
-0.66058528 0.62403595 0.59336954
-0.51709116 0.62201643 0.61865491
-0.56610775 0.62522799 0.61763048
-0.60623938 0.6234985 0.61134839
-0.65226054 0.6256994 0.61024946
-0.50390232 0.62278873 0.6284253
-0.55385876 0.62694937 0.63043654
-0.59890276 0.62816495 0.6283012
-0.6429587 0.62637752 0.62609291
-0.49461436 0.629502 0.64237756
-0.54165494 0.62670732 0.64120734
-0.58959311 0.63084275 0.64418066
-0.63070273 0.62508142 0.63984466
-0.47945255 0.62828553 0.65107465
-0.52747422 0.62547636 0.65092283
-0.57246995 0.62463808 0.65175039
-0.61941999 0.62577039 0.65465093
-0.46240038 0.62315297 0.65466374
-0.51424801 0.62621242 0.66269249
-0.56315625 0.62831569 0.66764796
-0.60518694 0.62348533 0.66734737
-0.44825315 0.622958 0.66239798
-0.50104052 0.62696666 0.67346257
-0.54796094 0.62606317 0.67832637
-0.59292704 0.62318897 0.68111718
-0.43215945 0.61879277 0.66802317
-0.48687854 0.62575382 0.68217844
-0.5327844 0.62382877 0.68800509
-0.58259881 0.62584507 0.6979776
-0.42091325 0.6245352 0.67992055
-0.47269383 0.62552267 0.691912
-0.52053523 0.62555021 0.70081121
-0.56740743 0.62259281 0.70863789
-0.40580758 0.62337303 0.68561864
-0.45852789 0.62530965 0.70064586
-0.50631714 0.62428308 0.71252602
-0.5531705 0.62130755 0.7213524
-0.39165643 0.62417787 0.69337094
-0.44433931 0.62607831 0.71039742
-0.49213248 0.62405193 0.72225952
-0.54186118 0.6239782 0.7371943
-0.3775053 0.62498277 0.70112312
-0.42726848 0.62092769 0.71498615
-0.47790644 0.62478447 0.73401046
-0.52664316 0.62270743 0.7488904
-0.36433131 0.62677294 0.70991182
-0.41407576 0.6226998 0.72477454
-0.46468017 0.62552053 0.74578017
-0.5114252 0.62143666 0.7605865
-0.34733534 0.62169468 0.71050191
-0.39892873 0.62250131 0.73249
-0.44754532 0.62231541 0.7534039
-0.49524876 0.61919868 0.77024639
-0.33129385 0.6185835 0.71314621
-0.38473621 0.62426978 0.74225956
-0.4352884 0.62603647 0.76624608
-0.48195848 0.62188023 0.78505111
-0.31715754 0.62040633 0.71991682
-0.37056243 0.62605637 0.75102949
-0.41814959 0.62383103 0.77388799
-0.46578205 0.61964226 0.79471099
-0.30493021 0.62616324 0.73079574
-0.35350633 0.62192374 0.75463659
-0.40298384 0.62361437 0.78260309
-0.44862846 0.61641896 0.80333447
-0.28795689 0.6201033 0.7303682
-0.33837801 0.62174332 0.76135236
-0.38779539 0.62437952 0.79233581
-0.43433446 0.62009662 0.81813842
-0.27286208 0.62095881 0.73510265
-0.32229519 0.61959577 0.76601404
-0.3716298 0.62415928 0.80103213
-0.41910467 0.62182546 0.82988852
-0.25878975 0.6208362 0.73883826
-0.30813617 0.62240028 0.77380222
-0.35261551 0.61905581 0.80258429
-0.39998886 0.61863112 0.83647507
-0.24371761 0.62070996 0.74255502
-0.29200417 0.62321603 0.78051734
-0.3384003 0.62180609 0.8133716
-0.38282743 0.61740744 0.8451345
-0.22770967 0.61863482 0.743218
-0.27594003 0.6210866 0.78417927
-0.32127631 0.62061864 0.82003176
-0.36471143 0.61421674 0.85173994
-0.21359204 0.62047571 0.74898893
-0.25985327 0.61993891 0.78885889
-0.30412963 0.62041295 0.82770956
-0.34845915 0.61692363 0.86448896
-0.19949314 0.62233472 0.75376022
-0.24378522 0.61880934 0.79253888
-0.28797886 0.62121058 0.8354243
-0.33224437 0.61966681 0.8752386
-0.18446235 0.62124491 0.75545967
-0.22867171 0.61964673 0.79827303
-0.27185073 0.62102652 0.84212118
-0.31219274 0.61452347 0.87877131
-0.16938628 0.62211853 0.75919449
-0.2116413 0.61854976 0.7999348
-0.2538057 0.61890799 0.84474593
-0.29311049 0.61236519 0.8833766
-0.15437424 0.62104678 0.75989425
-0.19652386 0.62038708 0.80568701
-0.23665118 0.62070191 0.85245979
-0.27493742 0.61413747 0.89207137
-0.13938484 0.61899322 0.75957638
-0.17952003 0.61730844 0.80631316
-0.21954195 0.62053239 0.85813832
-0.25588173 0.60999763 0.89564091
-0.12430484 0.62086672 0.76332915
-0.16437601 0.62112731 0.81310099
-0.20053849 0.61744666 0.85872698
-0.23672758 0.61178434 0.90331721
-0.11026603 0.6217801 0.76508343
-0.14732686 0.62001222 0.81576252
-0.18340269 0.61925864 0.8654412
-0.21950902 0.61552364 0.91406608
-0.09529534 0.61974472 0.76376587
-0.13133766 0.61795515 0.81542587
-0.16535375 0.61813992 0.86808389
-0.19855122 0.61046726 0.9125818
-0.080256723 0.62065458 0.76550132
-0.11432596 0.61687618 0.81608802
-0.14730479 0.6170212 0.87072664
-0.18033285 0.61420298 0.92331183
-0.065218091 0.62156439 0.76723689
-0.098295376 0.6157828 0.81776869
-0.12927458 0.6159206 0.87236965
-0.15937504 0.6091466 0.9218275
-0.051265962 0.61955065 0.76493841
-0.082211629 0.61865246 0.82152081
-0.11118032 0.61676544 0.87704778
-0.14023963 0.61095136 0.92850411
-0.036182027 0.62242395 0.76870924
-0.065286621 0.61464643 0.81813025
-0.093146175 0.61666465 0.87870896
-0.12116427 0.61181062 0.93216377
-0.021271447 0.61944294 0.76437467
-0.04922552 0.61653435 0.82086468
-0.075066715 0.61852735 0.8824054
-0.10105167 0.61263019 0.93780398
-0.0082285246 0.62135983 0.76616579
-0.032277863 0.61351007 0.81849182
-0.05703257 0.61842656 0.8840664
-0.081081919 0.61057687 0.93639243
0.0067273583 0.62034231 0.76386654
-0.01617147 0.61736149 0.82326156
-0.03906244 0.61638045 0.88269252
-0.061052054 0.60946906 0.93799794
0.020706072 0.62031013 0.76260388
-0.0011742134 0.61730766 0.82297969
-0.020047195 0.61629415 0.88333511
-0.040041097 0.60837579 0.93858498
0.035661954 0.61929262 0.76030469
0.015739929 0.61531937 0.81862551
-0.0030729566 0.61525136 0.88199806
-0.020026036 0.60828596 0.93920881
0.049708623 0.62220567 0.76209497
0.03171435 0.61428022 0.81730723
0.014837077 0.61225963 0.87760711
-0.00090146624 0.61210853 0.94492191
0.064668439 0.62218803 0.75981379
0.047692697 0.61424088 0.81600696
0.033920273 0.61511856 0.88130277
0.019985368 0.60812432 0.93945682
0.078533895 0.61724716 0.75346261
0.063671052 0.61420161 0.81470662
0.051875606 0.61409032 0.8789472
0.040004358 0.60903424 0.94009876
0.092543118 0.62019646 0.75325364
0.080698453 0.61712193 0.81544089
0.069766916 0.61111665 0.87355661
0.059936672 0.60701704 0.93668795
0.10650311 0.62018239 0.75099128
0.097703189 0.61906058 0.81515753
0.088835321 0.61499351 0.87627065
0.080895387 0.60697782 0.93429399
0.12044437 0.62018645 0.74772918
0.11250445 0.6121707 0.80575258
0.10568544 0.61105984 0.86888158
0.10091832 0.60888767 0.93495387
0.13438565 0.62019044 0.7444672
0.12851329 0.61511278 0.80550593
0.12471247 0.61397302 0.86957824
0.12187701 0.60884851 0.93255997
0.14932674 0.62019086 0.74118632
0.14547668 0.61608773 0.80320519
0.14156653 0.61103916 0.86220711
0.14177582 0.6078673 0.92716777
0.16222289 0.61823499 0.73590767
0.16144024 0.61706638 0.80092329
0.1605709 0.61297065 0.86188608
0.161716 0.60784984 0.92379302
0.17619075 0.6202206 0.73368138
0.17740773 0.61904478 0.79865932
0.17740622 0.61005491 0.85351533
0.1816335 0.60685056 0.91940057
0.19011331 0.62024271 0.72941965
0.19219416 0.61317283 0.78827274
0.19641846 0.61398602 0.85323036
0.20156281 0.60885084 0.91506213
0.20296806 0.61732316 0.72212368
0.20707516 0.61222774 0.78197491
0.21429497 0.61203027 0.84685808
0.22143897 0.60688788 0.90865237
0.2169359 0.61930877 0.71989739
0.22304659 0.615206 0.77972895
0.23119824 0.61205965 0.8415404
0.24132296 0.60692465 0.90227854
0.23193015 0.6232723 0.71868789
0.23792364 0.61326098 0.77341312
0.25012383 0.61306369 0.83720279
0.26020715 0.60696495 0.89592355
0.24376245 0.61937463 0.71039307
0.25384974 0.61427581 0.76913184
0.26698962 0.61312926 0.82988566
0.28007242 0.60701984 0.8885501
0.25769284 0.62139642 0.70616734
0.26977977 0.61629039 0.76486862
0.28387421 0.61317682 0.82356828
0.29997909 0.60803837 0.88319397
0.27057424 0.62045848 0.69990712
0.28464207 0.6153633 0.7575711
0.29864979 0.60932273 0.81221807
0.3177807 0.60615492 0.87282312
0.28238782 0.61657894 0.69061261
0.29950827 0.61543614 0.75029165
0.31757924 0.61132652 0.80789846
0.33769131 0.60817331 0.86748505
0.29634088 0.61958241 0.68740457
0.31438926 0.61449099 0.74399376
0.33338127 0.60945028 0.79756516
0.35545546 0.60632604 0.85511488
0.31022596 0.61964071 0.68114358
0.32925937 0.61556363 0.7367323
0.35025495 0.61151558 0.7902841
0.37430218 0.60640258 0.84676051
0.32211143 0.61970615 0.67492008
0.34412554 0.61563641 0.72945279
0.36714736 0.61356276 0.78400278
0.39211562 0.60751873 0.83644372
0.33395162 0.61780816 0.66666132
0.35899568 0.61670905 0.72219133
0.38294935 0.61168653 0.77366942
0.41096628 0.60859513 0.82810748
0.34577307 0.61592823 0.65740287
0.37074921 0.61188388 0.70987982
0.39982304 0.61375183 0.76638842
0.42775726 0.60873306 0.81679171
0.35763586 0.61501199 0.65016168
0.38459685 0.61197835 0.70161951
0.41665533 0.61485338 0.75709003
0.44449893 0.60590768 0.80342263
0.37259266 0.6190117 0.64695299
0.40049335 0.61502898 0.69537491
0.43042025 0.6130206 0.74479502
0.46129379 0.60704547 0.79212493
0.38441804 0.61813158 0.63771248
0.41123226 0.61122537 0.68210053
0.44520763 0.61216587 0.73349887
0.47806606 0.60720158 0.77980959
0.39628479 0.61821514 0.63048935
0.42508385 0.61231959 0.67385823
0.45895383 0.6103512 0.72020417
0.49381581 0.60637945 0.76649535
0.40813673 0.6193167 0.62228453
0.4389354 0.61341387 0.66561586
0.47274137 0.60950005 0.7089268
0.51059198 0.60753536 0.7541979
0.4189584 0.61744028 0.61304492
0.4507007 0.6115883 0.6533584
0.4896042 0.61358309 0.70068216
0.527372 0.60969114 0.74191862
0.43181011 0.6185382 0.60482138
0.46557865 0.6146605 0.64613301
0.50235057 0.61177194 0.68740624
0.54212189 0.60887259 0.72862315
0.44161323 0.6166836 0.59460086
0.47938889 0.61479115 0.63587332
0.51302928 0.60702276 0.67111486
0.55583453 0.6080938 0.7133472
0.45553276 0.62072307 0.58941156
0.48810548 0.61001295 0.62161887
0.52885097 0.61014569 0.66087168
0.56850207 0.6053552 0.69605458
0.46429071 0.61690855 0.57717437
0.50192356 0.61214334 0.61139524
0.54160523 0.61033422 0.64763182
0.58835751 0.61244506 0.68680793
0.47714642 0.61900622 0.56896889
0.51473784 0.61327738 0.60117233
0.55538189 0.61150092 0.63539082
0.59900665 0.60973161 0.66855329
0.48590833 0.61619151 0.55674976
0.52448082 0.61047709 0.58793479
0.56915861 0.61266756 0.62314981
0.61272722 0.61095268 0.65331334
0.49878275 0.61827111 0.54954386
0.5372991 0.61261106 0.57772994
0.58087158 0.61189598 0.60791147
0.6264438 0.61117375 0.63805532
0.50754857 0.61645621 0.53734279
0.54704994 0.61181045 0.56452847
0.59263003 0.61308789 0.59470838
0.63507468 0.60848558 0.61883861
0.51838195 0.6175794 0.52815717
0.54760551 0.59918892 0.54328251
0.60334319 0.61231989 0.57948875
0.64777273 0.60872835 0.60259974
0.52816635 0.6157428 0.51693696
0.56143147 0.60331893 0.53309488
0.61406034 0.61255181 0.56428713
0.66047865 0.6109708 0.58639693
0.53896236 0.61690217 0.50575203
0.5722087 0.60449636 0.52091032
0.62579602 0.61276191 0.55006635
0.67217684 0.61121714 0.57017684
0.54977691 0.61804342 0.4955667
0.5809558 0.60269952 0.5077095
0.63651711 0.61399364 0.53488278
0.68488276 0.61345959 0.55397403
0.54838914 0.60537475 0.47735739
0.59171438 0.60389507 0.49452525
0.64825678 0.61520362 0.52068007
0.69251776 0.61177486 0.53479415
0.55613643 0.60358161 0.46417543
0.60046536 0.60309803 0.48134255
0.65897787 0.61643529 0.5054965
0.7021789 0.6120646 0.51661235
0.56695503 0.60572261 0.45400816
0.60819781 0.60232282 0.46717894
0.66462791 0.61373991 0.48733577
0.71184003 0.61235434 0.49843052
0.57472104 0.60391134 0.44182584
0.61997879 0.60449642 0.45499358
0.675349 0.61497164 0.47215217
0.72152776 0.61462563 0.48128444
0.58452111 0.60607415 0.43067771
0.62871897 0.60571718 0.44084719
0.68405169 0.61622858 0.4560065
0.72611797 0.6109882 0.46012551
0.60344857 0.61711258 0.42452091
0.63950413 0.60889429 0.4286986
0.69072431 0.61451131 0.43884468
0.73478323 0.61228132 0.44198054
0.61424834 0.61927176 0.41335398
0.65229279 0.61306399 0.41653049
0.69942313 0.61476839 0.42268097
0.74244875 0.61357808 0.42385432
0.62402576 0.62045276 0.40118816
0.66305518 0.61525941 0.40336424
0.7051037 0.61505443 0.40557402
0.74606174 0.61092597 0.40373185
0.63177699 0.61965936 0.38802427
0.6697731 0.61550558 0.38823777
0.71380645 0.61631131 0.38942838
0.7567572 0.61519337 0.386603
0.63750595 0.61789143 0.37388024
0.67849451 0.61674446 0.37309179
0.72149062 0.61758995 0.37230182
0.76240027 0.61551559 0.3674967
0.64325756 0.61710525 0.36075386
0.68015623 0.61204565 0.35596985
0.72716731 0.61687613 0.35517681
0.76602119 0.6148631 0.34741032
0.6540426 0.62028235 0.34860528
0.69193023 0.61723685 0.34283888
0.73283309 0.61818004 0.33708817
0.76763856 0.61321801 0.32734346
0.65772665 0.61655813 0.33246347
0.69762969 0.61750478 0.32673156
0.73951751 0.61946219 0.31998041
0.77226323 0.61356187 0.30725631
0.66751194 0.6197387 0.32033369
0.70334768 0.61775458 0.3116239
0.74217206 0.61777747 0.30189413
0.77693307 0.61586916 0.28920448
0.66919631 0.61602163 0.30422947
0.71005076 0.61901867 0.29551581
0.74483061 0.61709243 0.28382581
0.78158039 0.61719483 0.27013499
0.68199277 0.62219101 0.29209733
0.71575016 0.6192866 0.27940848
0.75354505 0.62134886 0.2677342
0.78420544 0.61754584 0.25008538
0.68672192 0.62042665 0.2779721
0.72147214 0.62053621 0.26431882
0.75317365 0.61769325 0.24866857
0.78482687 0.61690414 0.23005536
0.69143623 0.61968023 0.26286522
0.72111541 0.61586267 0.24623483
0.75784361 0.62000054 0.23061676
0.57603139 0.44278049 0.16979441
0.69412428 0.61695945 0.2467602
0.73185611 0.62209356 0.23114136
0.58727044 0.47060964 0.17708987
0.55863458 0.42716977 0.15183166
0.70186859 0.6191836 0.23265067
0.72648865 0.61443847 0.21309726
0.55276167 0.44011673 0.15617728
-0.02611593 -0.059798401 0.050936799
0.70861304 0.62141132 0.21855991
0.55193704 0.45600906 0.16248235
0.55251044 0.43835223 0.14314565
0.54402834 0.41576475 0.12188867
0.63374072 0.54926825 0.18664591
0.54765207 0.45027772 0.14845414
0.5462032 0.43164635 0.12813735
0.5538373 0.42494437 0.10986701
0.55288345 0.47111151 0.15673587
0.54840457 0.44950944 0.13542174
0.55701184 0.44082236 0.11609689
0.58069795 0.44806063 0.097778149
0.54257601 0.45940265 0.1427123
0.56223536 0.45965648 0.12434258
0.57988024 0.46093538 0.10502881
0.62461448 0.48611337 0.085640132
0.54835808 0.46159783 0.13063964
0.57505149 0.47082496 0.11230057
0.60674095 0.48405161 0.092939958
0.62032652 0.48439935 0.070684344
0.56220758 0.47172683 0.12056015
0.59490472 0.48694953 0.10121679
0.62656462 0.50221193 0.079892881
0.62205714 0.48766303 0.055705901
0.57804978 0.48486614 0.10949747
0.61071342 0.50112486 0.088172808
0.62026525 0.49750566 0.064920619
0.6137768 0.48294583 0.041770879
0.5978843 0.50100869 0.097414032
0.62348825 0.51132971 0.074113458
0.61697704 0.49578816 0.04994604
0.61350375 0.48521677 0.026811996
0.61069262 0.51017761 0.085335985
0.62924457 0.51656061 0.060095549
0.62275624 0.50200075 0.036945809
0.66233063 0.52935904 0.0086901784
0.61744881 0.51540482 0.071299292
0.63803101 0.52476209 0.047074988
0.63450152 0.51424503 0.020941967
0.63899118 0.51371568 -0.0061608516
0.62219763 0.51863956 0.057264138
0.62671286 0.51507461 0.032106586
0.64425814 0.52447879 0.0059393309
0.61869645 0.50002491 -0.019032899
0.63198376 0.52683753 0.044224784
0.6284582 0.51732033 0.018109785
0.62594831 0.51179886 -0.0079519302
0.60841656 0.49531499 -0.032930337
0.61969543 0.51511782 0.031238457
0.63420379 0.52456892 0.0031282529
0.59362733 0.48613518 -0.01981505
0.60915124 0.49958202 -0.047871977
0.63145167 0.52534437 0.01619824
0.61989713 0.51287442 -0.010820154
0.61539137 0.50836003 -0.036826279
0.58787549 0.48587689 -0.05972556
0.62717462 0.5216127 0.0022060759
0.59662074 0.49415928 -0.021726597
0.59912252 0.49663654 -0.048737779
0.5866065 0.48915133 -0.07464762
0.61989015 0.51589209 -0.011765759
0.60736239 0.50540727 -0.037729666
0.58885741 0.49090859 -0.061653584
0.59435266 0.50140989 -0.090576313
0.59459853 0.49318469 -0.022706695
0.59410477 0.49667257 -0.049643494
0.58760732 0.49416494 -0.075575992
0.72590595 0.62780106 -0.13976972
0.61035484 0.50841415 -0.038731642
0.59184295 0.49693298 -0.063601166
0.58734214 0.49843565 -0.090498835
0.72060043 0.63112605 -0.15661596
0.60008186 0.50068647 -0.051683486
0.58659267 0.49518648 -0.076538838
0.72489518 0.62982249 -0.14071456
0.71129459 0.62944812 -0.17247745
0.58683509 0.48993406 -0.062633678
0.59033465 0.50144231 -0.091500811
0.72058165 0.63114411 -0.15761562
0.19630133 0.15068604 -0.022444867
0.58457339 0.4901945 -0.07659135
0.72788382 0.63182944 -0.14173456
0.71327943 0.63045889 -0.17349669
0.19121946 0.1487767 -0.026385598
0.57833415 0.48643374 -0.088546604
0.72057378 0.62914449 -0.15765166
0.22125602 0.17371905 -0.029497836
-0.02611593 -0.059798401 0.050936799
0.73186743 0.62781572 -0.14188179
0.71924871 0.63247323 -0.17557271
0.2011929 0.15679373 -0.029428337
0.172097 0.13591945 -0.030261461
0.72953469 0.62914842 -0.15982011
0.21624815 0.16672009 -0.028530352
-0.02611593 -0.059798401 0.050936799
-0.02611593 -0.059798401 0.050936799
0.7252171 0.62947023 -0.17673916
0.19819252 0.15178724 -0.028462399
0.17210788 0.1339017 -0.02929784
0.14404924 0.11298768 -0.028150428
0.19431162 0.14365824 -0.020534098
0.18515563 0.1418356 -0.028398305
-0.02611593 -0.059798401 0.050936799
-0.02611593 -0.059798401 0.050936799
0.19719572 0.14777343 -0.027516022
-0.02611593 -0.059798401 0.050936799
0.1500264 0.11700164 -0.030190416
0.12499772 0.099058256 -0.028045669
0.19012119 0.14285368 -0.030473556
0.16206649 0.12293946 -0.029308133
-0.02611593 -0.059798401 0.050936799
-0.02611593 -0.059798401 0.050936799
-0.02611593 -0.059798401 0.050936799
-0.02611593 -0.059798401 0.050936799
0.12699343 0.098051243 -0.028101265
0.10796458 0.085103549 -0.026978828
0.16205078 0.11894015 -0.02938021
0.14198859 0.10703205 -0.030220278
-0.02611593 -0.059798401 0.050936799
-0.02611593 -0.059798401 0.050936799
-0.02611593 -0.059798401 0.050936799
-0.02611593 -0.059798401 0.050936799
0.11392303 0.08913561 -0.030018479
0.096905574 0.079180226 -0.028879564
0.13998412 0.10102216 -0.029291149
0.12492583 0.095113203 -0.031116728
-0.02611593 -0.059798401 0.050936799
-0.02611593 -0.059798401 0.050936799
-0.02611593 -0.059798401 0.050936799
-0.02611593 -0.059798401 0.050936799
0.10188986 0.080180205 -0.029955156
0.080932342 0.066167511 -0.024814509
0.12293225 0.08708556 -0.029223967
0.11285525 0.086193964 -0.033052728
-0.02611593 -0.059798401 0.050936799
-0.02611593 -0.059798401 0.050936799
-0.02611593 -0.059798401 0.050936799
-0.02611593 -0.059798401 0.050936799
0.083894342 0.066192925 -0.026870206
0.072895437 0.061215155 -0.025753938
0.11086556 0.079166159 -0.031141959
0.096844561 0.073217437 -0.030986998
-0.02611593 -0.059798401 0.050936799
