# .PCD v0.7 - Point Cloud Data file format
VERSION 0.7
FIELDS x y z
SIZE 4 4 4
TYPE F F F
COUNT 1 1 1
WIDTH 1424
HEIGHT 1
VIEWPOINT 0 0 0 1 0 0 0
POINTS 1424
DATA ascii
-0.80917221 0.1066023 2.3653922
-0.61626905 0.22230703 2.2298276
-0.65595073 0.18200515 2.2548499
-0.69264776 0.14271042 2.2788343
-0.72643989 0.098478138 2.2986736
-0.55599254 0.21775824 2.1916037
-0.58981043 0.17656161 2.2094977
-0.62260962 0.13534331 2.2283728
-0.65434206 0.092049435 2.2511914
-0.49679467 0.21228556 2.1493824
-0.52857542 0.17104557 2.1692381
-0.55928147 0.12972969 2.1930735
-0.58624339 0.085635088 2.2037842
-0.43963793 0.20585641 2.1051807
-0.47030255 0.16550419 2.1310337
-0.49715903 0.12431861 2.1467967
-0.5210467 0.080140889 2.1614501
-0.38914579 0.20314424 2.0781775
-0.41404796 0.159988 2.0918674
-0.43704021 0.11791489 2.1005399
-0.45892426 0.07472983 2.1151733
-0.33777407 0.1985373 2.045121
-0.35984927 0.15453327 2.0497398
-0.38170668 0.11332978 2.0654087
-0.4006139 0.069152206 2.0789683
-0.28936043 0.19490479 2.0141382
-0.31024462 0.15171614 2.028753
-0.3292563 0.10964675 2.0363505
-0.34533653 0.064621359 2.0408385
-0.25051612 0.20097131 2.0575354
-0.26692638 0.15325396 2.0449753
-0.28046039 0.10765214 2.0253971
-0.29184893 0.060898572 2.0137606
-0.21130425 0.20969361 2.1199801
-0.22591388 0.15915048 2.0973318
-0.23936217 0.11145856 2.0827157
-0.24983361 0.062774114 2.0670259
-0.17011148 0.21842685 2.1813879
-0.18463537 0.16579361 2.1637015
-0.19713303 0.11513478 2.1470134
-0.20672488 0.064555615 2.1252708
-0.22336586 0.50262237 4.3492603
-0.14037612 0.17244405 2.2290154
-0.15190056 0.11980005 2.211273
-0.1603132 0.067036763 2.199472
-0.12879905 0.5016796 4.3254647
-0.17846635 0.47803667 5.0932269
-0.24393509 0.45354718 6.2444
-0.3134394 0.37294537 7.4576545
-0.036003292 0.50152671 4.3137207
-0.063330993 0.47341713 5.0469728
-0.099969283 0.45103067 6.2416582
-0.131822 0.35034376 7.1737494
0.056526423 0.50062728 4.2879634
0.048764762 0.47390646 5.0508833
0.044902712 0.44860107 6.2338996
0.036431506 0.33119482 6.9231672
0.14832628 0.50147778 4.2762561
0.16211428 0.47109473 5.0156984
0.19230771 0.4537192 6.3062568
0.19573197 0.31404158 6.6747909
0.23879626 0.49963987 4.247519
0.27294418 0.47084111 5.0056152
0.34019518 0.45632273 6.3515501
0.34143209 0.29755864 6.4476876
0.33055866 0.50052667 4.2338123
0.38371792 0.47064167 4.9925337
0.4777033 0.44515592 6.2197289
0.47855756 0.28370944 6.2428002
0.41913053 0.50060523 4.2101474
0.49426305 0.46965957 4.9674377
0.60333252 0.42986166 6.0420399
0.60666597 0.26991069 6.0370827
0.50648874 0.49888662 4.1754694
0.60638535 0.47213054 4.9723849
0.72309786 0.41546208 5.8714795
0.7268694 0.25605017 5.836513
-0.02611593 -0.059798401 0.050936799
-0.02611593 -0.059798401 0.050936799
-0.02611593 -0.059798401 0.050936799
0.84482324 0.24649414 5.675077
0.17187217 0.095936418 1.189433
0.17278372 0.06390208 1.1908369
0.17472172 0.033845745 1.1932578
-0.02611593 -0.059798401 0.050936799
-0.02611593 -0.059798401 0.050936799
-0.02611593 -0.059798401 0.050936799
1.042743 0.37809834 5.3776517
1.0586187 0.22656968 5.3466029
0.2755233 0.13121484 1.4292117
0.27721211 0.090359345 1.4204381
0.27662441 0.050782211 1.3967252
0.28243265 0.011803485 1.3939103
-0.02611593 -0.059798401 0.050936799
-0.02611593 -0.059798401 0.050936799
1.2333853 0.35744601 5.0946126
1.2531261 0.21004704 5.0555634
-0.02611593 -0.059798401 0.050936799
1.2767774 0.47918254 4.8789291
1.3196819 0.3476792 4.9517717
1.3413554 0.20234501 4.9087224
1.1057531 0.49721426 3.9711499
1.3766385 0.47588798 4.8179793
1.4041328 0.33877468 4.8169842
1.4331388 0.1971072 4.7908697
1.1944864 0.50014752 3.9555359
1.4596031 0.46850193 4.7102561
1.4868312 0.33064198 4.6952472
1.5146543 0.19015884 4.659173
1.277932 0.50137043 3.9249859
1.5406053 0.46108687 4.604569
1.5666317 0.32442933 4.5786014
1.5942301 0.18416321 4.5305314
1.3560859 0.49988323 3.8794799
1.6186644 0.45362824 4.5019383
-0.02611593 -0.059798401 0.050936799
-0.02611593 -0.059798401 0.050936799
-0.02611593 -0.059798401 0.050936799
-0.02611593 -0.059798401 0.050936799
0.47562081 0.046942934 1.2888933
0.48946509 0.0078993309 1.2879275
0.46607754 0.1187591 1.2463567
0.49994203 0.086687222 1.2981601
1.78728 0.30562431 4.2420158
1.8166729 0.17056724 4.1820021
0.52014077 0.12857209 1.3005404
1.8296623 0.43251571 4.1844983
1.8520644 0.29948351 4.1246519
1.8886926 0.16718376 4.0765572
1.6897748 0.50486547 3.7522793
1.8874402 0.42440051 4.0672297
1.9212306 0.29496628 4.0272422
1.9536347 0.16289791 3.9672263
1.7679553 0.50535977 3.7078094
1.9516367 0.41786537 3.9718773
1.9873785 0.2904779 3.9288895
2.0176933 0.15950701 3.8639307
1.852442 0.50754273 3.6792576
2.0138602 0.41331896 3.8775983
2.0453928 0.28514501 3.8236711
2.0869837 0.15788072 3.772573
1.9316972 0.50796109 3.6387675
2.0709834 0.4068813 3.7783785
2.1107357 0.28247899 3.7353694
2.1491776 0.15537018 3.6763306
2.0160718 0.51025265 3.6042175
2.1344352 0.40311408 3.696095
2.1730382 0.27886006 3.645107
2.2104127 0.15382686 3.5821242
2.0849838 0.50903285 3.5458856
2.1958504 0.39939022 3.6118488
2.2282109 0.27539292 3.5479784
2.26963 0.15230879 3.4869559
2.1611085 0.5095886 3.4984541
2.2501128 0.39483637 3.5197194
2.2886338 0.27367228 3.4637873
2.3299632 0.15167847 3.3977845
2.2300019 0.50838691 3.4391224
2.3065283 0.39113051 3.4355674
2.3470156 0.27099523 3.3776169
2.3852558 0.15010244 3.30669
2.2968581 0.50722843 3.3778291
2.3599486 0.38843516 3.35149
2.395268 0.26848063 3.2846365
2.4436831 0.14938882 3.2225547
2.3576181 0.50518233 3.3116322
2.4103279 0.38478693 3.2654517
2.4547889 0.26767299 3.2054806
2.4949617 0.14884506 3.1305535
2.4152811 0.5022375 3.2404749
2.4709756 0.38284928 3.1932569
2.5082316 0.26595944 3.1224205
2.5534866 0.14904083 3.0514343
2.4740036 0.5002346 3.1723163
2.5204151 0.38015017 3.110254
2.5617309 0.26419157 3.0423601
2.6130488 0.14919688 2.9742959
2.5194364 0.49555025 3.0893528
2.5719335 0.37837145 3.0312304
2.6162562 0.26440173 2.963316
2.6644435 0.1495444 2.8883109
2.567966 0.49176449 3.0113492
2.625526 0.37651318 2.9561682
2.6667223 0.26368064 2.8813305
2.7149174 0.15082298 2.8063612
2.6216712 0.48979771 2.9422848
2.6771231 0.37566188 2.8811612
2.7193003 0.26284385 2.805305
2.7714651 0.15200767 2.7282972
2.6682425 0.48698276 2.8663363
2.7246232 0.37391552 2.8012133
2.7657712 0.26313695 2.7234125
2.8148615 0.15238391 2.6424627
2.7158134 0.48416427 2.7903688
2.7752392 0.3730498 2.7272251
2.8193717 0.26327837 2.6483862
2.8623359 0.15367328 2.5605693
2.7675414 0.48318636 2.7223594
2.8197773 0.37127808 2.6493325
2.8638618 0.26356053 2.5675306
2.9707928 0.15880582 2.5296211
2.8100951 0.48040393 2.6454866
2.8703969 0.3714121 2.5753622
2.9632678 0.26977947 2.533771
3.0182526 0.16111308 2.4467461
2.8536665 0.47759974 2.5695941
2.9566331 0.37684068 2.5328314
3.0107944 0.2700147 2.4548585
3.0677681 0.16335891 2.3668325
2.915592 0.4794046 2.5114479
3.0143867 0.37782282 2.4657452
3.0593436 0.27122813 2.3769453
3.1223803 0.1664962 2.2918417
3.1491997 0.51110089 2.5886736
3.0599513 0.37802908 2.3888698
3.1078968 0.2734414 2.2990496
3.1698773 0.16876727 2.2109656
3.2038748 0.51116639 2.5176272
3.1065528 0.37819555 2.3139746
3.1595204 0.27457166 2.2250783
3.220434 0.17197318 2.1330509
3.2839019 0.51581562 2.4641945
3.1602509 0.37924629 2.2439647
3.2030556 0.27682096 2.1462772
3.2780497 0.17609951 2.0580213
3.3425992 0.5168485 2.3940907
3.2017791 0.3795031 2.1651649
3.2617605 0.27985343 2.0762093
4.7010574 0.2766909 2.7704401
3.3972182 0.51696813 2.320045
3.2554808 0.38155368 2.0951729
4.5880322 0.41363406 2.7440243
4.7830958 0.28328791 2.6639874
3.2766314 0.48875803 2.13573
4.2795444 0.51353776 2.595557
4.6560836 0.41826355 2.638798
4.5954008 0.27145171 2.4182041
3.5054646 0.51921076 2.172009
4.3397355 0.51505178 2.4984243
4.815053 0.43070036 2.5800269
4.6513424 0.2762329 2.3072054
3.5691497 0.52224344 2.100847
4.3655806 0.5130142 2.3838649
4.6234918 0.40971723 2.3431535
4.7829719 0.28709242 2.2309115
3.626791 0.52333409 2.0277629
4.3742518 0.50920069 2.2605917
4.6996775 0.41519123 2.2447929
4.8943205 0.29729527 2.1399808
3.6924949 0.52634138 1.9575635
4.4152746 0.50994587 2.1548014
5.0108542 0.44496128 2.2455056
5.0449166 0.31012249 2.0613666
3.7268517 0.52578628 1.8698804
4.4038477 0.50429493 2.0268698
4.910428 0.43458593 2.0661376
6.8133655 0.44294739 2.5748329
3.7834029 0.52797079 1.7918347
4.544735 0.51888633 1.9634743
5.25454 0.46830913 2.0623033
6.8158712 0.4483082 2.3878195
3.8389366 0.530177 1.7128081
4.5020924 0.5095464 1.8250568
5.2961812 0.47243014 1.9355553
6.8154855 0.45257136 2.2068427
3.8450577 0.52594012 1.6135831
4.5411377 0.51128048 1.7203217
5.3609982 0.47930527 1.8174262
6.7648125 0.45328599 2.0117383
3.898591 0.52815354 1.5345942
4.5751467 0.51306868 1.6136811
5.4399099 0.48703948 1.7040502
6.8017917 0.46107197 1.8491316
3.9440098 0.52950436 1.4497395
4.6091704 0.51383901 1.5080222
5.4945974 0.49407712 1.5791112
6.7693896 0.46446824 1.6677382
3.9793704 0.52994549 1.3620557
4.6411796 0.51563442 1.4014193
5.5291867 0.49927735 1.4495138
6.7380476 0.46880651 1.4893429
4.0247741 0.53231424 1.2762194
4.6661148 0.51752734 1.2909492
5.5868931 0.50628608 1.3255181
6.7358799 0.47587737 1.3194538
4.070159 0.53470099 1.1893833
4.6800113 0.51849604 1.1786685
5.6495681 0.51531273 1.1994652
6.68963 0.4791792 1.1463208
4.1094899 0.53716362 1.0996611
4.7441654 0.52504909 1.078552
5.7222457 0.5253033 1.0732424
6.6955967 0.48709458 0.98329711
4.1538372 0.53959018 1.0108445
4.774127 0.52890569 0.96902359
5.659481 0.52217883 0.9273116
6.6183968 0.48745391 0.81369144
4.1831055 0.54014331 0.91827524
4.7860756 0.52882743 0.85976148
5.6127963 0.52092415 0.78511477
6.4700818 0.48417723 0.63935
4.2244015 0.54363477 0.82653409
4.8230395 0.53365868 0.75011963
5.6253295 0.52525771 0.65291375
6.0194125 0.45427868 0.45418414
4.2767377 0.5480504 0.73660362
4.8379431 0.53662348 0.63785613
5.6448545 0.53258377 0.5196355
6.0207396 0.46286812 0.31026587
4.2948947 0.54875141 0.63824302
4.8568649 0.53955579 0.52651727
5.8356633 0.55705786 0.39646402
3.5369215 0.25405374 0.11792718
4.3411193 0.55329716 0.5424273
4.8647289 0.54158205 0.41236797
3.5672915 0.32187065 0.17760552
3.0401394 0.21448365 0.035484534
4.3712821 0.55595481 0.44387725
4.888639 0.54651427 0.2999714
3.5296988 0.32153776 0.09327475
3.0518088 0.22073857 -0.036645252
4.4064484 0.55959445 0.34525126
-0.02611593 -0.059798401 0.050936799
3.0179808 0.26891524 0.016877702
3.0824633 0.22894304 -0.11009568
-0.02611593 -0.059798401 0.050936799
-0.02611593 -0.059798401 0.050936799
3.0436661 0.27510175 -0.054515488
2.7563834 0.20310907 -0.15947464
-0.02611593 -0.059798401 0.050936799
2.9777343 0.31446716 -0.004552051
3.0713179 0.28231719 -0.12792757
2.6512926 0.19853252 -0.21560888
3.5261469 0.43448827 0.042367157
2.8924558 0.30598229 -0.070131123
2.6773262 0.24260302 -0.16928339
2.7419603 0.21252061 -0.29007864
2.9965186 0.36077103 -0.025073104
2.8551924 0.30332416 -0.13650402
2.6901221 0.2477279 -0.23445234
2.7606733 0.22071388 -0.36030459
2.9932189 0.36002669 -0.094048172
2.6691248 0.2819688 -0.18742391
2.7278507 0.25583488 -0.30403566
2.3505242 0.18426415 -0.3572838
2.7220855 0.32299721 -0.1446588
2.6949041 0.28806496 -0.25381878
3.0030129 0.29269785 -0.41155708
2.3803666 0.19229129 -0.42071882
2.6080096 0.30740055 -0.19782317
1.9511311 0.19429919 -0.21657687
2.3454568 0.21947512 -0.36755547
2.404191 0.20035808 -0.48504078
2.6338181 0.31146082 -0.26225477
2.2934515 0.24079332 -0.31817943
2.370296 0.22652039 -0.43091458
2.6580648 0.23456825 -0.60721648
1.9060898 0.21056649 -0.22144097
2.338295 0.24976647 -0.38187829
2.4031003 0.23457298 -0.4964053
2.6438844 0.2397719 -0.67087853
2.3092551 0.26802075 -0.33398816
2.368129 0.25579402 -0.44534934
2.6679127 0.27281532 -0.62271434
2.5222387 0.23282257 -0.70273751
2.3361273 0.27402285 -0.3954035
2.4058993 0.26486462 -0.51291537
2.5999689 0.2689611 -0.67152852
2.3967059 0.22577903 -0.72852331
2.3699613 0.280036 -0.45894974
2.676677 0.3041214 -0.64131838
2.4862993 0.26100129 -0.70455545
2.4373183 0.2380012 -0.80508858
2.434603 0.29113603 -0.53398466
2.5569737 0.29220197 -0.67530441
2.0515039 0.20929055 -0.62632382
-0.02611593 -0.059798401 0.050936799
2.6426041 0.32238513 -0.6483525
2.4532752 0.28222466 -0.70955497
2.3974497 0.26010484 -0.80194122
0.1864305 -0.033105638 -0.033588439
2.5239117 0.30844429 -0.68139362
2.4511037 0.28536755 -0.77247882
-0.02611593 -0.059798401 0.050936799
-0.02611593 -0.059798401 0.050936799
2.4441004 0.29948923 -0.7220751
-0.02611593 -0.059798401 0.050936799
0.18840055 -0.031076975 -0.035589304
0.16240831 -0.035001073 -0.034173172
2.4518709 0.30265045 -0.78818589
-0.02611593 -0.059798401 0.050936799
-0.02611593 -0.059798401 0.050936799
-0.02611593 -0.059798401 0.050936799
-0.02611593 -0.059798401 0.050936799
0.18142447 -0.030070115 -0.0344401
0.16237873 -0.032965235 -0.036136452
0.13742375 -0.036929104 -0.032739777
0.1924303 -0.02810993 -0.034610756
-0.02611593 -0.059798401 0.050936799
-0.02611593 -0.059798401 0.050936799
-0.02611593 -0.059798401 0.050936799
-0.02611593 -0.059798401 0.050936799
0.15839818 -0.032968968 -0.035061624
0.14237452 -0.034893118 -0.03579668
0.11645718 -0.038889568 -0.030381896
0.17335105 -0.029969048 -0.038288422
-0.02611593 -0.059798401 0.050936799
-0.02611593 -0.059798401 0.050936799
-0.02611593 -0.059798401 0.050936799
-0.02611593 -0.059798401 0.050936799
0.13639435 -0.034889672 -0.034684271
0.12733197 -0.036802769 -0.037550181
0.104418 -0.039810158 -0.032173745
0.14341572 -0.033933055 -0.033798132
-0.02611593 -0.059798401 0.050936799
-0.02611593 -0.059798401 0.050936799
-0.02611593 -0.059798401 0.050936799
-0.02611593 -0.059798401 0.050936799
0.11642367 -0.037853561 -0.032363195
0.10836897 -0.037770584 -0.035211857
0.096363299 -0.039727181 -0.035022408
0.12539242 -0.035850026 -0.034495592
-0.02611593 -0.059798401 0.050936799
-0.02611593 -0.059798401 0.050936799
-0.02611593 -0.059798401 0.050936799
-0.02611593 -0.059798401 0.050936799
0.1024223 -0.038803149 -0.032118145
0.097348318 -0.038712848 -0.036022846
0.080418475 -0.040723849 -0.031740792
0.1093875 -0.037792262 -0.034230981
-0.02611593 -0.059798401 0.050936799
-0.02611593 -0.059798401 0.050936799
-0.02611593 -0.059798401 0.050936799
-0.02611593 -0.059798401 0.050936799
0.08940202 -0.039738234 -0.032891557
0.086327687 -0.039655112 -0.03683383
0.072397284 -0.041676879 -0.032608151
0.097367041 -0.038730934 -0.035023179
-0.02611593 -0.059798401 0.050936799
-0.02611593 -0.059798401 0.050936799
-0.02611593 -0.059798401 0.050936799
-0.02611593 -0.059798401 0.050936799
0.078418836 -0.040716674 -0.031703211
0.072378561 -0.041658789 -0.033607803
0.062417842 -0.041659079 -0.031420577
0.083399199 -0.040716529 -0.03279683
-0.02611593 -0.059798401 0.050936799
-0.02611593 -0.059798401 0.050936799
-0.02611593 -0.059798401 0.050936799
-0.02611593 -0.059798401 0.050936799
0.070378922 -0.04165161 -0.033570223
0.066323489 -0.04158299 -0.036494054
0.057362583 -0.041586868 -0.034325611
0.079287596 -0.040593639 -0.038719632
-0.02611593 -0.059798401 0.050936799
-0.02611593 -0.059798401 0.050936799
-0.02611593 -0.059798401 0.050936799
-0.02611593 -0.059798401 0.050936799
0.06137665 -0.042619143 -0.033419125
0.057343859 -0.041568778 -0.035325278
0.048397742 -0.042590577 -0.032175198
0.063395001 -0.042644411 -0.032457054
-0.02611593 -0.059798401 0.050936799
-0.02611593 -0.059798401 0.050936799
-0.02611593 -0.059798401 0.050936799
-0.02611593 -0.059798401 0.050936799
0.050430898 -0.043633766 -0.030231472
0.049341399 -0.042539898 -0.035192974
0.042361405 -0.042532861 -0.034061771
0.050464418 -0.044669773 -0.028250173
-0.02611593 -0.059798401 0.050936799
-0.02611593 -0.059798401 0.050936799
-0.02611593 -0.059798401 0.050936799
-0.02611593 -0.059798401 0.050936799
0.044413272 -0.043594141 -0.031118385
0.042342681 -0.042514775 -0.035061438
0.0353962 -0.043543752 -0.031948939
0.046408985 -0.04460115 -0.031173989
-0.02611593 -0.059798401 0.050936799
-0.02611593 -0.059798401 0.050936799
-0.02611593 -0.059798401 0.050936799
-0.02611593 -0.059798401 0.050936799
0.037429351 -0.044586934 -0.030005213
0.037306149 -0.04246065 -0.036966804
0.032325786 -0.042460799 -0.035873193
0.042334825 -0.044514436 -0.035097476
-0.02611593 -0.059798401 0.050936799
-0.02611593 -0.059798401 0.050936799
-0.02611593 -0.059798401 0.050936799
-0.02611593 -0.059798401 0.050936799
0.032392818 -0.044532817 -0.031910587
0.032269619 -0.042406533 -0.038872179
0.028255554 -0.041374255 -0.039778657
0.036313269 -0.045474645 -0.036002412
-0.02611593 -0.059798401 0.050936799
-0.02611593 -0.059798401 0.050936799
-0.02611593 -0.059798401 0.050936799
-0.02611593 -0.059798401 0.050936799
0.028356109 -0.044482283 -0.033834744
0.028251627 -0.042374086 -0.039796676
-0.02611593 -0.059798401 0.050936799
0.029333273 -0.045467611 -0.034871221
-0.02611593 -0.059798401 0.050936799
-0.02611593 -0.059798401 0.050936799
-0.02611593 -0.059798401 0.050936799
-0.02611593 -0.059798401 0.050936799
-0.02611593 -0.059798401 0.050936799
0.023196373 -0.042301875 -0.042701706
-0.02611593 -0.059798401 0.050936799
0.026258934 -0.045384489 -0.038813494
-0.02611593 -0.059798401 0.050936799
-0.02611593 -0.059798401 0.050936799
-0.02611593 -0.059798401 0.050936799
-0.02611593 -0.059798401 0.050936799
-0.02611593 -0.059798401 0.050936799
0.017216196 -0.042298432 -0.041589297
-0.02611593 -0.059798401 0.050936799
-0.02611593 -0.059798401 0.050936799
-0.02611593 -0.059798401 0.050936799
-0.02611593 -0.059798401 0.050936799
-0.02611593 -0.059798401 0.050936799
-0.02611593 -0.059798401 0.050936799
-0.02611593 -0.059798401 0.050936799
-0.02611593 -0.059798401 0.050936799
-0.02611593 -0.059798401 0.050936799
0.015238295 -0.046326749 -0.039624471
-0.02611593 -0.059798401 0.050936799
-0.02611593 -0.059798401 0.050936799
-0.02611593 -0.059798401 0.050936799
-0.02611593 -0.059798401 0.050936799
-0.02611593 -0.059798401 0.050936799
0.0071993019 -0.042244453 -0.04240106
-0.02611593 -0.059798401 0.050936799
-0.02611593 -0.059798401 0.050936799
-0.02611593 -0.059798401 0.050936799
-0.02611593 -0.059798401 0.050936799
-0.02611593 -0.059798401 0.050936799
-0.02611593 -0.059798401 0.050936799
-0.02611593 -0.059798401 0.050936799
-0.02611593 -0.059798401 0.050936799
-0.02611593 -0.059798401 0.050936799
-0.02611593 -0.059798401 0.050936799
-0.02611593 -0.059798401 0.050936799
-0.02611593 -0.059798401 0.050936799
-0.02611593 -0.059798401 0.050936799
-0.02611593 -0.059798401 0.050936799
-0.02611593 -0.059798401 0.050936799
-0.02611593 -0.059798401 0.050936799
-0.02611593 -0.059798401 0.050936799
-0.02611593 -0.059798401 0.050936799
-0.02611593 -0.059798401 0.050936799
-0.02611593 -0.059798401 0.050936799
-0.02611593 -0.059798401 0.050936799
-0.02611593 -0.059798401 0.050936799
-0.02611593 -0.059798401 0.050936799
-0.02611593 -0.059798401 0.050936799
-0.02611593 -0.059798401 0.050936799
-0.02611593 -0.059798401 0.050936799
-0.02611593 -0.059798401 0.050936799
-0.02611593 -0.059798401 0.050936799
-0.02611593 -0.059798401 0.050936799
-0.02611593 -0.059798401 0.050936799
-0.02611593 -0.059798401 0.050936799
-0.02611593 -0.059798401 0.050936799
-0.02611593 -0.059798401 0.050936799
-0.02611593 -0.059798401 0.050936799
-0.02611593 -0.059798401 0.050936799
-0.02611593 -0.059798401 0.050936799
-0.02611593 -0.059798401 0.050936799
-0.02611593 -0.059798401 0.050936799
-0.02611593 -0.059798401 0.050936799
-0.02611593 -0.059798401 0.050936799
-0.02611593 -0.059798401 0.050936799
-0.02611593 -0.059798401 0.050936799
-0.02611593 -0.059798401 0.050936799
-0.02611593 -0.059798401 0.050936799
-0.02611593 -0.059798401 0.050936799
-0.02611593 -0.059798401 0.050936799
-0.02611593 -0.059798401 0.050936799
-0.02611593 -0.059798401 0.050936799
-0.02611593 -0.059798401 0.050936799
-0.02611593 -0.059798401 0.050936799
-0.02611593 -0.059798401 0.050936799
-0.02611593 -0.059798401 0.050936799
-0.02611593 -0.059798401 0.050936799
-0.02611593 -0.059798401 0.050936799
-0.02611593 -0.059798401 0.050936799
-0.02611593 -0.059798401 0.050936799
-0.02611593 -0.059798401 0.050936799
-0.02611593 -0.059798401 0.050936799
-0.02611593 -0.059798401 0.050936799
-0.02611593 -0.059798401 0.050936799
-0.02611593 -0.059798401 0.050936799
-0.02611593 -0.059798401 0.050936799
-0.02611593 -0.059798401 0.050936799
-0.02611593 -0.059798401 0.050936799
-0.02611593 -0.059798401 0.050936799
-0.02611593 -0.059798401 0.050936799
-0.02611593 -0.059798401 0.050936799
-0.02611593 -0.059798401 0.050936799
-0.02611593 -0.059798401 0.050936799
-0.02611593 -0.059798401 0.050936799
-0.02611593 -0.059798401 0.050936799
-0.02611593 -0.059798401 0.050936799
-0.02611593 -0.059798401 0.050936799
-0.02611593 -0.059798401 0.050936799
-0.02611593 -0.059798401 0.050936799
-0.02611593 -0.059798401 0.050936799
-0.02611593 -0.059798401 0.050936799
-0.02611593 -0.059798401 0.050936799
-0.02611593 -0.059798401 0.050936799
-0.02611593 -0.059798401 0.050936799
-0.02611593 -0.059798401 0.050936799
-0.02611593 -0.059798401 0.050936799
-0.02611593 -0.059798401 0.050936799
-0.02611593 -0.059798401 0.050936799
-0.02611593 -0.059798401 0.050936799
-0.02611593 -0.059798401 0.050936799
-0.02611593 -0.059798401 0.050936799
-0.02611593 -0.059798401 0.050936799
-0.02611593 -0.059798401 0.050936799
-0.02611593 -0.059798401 0.050936799
-0.02611593 -0.059798401 0.050936799
-0.02611593 -0.059798401 0.050936799
-0.02611593 -0.059798401 0.050936799
-0.02611593 -0.059798401 0.050936799
-0.02611593 -0.059798401 0.050936799
-0.02611593 -0.059798401 0.050936799
-0.02611593 -0.059798401 0.050936799
-0.02611593 -0.059798401 0.050936799
-0.02611593 -0.059798401 0.050936799
-0.02611593 -0.059798401 0.050936799
-0.02611593 -0.059798401 0.050936799
-0.02611593 -0.059798401 0.050936799
-0.02611593 -0.059798401 0.050936799
-0.02611593 -0.059798401 0.050936799
-0.02611593 -0.059798401 0.050936799
-0.02611593 -0.059798401 0.050936799
-0.02611593 -0.059798401 0.050936799
-0.02611593 -0.059798401 0.050936799
-0.02611593 -0.059798401 0.050936799
-0.02611593 -0.059798401 0.050936799
-0.02611593 -0.059798401 0.050936799
-0.02611593 -0.059798401 0.050936799
-0.02611593 -0.059798401 0.050936799
-0.02611593 -0.059798401 0.050936799
-0.02611593 -0.059798401 0.050936799
-0.02611593 -0.059798401 0.050936799
-0.02611593 -0.059798401 0.050936799
-0.02611593 -0.059798401 0.050936799
-0.02611593 -0.059798401 0.050936799
-0.02611593 -0.059798401 0.050936799
-0.02611593 -0.059798401 0.050936799
-0.02611593 -0.059798401 0.050936799
-0.02611593 -0.059798401 0.050936799
-0.02611593 -0.059798401 0.050936799
-0.02611593 -0.059798401 0.050936799
-0.02611593 -0.059798401 0.050936799
-0.02611593 -0.059798401 0.050936799
-0.02611593 -0.059798401 0.050936799
-0.02611593 -0.059798401 0.050936799
-0.063795559 -0.043989301 -0.041102968
-0.02611593 -0.059798401 0.050936799
-0.02611593 -0.059798401 0.050936799
-0.02611593 -0.059798401 0.050936799
-0.02611593 -0.059798401 0.050936799
-0.02611593 -0.059798401 0.050936799
-0.066737927 -0.039015561 -0.038957179
-0.02611593 -0.059798401 0.050936799
-0.068775922 -0.043989446 -0.04000935
-0.02611593 -0.059798401 0.050936799
-0.02611593 -0.059798401 0.050936799
-0.02611593 -0.059798401 0.050936799
-0.02611593 -0.059798401 0.050936799
-0.02611593 -0.059798401 0.050936799
-0.071733087 -0.037997786 -0.038845208
-0.069650702 -0.036077663 -0.034848105
-0.072737753 -0.044011265 -0.03793487
-0.02611593 -0.059798401 0.050936799
-0.02611593 -0.059798401 0.050936799
-0.02611593 -0.059798401 0.050936799
-0.02611593 -0.059798401 0.050936799
-0.02611593 -0.059798401 0.050936799
-0.075694911 -0.038019609 -0.036770727
-0.074631065 -0.036077809 -0.033754494
-0.076680847 -0.044051178 -0.034860723
-0.02611593 -0.059798401 0.050936799
-0.02611593 -0.059798401 0.050936799
-0.02611593 -0.059798401 0.050936799
-0.02611593 -0.059798401 0.050936799
-0.02611593 -0.059798401 0.050936799
-0.080690064 -0.037001833 -0.036658753
-0.078607693 -0.035081711 -0.032661658
-0.081642494 -0.044069413 -0.032767449
-0.02611593 -0.059798401 0.050936799
-0.02611593 -0.059798401 0.050936799
-0.02611593 -0.059798401 0.050936799
-0.02611593 -0.059798401 0.050936799
-0.083611622 -0.041080832 -0.031676143
-0.086685039 -0.035980474 -0.036527991
-0.081550978 -0.035125211 -0.029606298
-0.088656001 -0.043026369 -0.033617556
-0.02611593 -0.059798401 0.050936799
-0.02611593 -0.059798401 0.050936799
-0.02611593 -0.059798401 0.050936799
-0.02611593 -0.059798401 0.050936799
-0.087550789 -0.040120911 -0.028583981
-0.091646679 -0.035998706 -0.034434713
-0.088583209 -0.034064077 -0.031456064
-0.093632437 -0.042026684 -0.032505926
-0.02611593 -0.059798401 0.050936799
-0.02611593 -0.059798401 0.050936799
-0.02611593 -0.059798401 0.050936799
-0.02611593 -0.059798401 0.050936799
-0.095601574 -0.039038107 -0.031414624
-0.098660193 -0.034955665 -0.035284825
-0.094578184 -0.033042714 -0.031325303
-0.099593893 -0.042041328 -0.03039385
-0.02611593 -0.059798401 0.050936799
-0.02611593 -0.059798401 0.050936799
-0.02611593 -0.059798401 0.050936799
-0.02611593 -0.059798401 0.050936799
-0.10157783 -0.03803483 -0.030284192
-0.10566978 -0.032912791 -0.036116917
-0.099554621 -0.032043029 -0.030213665
-0.10557014 -0.041038051 -0.029263433
-0.02611593 -0.059798401 0.050936799
-0.02611593 -0.059798401 0.050936799
-0.02611593 -0.059798401 0.050936799
-0.02611593 -0.059798401 0.050936799
-0.10652074 -0.038071156 -0.027191263
-0.11570147 -0.031840894 -0.037910312
-0.11063443 -0.028913617 -0.034951225
-0.11559791 -0.038966328 -0.031038813
-0.02611593 -0.059798401 0.050936799
-0.02611593 -0.059798401 0.050936799
-0.02611593 -0.059798401 0.050936799
-0.02611593 -0.059798401 0.050936799
-0.11758577 -0.035959661 -0.030947175
-0.11962192 -0.030899065 -0.033818487
-0.11455881 -0.028971618 -0.030877419
-0.12764403 -0.036869332 -0.033776272
-0.02611593 -0.059798401 0.050936799
-0.02611593 -0.059798401 0.050936799
-0.02611593 -0.059798401 0.050936799
-0.02611593 -0.059798401 0.050936799
-0.12555771 -0.033949379 -0.029761147
-0.12861635 -0.029866932 -0.033631355
-0.12558639 -0.0268963 -0.032634009
-0.13560119 -0.035876974 -0.031608611
-0.02611593 -0.059798401 0.050936799
-0.02611593 -0.059798401 0.050936799
-0.02611593 -0.059798401 0.050936799
-0.02611593 -0.059798401 0.050936799
-0.13453342 -0.032935336 -0.028574362
-0.13860667 -0.027831387 -0.033407412
-0.13255852 -0.024889607 -0.031466782
-0.14455816 -0.034881018 -0.029422145
-0.02611593 -0.059798401 0.050936799
-0.02611593 -0.059798401 0.050936799
-0.02611593 -0.059798401 0.050936799
-0.02611593 -0.059798401 0.050936799
-0.14350519 -0.030921467 -0.02736954
-0.14757843 -0.025817513 -0.032202598
-0.14153422 -0.023875564 -0.030279979
-0.14946365 -0.03495352 -0.024329897
-0.02611593 -0.059798401 0.050936799
-0.02611593 -0.059798401 0.050936799
-0.02611593 -0.059798401 0.050936799
-0.02611593 -0.059798401 0.050936799
-0.15044382 -0.029950779 -0.024221014
-0.15753131 -0.023818141 -0.029979333
-0.14747304 -0.022908472 -0.027150232
-0.16750081 -0.03083533 -0.026918568
-0.02611593 -0.059798401 0.050936799
-0.02611593 -0.059798401 0.050936799
-0.02611593 -0.059798401 0.050936799
-0.02611593 -0.059798401 0.050936799
-0.1644334 -0.027900876 -0.023921907
-0.16648827 -0.022822192 -0.027792878
-0.15540756 -0.020934366 -0.023964893
-0.19052225 -0.027717117 -0.02843165
-0.02611593 -0.059798401 0.050936799
-0.02611593 -0.059798401 0.050936799
-0.02611593 -0.059798401 0.050936799
-0.02611593 -0.059798401 0.050936799
-0.18646589 -0.022768501 -0.026417401
-0.18752097 -0.017693408 -0.03030717
-0.17041175 -0.017862953 -0.024628639
-0.21956828 -0.021541703 -0.031777266
-0.02611593 -0.059798401 0.050936799
-0.02611593 -0.059798401 0.050936799
-0.02611593 -0.059798401 0.050936799
-0.02611593 -0.059798401 0.050936799
-0.21449731 -0.017614596 -0.02880016
-0.20951603 -0.01259721 -0.030803345
-0.19445868 -0.011705483 -0.028068192
-0.24151109 -0.017499607 -0.029292483
-0.02611593 -0.059798401 0.050936799
-0.02611593 -0.059798401 0.050936799
-0.02611593 -0.059798401 0.050936799
-0.02611593 -0.059798401 0.050936799
-0.24248736 -0.011497037 -0.029165581
-0.2365289 -0.0074649807 -0.032205228
-0.2245006 -0.0045266487 -0.031377003
-0.26443502 -0.013472009 -0.025789242
-0.02611593 -0.059798401 0.050936799
-0.02611593 -0.059798401 0.050936799
-0.02611593 -0.059798401 0.050936799
-0.02611593 -0.059798401 0.050936799
-0.26541126 -0.0074694371 -0.02566234
-0.26146331 -0.0014124559 -0.029628035
-0.24344398 -0.00049531856 -0.028948586
-0.98147029 0.12563141 -0.20690957
-0.02611593 -0.059798401 0.050936799
-0.02611593 -0.059798401 0.050936799
-0.02611593 -0.059798401 0.050936799
-0.98703468 0.12623672 -0.18378662
-0.97937649 0.14962015 -0.20651472
-0.96665204 0.17091362 -0.22537416
-0.25729856 0.002427791 -0.021633834
-1.0046451 0.12893902 -0.16340108
-0.99500597 0.15233335 -0.18716642
-0.97928613 0.17261624 -0.20610029
-0.02611593 -0.059798401 0.050936799
-1.011224 0.13056585 -0.14124098
-1.0005704 0.15293868 -0.16404349
-0.99190152 0.17430076 -0.18582675
-0.98421359 0.19564834 -0.20659156
-1.0177845 0.1321746 -0.1180812
-1.0151813 0.15563022 -0.14371434
-1.0005027 0.17495301 -0.16464673
-0.98782367 0.19428301 -0.18554154
-1.0233488 0.1327799 -0.094958231
-1.0147507 0.15521418 -0.12072214
-1.0121181 0.17663398 -0.14439198
-1.0004389 0.19596754 -0.16526799
-1.0539411 0.13952819 -0.074256383
-1.0243292 0.15685175 -0.098505646
-1.0227151 0.17829324 -0.12315635
-1.0150688 0.19867717 -0.14593852
-1.0564873 0.14010465 -0.050190113
-1.0459124 0.16154999 -0.077009276
-1.0322936 0.17993082 -0.10093988
-1.0156605 0.19728297 -0.12394521
-1.0900604 0.14684559 -0.028432228
-1.0625042 0.16423063 -0.055642895
-1.0418721 0.18156841 -0.078723386
-1.0342896 0.20000695 -0.10454058
-1.0855891 0.14737886 -0.0034978464
-1.0800546 0.16787851 -0.032240391
-1.0514504 0.18320601 -0.056506909
-1.0438679 0.20164455 -0.082324088
-1.0971071 0.14996919 0.021773223
-1.0926059 0.17150843 -0.0089318305
-1.0780474 0.18894011 -0.035898231
-1.0424454 0.19922523 -0.059386708
-1.1106396 0.15358461 0.046100229
-1.0991473 0.17309907 0.015227601
-1.0856074 0.19055243 -0.012719661
-1.0570376 0.20189871 -0.038057908
-1.1201352 0.15714951 0.072351396
-1.1126798 0.17671449 0.039554607
-1.1001623 0.19318971 0.010608457
-1.0796206 0.20660055 -0.016542755
-1.137663 0.16177911 0.096771583
-1.1271933 0.18031542 0.064900063
-1.1106993 0.19579452 0.034861073
-1.1031808 0.21228766 0.0060088709
-1.151139 0.16534029 0.12409759
-1.1397297 0.18292744 0.089190267
-1.1312076 0.20041683 0.06033729
-1.116721 0.21390344 0.030299842
-0.02611593 -0.059798401 0.050936799
-1.1442343 0.18447472 0.11531144
-1.1347724 0.20101497 0.083422683
-1.1292762 0.21653357 0.053590383
-1.1860409 0.17545462 0.18095326
-1.173673 0.19207452 0.14400981
-1.1562618 0.20562275 0.10991736
-1.140813 0.21914198 0.077861786
-0.02611593 -0.059798401 0.050936799
-1.1622111 0.19058301 0.16877663
-1.1697569 0.20920201 0.13624369
-0.02611593 -0.059798401 0.050936799
-1.2318352 0.18851748 0.24306801
-1.1996031 0.200175 0.19966069
-1.1802336 0.2127524 0.1635133
-1.1927787 0.23138933 0.13107431
-0.02611593 -0.059798401 0.050936799
-0.02611593 -0.059798401 0.050936799
-1.1857193 0.21428519 0.19065294
-0.02611593 -0.059798401 0.050936799
-1.268575 0.2014938 0.3080126
-1.2543504 0.21523367 0.26397991
-1.2340453 0.22586206 0.2247787
-1.2177206 0.23648672 0.18665233
-1.2660058 0.20294361 0.33800092
-1.2527999 0.21670514 0.29298735
-0.02611593 -0.059798401 0.050936799
-0.02611593 -0.059798401 0.050936799
-0.02611593 -0.059798401 0.050936799
-1.2950335 0.22817004 0.33199865
-1.2728299 0.23688206 0.28772554
-1.2396069 0.24151911 0.24517295
-0.02611593 -0.059798401 0.050936799
-1.3183463 0.23462187 0.3675639
-1.2633114 0.23534343 0.31552893
-1.2699707 0.24905016 0.27788877
-3.1184819 0.6184262 0.99642307
-1.339618 0.24203017 0.40510887
-1.3164936 0.24981114 0.35680032
-0.02611593 -0.059798401 0.050936799
-3.103075 0.62303638 1.070243
-3.1050768 0.6540755 0.95780391
-1.2960223 0.24626954 0.38236165
-1.2688768 0.25000066 0.33590516
-3.1452661 0.64152664 1.163399
-3.0549636 0.64779705 1.0177724
-0.02611593 -0.059798401 0.050936799
-0.02611593 -0.059798401 0.050936799
-3.1248643 0.64511901 1.237107
-3.0296681 0.64846236 1.086334
-2.965941 0.65643144 0.96324331
-0.02611593 -0.059798401 0.050936799
-3.0826511 0.64479589 1.3013325
-3.0073681 0.65013844 1.15497
-2.9327791 0.65217751 1.0255666
-2.8709249 0.65400994 0.91040266
-3.0107138 0.63760149 1.3518727
-2.9592843 0.64590299 1.2130129
-2.9016089 0.64993036 1.0879636
-2.8527339 0.65179133 0.97404349
-2.9348528 0.63046503 1.398339
-2.8894145 0.6357705 1.2605375
-2.8694427 0.64667982 1.1503236
-2.8355048 0.64954025 1.0397024
-2.8738832 0.62629157 1.4501395
-2.8453217 0.63354909 1.3186916
-2.8164873 0.63853568 1.2022024
-2.7974453 0.64335918 1.0968975
-2.8278015 0.62608069 1.5072924
-2.8022475 0.63134933 1.3758647
-2.781378 0.63532859 1.2615072
-2.7792313 0.64212245 1.161556
-2.7718418 0.62394291 1.5582232
-2.7582147 0.62818241 1.4310017
-2.747246 0.63310695 1.3218484
-2.7372141 0.63496327 1.2166585
-2.716882 0.62180859 1.6091729
-2.7151589 0.6260007 1.4871752
-2.7181091 0.63190299 1.3823016
-2.7219398 0.63468277 1.2843903
-2.658998 0.61973596 1.6560675
-2.6780345 0.62678587 1.5465144
-2.678057 0.62873232 1.4385134
-2.708657 0.6364091 1.3521959
-2.6060712 0.61864489 1.7050736
-2.6261196 0.6226989 1.5954851
-2.6449394 0.62753212 1.4978917
-2.6686168 0.63023889 1.4083536
-2.5502052 0.61659741 1.751006
-2.5821166 0.62156779 1.6486586
-2.6108408 0.62634641 1.5562518
-2.6463993 0.62998766 1.4729551
-2.5081899 0.61847299 1.8042715
-2.539113 0.62044024 1.7018512
-2.5698075 0.62319022 1.6114451
-2.6182475 0.62776935 1.5344087
-2.4306884 0.61067325 1.8316886
-2.4813342 0.61545849 1.7436936
-2.5347464 0.62203711 1.6677868
-2.5851338 0.62556934 1.5937691
-2.3798141 0.61064345 1.8777511
-2.4462426 0.6172868 1.8010892
-2.4917474 0.61990976 1.7209613
-2.5510244 0.62236589 1.6530926
-2.318121 0.60773748 1.914556
-2.3884599 0.61330485 1.8429494
-2.463542 0.62165463 1.7844863
-2.5257852 0.62308556 1.7186552
-2.2633448 0.60678393 1.9555271
-2.3317142 0.60936284 1.8828292
-2.4018321 0.61371332 1.8232005
-2.4936302 0.62185276 1.7800517
-2.1260715 0.58087194 1.9204763
-2.2916796 0.61122739 1.9371316
-2.3736415 0.61647612 1.8857439
-2.4506388 0.61772579 1.8331902
-1.8701302 0.51661271 1.7674701
-2.2330093 0.60735053 1.9729753
-2.3217824 0.61244351 1.9317156
-2.4243808 0.6184237 1.8997338
-1.8264375 0.51778871 1.8036857
-1.8914486 0.51599574 1.7508526
-2.2729194 0.60942131 1.9777616
-2.3705344 0.61138427 1.945614
-1.9307644 0.56783891 1.9906076
-1.8467679 0.51416874 1.7869952
-1.9223906 0.51505291 1.754416
-2.3245392 0.60824633 1.9987139
-1.9780717 0.60055232 2.1281319
-1.8481879 0.52871156 1.8683124
-1.8580594 0.50646281 1.7730625
-2.2029257 0.58206618 1.9819578
-1.9057674 0.59496921 2.1446829
-2.0072546 0.59582013 2.1195898
-1.8182802 0.50556308 1.8143154
-1.8741971 0.49461275 1.7681488
-1.8452995 0.5922839 2.1695106
-1.9633518 0.59779704 2.1668193
-1.99313 0.57452965 2.0769255
-1.8216312 0.48784828 1.7990526
-1.7877671 0.5915547 2.1974294
-1.9067334 0.59498131 2.1997197
-2.0364013 0.60217535 2.2172832
-1.9514439 0.53850317 2.0134721
-1.7332153 0.59081829 2.2264047
-1.845251 0.5912745 2.2255101
-1.9689316 0.59544748 2.2429073
-2.1025059 0.59754819 2.2664542
-1.6728034 0.58818716 2.2482333
-1.7974693 0.59134597 2.2666309
-1.9161813 0.59251958 2.2828801
-2.0496249 0.59449357 2.3134246
-1.6173079 0.58750141 2.2741909
-1.7369825 0.58864248 2.2924583
-1.8595066 0.58964962 2.3187792
-2.0036218 0.5933553 2.3665609
-1.5666876 0.58972454 2.3062942
-1.6833181 0.58780104 2.3274503
-1.8135295 0.59154701 2.3699703
-1.9516991 0.591268 2.4155676
-1.5063093 0.58812946 2.3261414
-1.6335478 0.58988303 2.3675697
-1.7617526 0.59060419 2.4109976
-1.8968556 0.58824253 2.4605012
-1.4498849 0.5885123 2.3480992
-1.5730987 0.58721584 2.3913977
-1.696316 0.58491951 2.4346776
-1.8468722 0.5871079 2.5125625
-1.384744 0.58411694 2.3558028
-1.516607 0.58552659 2.4173183
-1.6445163 0.58495849 2.4767227
-1.7900852 0.58412933 2.5544596
-1.3225799 0.58071405 2.3645804
-1.4619955 0.58573568 2.4493103
-1.5859357 0.58217186 2.507586
-1.739117 0.58400917 2.6055205
-1.2652947 0.57922012 2.3794861
-1.3987229 0.58122087 2.4640491
-1.5312154 0.58127254 2.5455582
-1.6725682 0.57821238 2.6351795
-1.2118472 0.58059549 2.4025178
-1.3354654 0.57772392 2.4778063
-1.4697101 0.57854754 2.5723665
-1.6234981 0.58000857 2.6913126
-1.1555392 0.58008695 2.4184601
-1.2818455 0.57993627 2.5098531
-1.4101219 0.57775688 2.6032467
-1.558885 0.57616431 2.7240443
-1.0954082 0.57772732 2.4252939
-1.2234294 0.57831222 2.5317376
-1.3524957 0.57693732 2.6361644
-1.4981322 0.57420748 2.763885
-1.0401187 0.57724047 2.4402549
-1.1631073 0.57677144 2.5485857
-1.2919863 0.57521564 2.6630094
-1.4383379 0.57321793 2.8057618
-0.98576492 0.57870257 2.4582698
-1.1057057 0.57616895 2.5695074
-1.2343376 0.57537776 2.6969445
-1.3766415 0.57131177 2.8425846
-0.92864829 0.5773716 2.4641783
-1.0311974 0.56431788 2.5448897
-1.1671636 0.5699392 2.7065918
-1.312987 0.56843489 2.8773525
-0.85827011 0.56566155 2.4326384
-0.9414987 0.54315275 2.4788048
-1.0303359 0.52430296 2.5451496
-1.2492871 0.56752133 2.914156
-0.78330559 0.54931414 2.379921
-0.86247873 0.52673674 2.4290116
-0.93771261 0.5031994 2.4750099
-1.014812 0.47552526 2.5289712
-0.71134061 0.53297764 2.3272605
-0.78361642 0.50846583 2.3711851
-0.85389656 0.48294714 2.4150543
-0.92313248 0.45437101 2.4618495
-0.64240861 0.51768786 2.2726746
-0.71161008 0.49309301 2.3205416
-0.77497423 0.46562177 2.3602445
-0.84119195 0.43701687 2.4079831
-0.57835937 0.50330728 2.2241988
-0.63976133 0.4758651 2.2618647
-0.69918627 0.44743404 2.2984755
-0.75844669 0.41784027 2.3440652
-0.52011001 0.4917669 2.1858866
-0.57469362 0.46146297 2.21437
-0.62920225 0.4310866 2.2468519
-0.68168157 0.39866719 2.28126
-0.46295801 0.47932068 2.1425767
-0.51454598 0.44800615 2.1709857
-0.56597638 0.41854647 2.2074282
-0.61353558 0.38518167 2.2377255
-0.40866661 0.46875831 2.1063571
-0.45731527 0.43648738 2.1316924
-0.50284427 0.40609682 2.1630058
-0.54648685 0.37079036 2.189193
-0.35648713 0.45831159 2.0641768
-0.40194127 0.4278487 2.0994887
-0.44365522 0.39360726 2.1216576
-0.48239627 0.35737348 2.1427348
-0.30795422 0.45155299 2.0401375
-0.34776604 0.41639498 2.0572529
-0.38645795 0.38312453 2.0803833
-0.42500788 0.34770966 2.111475
-0.26488325 0.45232612 2.0433464
-0.2974138 0.40679252 2.0241253
-0.33497083 0.3743917 2.0542524
-0.3668896 0.3362959 2.066165
-0.22583899 0.46622849 2.0958846
-0.25675315 0.41403258 2.0575063
-0.284457 0.36764398 2.0291762
-0.31257939 0.32571539 2.0309448
-0.18667848 0.48102215 2.1544387
-0.2175591 0.42779019 2.1180415
-0.24443257 0.37654358 2.0816054
-0.266442 0.32440576 2.0380597
-0.14433429 0.49964151 2.2220056
-0.17536953 0.44053724 2.178503
-0.20320931 0.38825822 2.144067
-0.2252039 0.33510247 2.1015029
-0.10564402 0.56122118 2.459476
-0.13383181 0.47105813 2.3073208
-0.15798284 0.40095833 2.206471
-0.17987296 0.34569436 2.1698687
-0.052784778 0.56115758 2.4514821
-0.092033289 0.55267686 2.653132
-0.13352057 0.54648286 2.8948786
-0.13344075 0.35819191 2.2432501
-0.0020305626 0.55819213 2.4384739
-0.034081347 0.5525049 2.6500428
-0.068239838 0.54897773 2.9087064
-0.10497986 0.53702855 3.1912739
0.048967957 0.5600087 2.4375517
0.023847945 0.55135113 2.6459363
-0.0024509281 0.54592228 2.8974154
-0.02976891 0.5365423 3.2018604
0.099730037 0.55904293 2.4245796
0.080785275 0.55220068 2.6418841
0.061672352 0.54656577 2.9032285
0.043153707 0.5343349 3.1974535
0.14951099 0.55806267 2.4126256
0.13765858 0.55110484 2.6347971
0.12658164 0.54540497 2.8979905
0.11821488 0.53399336 3.200043
0.20037062 0.55800629 2.4046695
0.19439688 0.54913574 2.6206942
0.19231831 0.54340357 2.8837185
0.19327606 0.53365189 3.2026324
0.24913305 0.55704761 2.3917351
0.25112042 0.54818457 2.6056099
0.25821263 0.54325712 2.87748
0.26896951 0.53065091 3.1861553
-0.02611593 -0.059798401 0.050936799
-0.02611593 -0.059798401 0.050936799
0.32300958 0.54220498 2.8662441
0.34613174 0.53221142 3.1937413
0.18694301 0.2906796 1.3687342
0.14925706 0.2120716 1.1879566
-0.02611593 -0.059798401 0.050936799
-0.02611593 -0.059798401 0.050936799
0.22162046 0.3019405 1.4023
0.42281985 0.55083811 2.5874369
0.45376486 0.5429517 2.8518047
0.49466214 0.52909321 3.1678953
0.26157486 0.31692955 1.4498391
0.2578766 0.28353345 1.472312
0.51646465 0.54099733 2.8355899
0.56836379 0.52809924 3.1514919
0.29034099 0.31604269 1.4372803
0.28648505 0.2807917 1.4517198
0.27696601 0.23917481 1.4321387
0.27172408 0.20128964 1.4265496
0.54057765 0.55644333 2.3062384
0.31840825 0.28174904 1.4471378
0.64274079 0.53921121 2.7961802
0.71568835 0.52518356 3.1146686
0.58611208 0.55471283 2.2813461
0.35354862 0.28549612 1.4535499
0.7074855 0.53921306 2.7819631
0.79153258 0.52705514 3.1052792
0.63386387 0.55577546 2.2674668
0.38537818 0.28654391 1.4439697
0.77121562 0.54023641 2.7667832
0.86625671 0.52703923 3.0898745
0.68057442 0.5558781 2.2515886
0.4151628 0.28563535 1.4323916
0.83172852 0.53847003 2.7406094
0.93673033 0.5252732 3.0615134
0.72618759 0.55507505 2.2307129
0.44808972 0.28758895 1.427809
0.89224535 0.53770345 2.7144535
1.0103837 0.52633303 3.0421472
0.77078617 0.55529338 2.2088745
0.46202883 0.27651393 1.3733293
0.9507212 0.53598052 2.6863179
1.0819212 0.52650875 3.0168023
-0.02611593 -0.059798401 0.050936799
-0.02611593 -0.059798401 0.050936799
-0.02611593 -0.059798401 0.050936799
-0.02611593 -0.059798401 0.050936799
0.39072898 0.22965327 1.0477061
0.39570779 0.20054981 1.0520879
0.5076561 0.2304929 1.3086205
0.51244974 0.19253567 1.3048428
0.52246809 0.30287907 1.2846445
0.53572923 0.26945812 1.3047986
1.1334223 0.53854984 2.6149197
1.2849357 0.52263707 2.9098949
0.95655459 0.56079721 2.1404729
1.0602268 0.54784006 2.3373642
1.1908274 0.53790265 2.5828223
1.358518 0.52476907 2.886548
0.99177951 0.55639243 2.0997198
1.1055512 0.54530865 2.3014574
1.2503108 0.5381757 2.5547042
1.4269251 0.52508223 2.8542621
1.0311987 0.55379194 2.0689242
1.1623132 0.54933846 2.2874629
1.3046601 0.53759354 2.5196643
1.4901417 0.52459431 2.8120553
1.0758613 0.55595577 2.0501208
1.2056192 0.54683238 2.2505944
1.3641703 0.53984809 2.4925816
1.5575153 0.52594703 2.7778068
1.1183854 0.55625367 2.0243213
1.2572058 0.54904336 2.2276604
1.4195383 0.53924429 2.4585226
1.6186162 0.52457505 2.7296216
1.1619507 0.55751163 2.0005205
1.3066576 0.55038834 2.1977491
1.4676377 0.53691912 2.4105637
1.6900532 0.52785885 2.6983328
1.2044973 0.55879128 1.9757385
1.3478892 0.54796171 2.156919
1.5199165 0.53741628 2.3715806
1.752274 0.52837443 2.6561632
1.2429059 0.55821228 1.9439981
1.3994608 0.55119056 2.133004
1.5732139 0.53789181 2.3335786
1.8082823 0.52711082 2.6030738
1.2833928 0.55855352 1.9162369
1.4448307 0.55062258 2.0991328
1.6214147 0.53747588 2.2906539
1.872548 0.52958268 2.5629015
1.3187418 0.55703962 1.881536
1.4799284 0.54734421 2.0514002
1.6747347 0.5389331 2.2536695
1.9203851 0.52751076 2.5009472
1.3582103 0.55740255 1.8527938
1.523265 0.54781944 2.0155854
1.7260138 0.53943384 2.214705
1.9743974 0.52725416 2.4479136
1.3966415 0.5578053 1.8220711
1.5645608 0.54733819 1.9777907
1.7741809 0.5400539 2.1697996
2.0324922 0.52891052 2.3988392
1.4340581 0.55922955 1.7903857
1.6079012 0.54881322 1.9419937
1.8223895 0.54163766 2.1269107
2.0865083 0.52965379 2.3458233
1.4755715 0.56154877 1.7636411
1.6542827 0.55124122 1.9081578
1.8716166 0.54319966 2.0850034
2.1374876 0.53044397 2.2908647
1.5119429 0.5610131 1.7299391
1.6925228 0.55082488 1.8674206
1.916747 0.54386669 2.0381546
2.1894896 0.53221226 2.2369046
1.5432177 0.55958593 1.6913147
1.7287068 0.55047011 1.8237219
1.9608774 0.54453725 1.9913244
2.2445512 0.53491545 2.1859052
1.5775748 0.56007534 1.6566685
1.7720288 0.55196321 1.7869253
1.9978703 0.54335994 1.9375923
2.288378 0.53487557 2.1230626
1.6149726 0.56151766 1.6239834
1.8112952 0.55352503 1.7472049
2.0409677 0.54507017 1.8887999
2.3393655 0.53766549 2.0681398
1.6503108 0.56202155 1.5883188
1.8495245 0.55512649 1.7055039
2.0871243 0.54771513 1.8429681
2.3822153 0.53861099 2.0063338
1.681631 0.56255794 1.5517298
1.8877723 0.55670989 1.6648027
2.1231215 0.54754126 1.7892725
2.4169505 0.5386939 1.9386621
1.7159692 0.56306547 1.5160838
1.9239604 0.55735493 1.621122
2.1652226 0.55025482 1.740517
2.4669232 0.5425052 1.8827764
1.7533336 0.56554377 1.4814174
1.9550707 0.55709052 1.5735186
2.2012234 0.55108076 1.6868398
2.496599 0.54166061 1.8121816
1.7825979 0.56614161 1.4418669
1.9933038 0.55969179 1.5318358
2.2372243 0.55190665 1.6331624
2.5404754 0.54458404 1.7513924
1.8179399 0.56764531 1.4062203
2.0213771 0.55947423 1.4822894
2.2691698 0.55280119 1.5765613
2.5712149 0.54568118 1.6838137
1.846167 0.5682829 1.3646894
2.0565696 0.56112272 1.4386455
2.3041563 0.5546487 1.5219212
2.6100547 0.54865885 1.6211191
1.8744087 0.56790257 1.3241401
2.0846426 0.56090516 1.3890992
2.3351207 0.55552876 1.4663384
2.6296349 0.54694062 1.545696
1.9016173 0.56856185 1.281628
2.11272 0.56168747 1.339571
2.3599927 0.55652076 1.4058703
2.672538 0.55184931 1.4859612
1.9349074 0.57112688 1.2430381
2.1398165 0.56245524 1.291061
2.3960016 0.55934638 1.3522291
2.6932006 0.55205488 1.4145539
1.967194 0.57269561 1.2044488
2.1688976 0.56423378 1.241532
2.4209108 0.56030226 1.2937601
2.7178893 0.55422759 1.344107
1.9933653 0.57339466 1.1599565
2.1959786 0.56601942 1.1920404
2.446805 0.56227237 1.2342908
2.7456188 0.55735326 1.2756213
2.0215962 0.575032 1.1184434
2.2371817 0.57064587 1.1483378
2.4757364 0.56419563 1.1767644
2.7683451 0.55949706 1.2072114
2.0437455 0.57476366 1.0730085
2.2551632 0.57055467 1.0939811
2.4945905 0.56522727 1.1154094
2.7829905 0.55974209 1.1349171
2.0709434 0.57744062 1.029533
2.2822447 0.57234037 1.0444896
2.5154672 0.5672335 1.0550342
2.8057055 0.56390363 1.0655435
2.0900517 0.57621944 0.98213702
2.3022487 0.57322377 0.99111295
2.537358 0.56821817 0.9956221
2.8183551 0.5651558 0.99330491
2.1172495 0.5788964 0.93866152
2.3172116 0.57316136 0.93581295
2.5521758 0.56930035 0.93234277
2.8310421 0.5663718 0.92306554
2.136343 0.57869303 0.89028394
2.3412414 0.57601196 0.88339686
2.5680344 0.57134265 0.87106204
2.8416958 0.56863093 0.85088247
2.1595001 0.58042073 0.84486622
2.3491609 0.57401127 0.82619303
2.5899146 0.57434511 0.81068623
2.8543715 0.57186472 0.77967954
2.177598 0.58122081 0.79652542
2.3711724 0.57688707 0.77281481
2.5957112 0.57447791 0.74655831
2.8620446 0.57411659 0.70855248
2.2017398 0.58396292 0.75010735
2.3891804 0.57877743 0.71949375
2.6125927 0.57749826 0.68627644
2.859689 0.57342285 0.63655961
2.2258821 0.58670491 0.70368922
2.4031477 0.57971853 0.66423059
2.6224148 0.57959825 0.62310922
2.865366 0.57668179 0.56548816
2.247983 0.58849049 0.65529126
2.4161196 0.58166295 0.60900414
2.6352556 0.58166933 0.56088513
2.8620186 0.57799137 0.49355021
2.2590222 0.58837008 0.60406506
2.4351125 0.58456767 0.55468267
2.6350532 0.58182365 0.49687004
2.864711 0.58024305 0.42351675
2.2760677 0.5902279 0.55276215
2.4420214 0.58458829 0.49653396
2.6448793 0.58492339 0.43372071
2.8643706 0.58354157 0.35155839
2.2881291 0.59108567 0.50253487
2.4519563 0.58657968 0.43936467
2.6436999 0.58606303 0.37074208
2.8560612 0.58483297 0.28171366
2.3021717 0.59195441 0.45127025
2.4609096 0.58855665 0.38321373
2.6435013 0.58721715 0.30674499
2.8487747 0.58710241 0.2128678
2.3081932 0.59187007 0.39913833
2.4678597 0.5895409 0.32708237
2.5641494 0.56974846 0.23889166
2.8364661 0.58840811 0.14309824
2.3182173 0.59277123 0.34694928
2.4777985 0.59253222 0.26993108
2.5139129 0.55908406 0.17561787
2.8211915 0.58868861 0.075366333
2.3332634 0.59463614 0.29568392
2.4897556 0.59549814 0.21374178
2.4887741 0.55525637 0.1159991
2.823952 0.59388548 0.0083859432
2.3382699 0.59557337 0.24258913
2.444593 0.58474344 0.15437266
2.4846554 0.55735224 0.056093812
2.4155645 0.50542897 -0.044585984
2.3442764 0.59650695 0.18947557
2.4655452 0.59169459 0.097086713
2.465565 0.5564664 -0.0015843417
1.2526754 0.23868152 -0.029633712
2.3552675 0.59844053 0.13528639
2.4584715 0.59074754 0.040182739
2.4204853 0.54763895 -0.056918759
