# .PCD v0.7 - Point Cloud Data file format
VERSION 0.7
FIELDS x y z
SIZE 4 4 4
TYPE F F F
COUNT 1 1 1
WIDTH 1391
HEIGHT 1
VIEWPOINT 0 0 0 1 0 0 0
POINTS 1391
DATA ascii
3.0769515 -0.17415276 2.3345444
3.1428814 -0.28682178 2.2452419
3.0137 0.044237766 2.4397149
3.072643 -0.065406606 2.3505981
3.1234865 -0.17191426 2.255687
3.1924195 -0.28359419 2.1663461
3.0562575 0.042455155 2.3628597
3.1202259 -0.065225616 2.2746844
3.1751099 -0.17078397 2.1817157
3.2287955 -0.27915734 2.0787153
3.1069293 0.041535102 2.2918704
3.1698685 -0.064106233 2.2017505
3.2237008 -0.16860691 2.1058199
4.6606627 -0.36714518 2.8195667
3.1515276 0.040708926 2.216995
3.2194698 -0.063950509 2.1267993
3.2793646 -0.16652732 2.0337908
4.7356381 -0.36246842 2.7102106
3.1991589 0.038836014 2.1440446
3.2650528 -0.063762337 2.0509236
4.7128096 -0.20895115 2.7434261
4.8005261 -0.35666546 2.5960619
3.2518306 0.03790877 2.0730178
4.697906 -0.064424865 2.7743299
4.7858186 -0.20530321 2.6360888
4.5918703 -0.33534145 2.3462694
4.6759963 0.078126878 2.8053291
4.7618494 -0.06368985 2.6641085
-0.02611593 -0.059798401 0.050936799
4.6609225 -0.33071551 2.2410247
4.7501168 0.076645419 2.7048807
4.8046093 -0.062698588 2.5442853
-0.02611593 -0.059798401 0.050936799
5.0183415 -0.34250152 2.2621267
4.8161421 0.074283332 2.599566
4.7504649 -0.061476249 2.3772645
4.9835815 -0.19603045 2.3004401
5.0942836 -0.33679235 2.1507704
4.6044812 0.065514714 2.3552873
-0.02611593 -0.059798401 0.050936799
5.0696402 -0.19348329 2.1958394
5.1611304 -0.33196026 2.0345669
4.6716261 0.065040141 2.2559881
5.0529418 -0.059183285 2.2395964
5.1395531 -0.19073397 2.0835421
13.631019 -0.75293535 4.9003444
5.0151339 0.070283368 2.2786593
5.1158104 -0.05837233 2.1253951
13.562802 -0.39100003 5.0332136
13.826456 -0.73928583 4.5998302
5.0941973 0.068838269 2.1751177
13.49312 -0.051695347 5.1456938
13.747226 -0.38131028 4.7328339
14.038873 -0.72567916 4.297997
5.1540766 0.067642227 2.0619366
13.682703 -0.049203284 4.8550911
13.940626 -0.37263462 4.4312677
14.2442 -0.71095717 3.9913149
13.587116 0.27003533 4.9766965
13.869235 -0.045646355 4.5615635
14.141081 -0.36403835 4.1325688
14.438325 -0.69599676 3.6738434
13.779792 0.26740891 4.6919456
14.069763 -0.042139668 4.2677732
14.331354 -0.35422546 3.8240793
14.599346 -0.67980945 3.3510122
13.958317 0.26397762 4.3994412
14.257055 -0.037351348 3.9612491
14.544638 -0.34551305 3.5161397
13.648908 -0.61700672 2.7927537
14.144763 0.26059002 4.1027889
14.462434 -0.033717908 3.6593671
14.595084 -0.33236951 3.1643136
12.91021 -0.5657109 2.3273542
14.356196 0.25913045 3.8047028
14.562191 -0.030092426 3.3254519
13.751339 -0.30375576 2.6484535
12.265508 -0.52074283 1.9150985
14.544478 0.25689825 3.4990337
14.1318 -0.026418723 2.882426
13.088939 -0.27912617 2.20315
11.684479 -0.47866988 1.5386103
14.54178 0.25030774 3.1438446
13.411833 -0.024110369 2.411788
12.453297 -0.25633138 1.7983259
11.297482 -0.44735533 1.2173135
13.764239 0.22829521 2.647836
12.756828 -0.022972334 1.9919299
11.905456 -0.23664446 1.4358162
6.1334486 -0.2598038 0.53816044
13.079779 0.20790286 2.2081332
12.164606 -0.020816896 1.6129284
11.384242 -0.21866569 1.1067884
5.9655638 -0.24535543 0.38351268
12.457075 0.19156715 1.8073604
11.624051 -0.018495871 1.2689743
6.0535679 -0.13822018 0.46883187
6.0269732 -0.23707175 0.24346529
11.898189 0.17520925 1.449407
6.1374588 -0.035979278 0.54913783
6.0298729 -0.13152258 0.32434773
6.0843091 -0.22870137 0.099494435
11.404937 0.16100253 1.1242747
5.9785595 -0.034597177 0.39608604
6.0312247 -0.1259688 0.18237475
3.9110613 -0.16215172 -0.011650386
6.0674586 0.055573545 0.47908089
6.0339456 -0.032290954 0.25604331
3.8783152 -0.097999491 0.043141726
3.7414758 -0.15195833 -0.096319601
6.0277305 0.053330097 0.33473516
6.0683179 -0.029891277 0.11539552
6.1978474 -0.11439572 -0.10763383
3.6479285 -0.14309177 -0.17943594
6.0210719 0.050895866 0.19376801
3.9097133 -0.039328281 -0.0003995914
3.6081111 -0.087876685 -0.12667377
3.7172239 -0.13870098 -0.27168518
3.8858917 0.010812141 0.052971497
3.7461059 -0.039172787 -0.08436206
-0.02611593 -0.059798401 0.050936799
3.8433397 -0.13435197 -0.37400243
3.8691976 0.0094944974 -0.036770198
3.6355493 -0.038261946 -0.16630346
4.863862 -0.08755444 -0.41827783
3.8376186 -0.12765618 -0.46680567
3.573662 0.0030525611 -0.11437982
4.1003075 -0.033840321 -0.29096723
3.8059113 -0.077595584 -0.40728626
-0.02611593 -0.059798401 0.050936799
3.4652016 -0.00015163166 -0.19043288
4.0306163 -0.031950168 -0.38065869
1.937921 -0.066432469 -0.23105082
4.0803699 -0.11745571 -0.69724417
3.3957233 -0.001478035 -0.26818243
3.9519789 -0.031081818 -0.46719998
4.2651048 -0.070684999 -0.66884726
-0.02611593 -0.059798401 0.050936799
3.3702555 -0.0029804464 -0.34575906
1.9405911 -0.045048852 -0.25272134
3.4450014 -0.064444646 -0.61436135
3.8894596 -0.10088896 -0.85342312
1.9341873 -0.027533285 -0.22427496
4.2185602 -0.024822086 -0.70615882
3.5111475 -0.059898388 -0.71455151
3.6955676 -0.092274942 -0.90065312
3.8338795 0.0034997473 -0.58440304
3.4404244 -0.029748689 -0.65166068
3.3562057 -0.057405233 -0.76362216
3.7395983 -0.084523611 -1.0073735
3.5291171 -0.0026481235 -0.62082058
3.4966013 -0.027202375 -0.74969971
3.4581389 -0.052789196 -0.875485
2.6031981 -0.072627366 -0.7537958
3.499594 -0.0040819086 -0.70132107
3.4621284 -0.025654905 -0.82805282
2.6577237 -0.051259045 -0.73042226
2.4777162 -0.0666731 -0.77934742
3.4591329 -0.0045306571 -0.77859783
3.6913416 -0.021828786 -0.97932637
2.5530579 -0.048216842 -0.76541948
2.4169004 -0.06164445 -0.82313269
3.4863596 -0.004934025 -0.87314701
2.6045084 -0.031782638 -0.74507856
2.4126945 -0.046334691 -0.78376365
-0.02611593 -0.059798401 0.050936799
2.6570034 -0.01840578 -0.72181153
2.4810028 -0.031834543 -0.77077579
-0.02611593 -0.059798401 0.050936799
0.18431003 -0.059075948 -0.035019007
2.5463374 -0.020359281 -0.75578642
2.4291136 -0.03078323 -0.8178013
-0.02611593 -0.059798401 0.050936799
-0.02611593 -0.059798401 0.050936799
2.4178588 -0.023428906 -0.77944452
-0.02611593 -0.059798401 0.050936799
0.17931487 -0.058058172 -0.034907036
0.15929589 -0.058968134 -0.035548896
-0.02611593 -0.059798401 0.050936799
0.18729861 -0.057068963 -0.036038991
-0.02611593 -0.059798401 0.050936799
-0.02611593 -0.059798401 0.050936799
-0.02611593 -0.059798401 0.050936799
-0.02611593 -0.059798401 0.050936799
0.15231982 -0.057961274 -0.034399692
0.13830364 -0.057892937 -0.035136275
0.17831898 -0.057054754 -0.034870226
0.16526519 -0.056953833 -0.037624933
-0.02611593 -0.059798401 0.050936799
-0.02611593 -0.059798401 0.050936799
-0.02611593 -0.059798401 0.050936799
-0.02611593 -0.059798401 0.050936799
0.12836164 -0.057911314 -0.031949393
0.12228785 -0.057817429 -0.035835292
0.15728144 -0.057943039 -0.036492962
0.14424638 -0.057860203 -0.03824801
-0.02611593 -0.059798401 0.050936799
-0.02611593 -0.059798401 0.050936799
-0.02611593 -0.059798401 0.050936799
-0.02611593 -0.059798401 0.050936799
0.11532658 -0.057828482 -0.033704441
0.1053284 -0.057792593 -0.033516534
0.13330455 -0.057874992 -0.035042323
0.12328766 -0.057821013 -0.035854083
-0.02611593 -0.059798401 0.050936799
-0.02611593 -0.059798401 0.050936799
-0.02611593 -0.059798401 0.050936799
-0.02611593 -0.059798401 0.050936799
0.097367309 -0.057800062 -0.031366885
0.090353802 -0.056757018 -0.032216992
0.11630766 -0.05781398 -0.034722883
0.1092715 -0.057752684 -0.036590684
-0.02611593 -0.059798401 0.050936799
-0.02611593 -0.059798401 0.050936799
-0.02611593 -0.059798401 0.050936799
-0.02611593 -0.059798401 0.050936799
0.088354155 -0.056749839 -0.032179412
0.080336906 -0.056703039 -0.033028752
0.1023063 -0.058763567 -0.034477834
0.097254977 -0.057691526 -0.037364855
-0.02611593 -0.059798401 0.050936799
-0.02611593 -0.059798401 0.050936799
-0.02611593 -0.059798401 0.050936799
-0.02611593 -0.059798401 0.050936799
0.077337451 -0.056692272 -0.032972381
0.072319642 -0.056656238 -0.033878081
0.09325178 -0.058676999 -0.037307713
0.082295157 -0.057673872 -0.03508367
-0.02611593 -0.059798401 0.050936799
-0.02611593 -0.059798401 0.050936799
-0.02611593 -0.059798401 0.050936799
-0.02611593 -0.059798401 0.050936799
0.072282195 -0.056620061 -0.035877414
0.062344134 -0.055638611 -0.032672506
0.076329783 -0.058688346 -0.032989629
0.074259192 -0.057608981 -0.036932673
-0.02611593 -0.059798401 0.050936799
-0.02611593 -0.059798401 0.050936799
-0.02611593 -0.059798401 0.050936799
-0.02611593 -0.059798401 0.050936799
0.060340565 -0.05663126 -0.032652941
0.055326689 -0.055595402 -0.033540625
0.071255811 -0.058598045 -0.036894321
0.065260842 -0.057576679 -0.036763556
-0.02611593 -0.059798401 0.050936799
-0.02611593 -0.059798401 0.050936799
-0.02611593 -0.059798401 0.050936799
-0.02611593 -0.059798401 0.050936799
0.050361115 -0.056613464 -0.03146537
0.046365783 -0.05559928 -0.031372193
0.059314165 -0.058609243 -0.033669841
0.059224479 -0.05751897 -0.038650133
-0.02611593 -0.059798401 0.050936799
-0.02611593 -0.059798401 0.050936799
-0.02611593 -0.059798401 0.050936799
-0.02611593 -0.059798401 0.050936799
0.04632441 -0.056562927 -0.033389527
0.042310346 -0.055530652 -0.034296013
0.055240009 -0.058522534 -0.037593331
0.050244853 -0.057504758 -0.03748136
-0.02611593 -0.059798401 0.050936799
-0.02611593 -0.059798401 0.050936799
-0.02611593 -0.059798401 0.050936799
-0.02611593 -0.059798401 0.050936799
0.039306961 -0.056519717 -0.034257658
0.037277739 -0.054476701 -0.036183368
0.044316914 -0.058555409 -0.033387981
0.0451896 -0.057432547 -0.040386394
-0.02611593 -0.059798401 0.050936799
-0.02611593 -0.059798401 0.050936799
-0.02611593 -0.059798401 0.050936799
-0.02611593 -0.059798401 0.050936799
0.035251528 -0.056451093 -0.037181482
0.029335368 -0.054502256 -0.033034053
0.040242758 -0.058468699 -0.037311472
0.03720979 -0.057421923 -0.039236408
-0.02611593 -0.059798401 0.050936799
-0.02611593 -0.059798401 0.050936799
-0.02611593 -0.059798401 0.050936799
-0.02611593 -0.059798401 0.050936799
0.027327878 -0.056494739 -0.033032507
-0.02611593 -0.059798401 0.050936799
0.031300571 -0.058490664 -0.034143373
0.029267419 -0.057447478 -0.036087099
-0.02611593 -0.059798401 0.050936799
-0.02611593 -0.059798401 0.050936799
-0.02611593 -0.059798401 0.050936799
-0.02611593 -0.059798401 0.050936799
-0.02611593 -0.059798401 0.050936799
-0.02611593 -0.059798401 0.050936799
0.027263856 -0.058440134 -0.036067538
0.025211984 -0.057378858 -0.039010923
-0.02611593 -0.059798401 0.050936799
-0.02611593 -0.059798401 0.050936799
-0.02611593 -0.059798401 0.050936799
-0.02611593 -0.059798401 0.050936799
0.019239657 -0.055375755 -0.037862476
-0.02611593 -0.059798401 0.050936799
-0.02611593 -0.059798401 0.050936799
-0.02611593 -0.059798401 0.050936799
-0.02611593 -0.059798401 0.050936799
-0.02611593 -0.059798401 0.050936799
-0.02611593 -0.059798401 0.050936799
-0.02611593 -0.059798401 0.050936799
0.015202948 -0.055325221 -0.039786641
-0.02611593 -0.059798401 0.050936799
-0.02611593 -0.059798401 0.050936799
-0.02611593 -0.059798401 0.050936799
-0.02611593 -0.059798401 0.050936799
-0.02611593 -0.059798401 0.050936799
-0.02611593 -0.059798401 0.050936799
-0.02611593 -0.059798401 0.050936799
-0.02611593 -0.059798401 0.050936799
-0.02611593 -0.059798401 0.050936799
-0.02611593 -0.059798401 0.050936799
0.011158378 -0.057274345 -0.041746832
-0.02611593 -0.059798401 0.050936799
-0.02611593 -0.059798401 0.050936799
-0.02611593 -0.059798401 0.050936799
-0.02611593 -0.059798401 0.050936799
-0.02611593 -0.059798401 0.050936799
-0.02611593 -0.059798401 0.050936799
-0.02611593 -0.059798401 0.050936799
-0.02611593 -0.059798401 0.050936799
-0.02611593 -0.059798401 0.050936799
-0.02611593 -0.059798401 0.050936799
-0.02611593 -0.059798401 0.050936799
-0.02611593 -0.059798401 0.050936799
-0.02611593 -0.059798401 0.050936799
-0.02611593 -0.059798401 0.050936799
-0.02611593 -0.059798401 0.050936799
-0.02611593 -0.059798401 0.050936799
-0.02611593 -0.059798401 0.050936799
-0.02611593 -0.059798401 0.050936799
-0.02611593 -0.059798401 0.050936799
-0.02611593 -0.059798401 0.050936799
-0.02611593 -0.059798401 0.050936799
-0.02611593 -0.059798401 0.050936799
-0.02611593 -0.059798401 0.050936799
-0.02611593 -0.059798401 0.050936799
-0.02611593 -0.059798401 0.050936799
-0.02611593 -0.059798401 0.050936799
-0.02611593 -0.059798401 0.050936799
-0.02611593 -0.059798401 0.050936799
-0.02611593 -0.059798401 0.050936799
-0.02611593 -0.059798401 0.050936799
-0.02611593 -0.059798401 0.050936799
-0.02611593 -0.059798401 0.050936799
-0.02611593 -0.059798401 0.050936799
-0.02611593 -0.059798401 0.050936799
-0.02611593 -0.059798401 0.050936799
-0.02611593 -0.059798401 0.050936799
-0.02611593 -0.059798401 0.050936799
-0.02611593 -0.059798401 0.050936799
-0.02611593 -0.059798401 0.050936799
-0.02611593 -0.059798401 0.050936799
-0.02611593 -0.059798401 0.050936799
-0.02611593 -0.059798401 0.050936799
-0.02611593 -0.059798401 0.050936799
-0.02611593 -0.059798401 0.050936799
-0.02611593 -0.059798401 0.050936799
-0.02611593 -0.059798401 0.050936799
-0.02611593 -0.059798401 0.050936799
-0.02611593 -0.059798401 0.050936799
-0.02611593 -0.059798401 0.050936799
-0.02611593 -0.059798401 0.050936799
-0.02611593 -0.059798401 0.050936799
-0.02611593 -0.059798401 0.050936799
-0.02611593 -0.059798401 0.050936799
-0.02611593 -0.059798401 0.050936799
-0.02611593 -0.059798401 0.050936799
-0.02611593 -0.059798401 0.050936799
-0.02611593 -0.059798401 0.050936799
-0.02611593 -0.059798401 0.050936799
-0.02611593 -0.059798401 0.050936799
-0.02611593 -0.059798401 0.050936799
-0.02611593 -0.059798401 0.050936799
-0.02611593 -0.059798401 0.050936799
-0.02611593 -0.059798401 0.050936799
-0.02611593 -0.059798401 0.050936799
-0.02611593 -0.059798401 0.050936799
-0.02611593 -0.059798401 0.050936799
-0.02611593 -0.059798401 0.050936799
-0.02611593 -0.059798401 0.050936799
-0.02611593 -0.059798401 0.050936799
-0.02611593 -0.059798401 0.050936799
-0.02611593 -0.059798401 0.050936799
-0.02611593 -0.059798401 0.050936799
-0.02611593 -0.059798401 0.050936799
-0.02611593 -0.059798401 0.050936799
-0.02611593 -0.059798401 0.050936799
-0.02611593 -0.059798401 0.050936799
-0.02611593 -0.059798401 0.050936799
-0.02611593 -0.059798401 0.050936799
-0.02611593 -0.059798401 0.050936799
-0.02611593 -0.059798401 0.050936799
-0.02611593 -0.059798401 0.050936799
-0.02611593 -0.059798401 0.050936799
-0.02611593 -0.059798401 0.050936799
-0.02611593 -0.059798401 0.050936799
-0.02611593 -0.059798401 0.050936799
-0.02611593 -0.059798401 0.050936799
-0.02611593 -0.059798401 0.050936799
-0.02611593 -0.059798401 0.050936799
-0.02611593 -0.059798401 0.050936799
-0.02611593 -0.059798401 0.050936799
-0.02611593 -0.059798401 0.050936799
-0.02611593 -0.059798401 0.050936799
-0.02611593 -0.059798401 0.050936799
-0.02611593 -0.059798401 0.050936799
-0.02611593 -0.059798401 0.050936799
-0.02611593 -0.059798401 0.050936799
-0.02611593 -0.059798401 0.050936799
-0.02611593 -0.059798401 0.050936799
-0.02611593 -0.059798401 0.050936799
-0.02611593 -0.059798401 0.050936799
-0.02611593 -0.059798401 0.050936799
-0.02611593 -0.059798401 0.050936799
-0.02611593 -0.059798401 0.050936799
-0.02611593 -0.059798401 0.050936799
-0.02611593 -0.059798401 0.050936799
-0.02611593 -0.059798401 0.050936799
-0.02611593 -0.059798401 0.050936799
-0.02611593 -0.059798401 0.050936799
-0.02611593 -0.059798401 0.050936799
-0.02611593 -0.059798401 0.050936799
-0.02611593 -0.059798401 0.050936799
-0.02611593 -0.059798401 0.050936799
-0.02611593 -0.059798401 0.050936799
-0.02611593 -0.059798401 0.050936799
-0.02611593 -0.059798401 0.050936799
-0.02611593 -0.059798401 0.050936799
-0.02611593 -0.059798401 0.050936799
-0.02611593 -0.059798401 0.050936799
-0.02611593 -0.059798401 0.050936799
-0.02611593 -0.059798401 0.050936799
-0.02611593 -0.059798401 0.050936799
-0.02611593 -0.059798401 0.050936799
-0.02611593 -0.059798401 0.050936799
-0.02611593 -0.059798401 0.050936799
-0.02611593 -0.059798401 0.050936799
-0.02611593 -0.059798401 0.050936799
-0.02611593 -0.059798401 0.050936799
-0.02611593 -0.059798401 0.050936799
-0.02611593 -0.059798401 0.050936799
-0.02611593 -0.059798401 0.050936799
-0.02611593 -0.059798401 0.050936799
-0.02611593 -0.059798401 0.050936799
-0.02611593 -0.059798401 0.050936799
-0.02611593 -0.059798401 0.050936799
-0.02611593 -0.059798401 0.050936799
-0.02611593 -0.059798401 0.050936799
-0.02611593 -0.059798401 0.050936799
-0.02611593 -0.059798401 0.050936799
-0.02611593 -0.059798401 0.050936799
-0.02611593 -0.059798401 0.050936799
-0.02611593 -0.059798401 0.050936799
-0.067754373 -0.048028529 -0.038100895
-0.0707931 -0.058016062 -0.038224708
-0.02611593 -0.059798401 0.050936799
-0.02611593 -0.059798401 0.050936799
-0.02611593 -0.059798401 0.050936799
-0.02611593 -0.059798401 0.050936799
-0.02611593 -0.059798401 0.050936799
-0.02611593 -0.059798401 0.050936799
-0.071716197 -0.048050355 -0.036026407
-0.075769536 -0.057016376 -0.037113078
-0.07473921 -0.054038569 -0.036078148
-0.02611593 -0.059798401 0.050936799
-0.02611593 -0.059798401 0.050936799
-0.02611593 -0.059798401 0.050936799
-0.02611593 -0.059798401 0.050936799
-0.076708339 -0.051049985 -0.03498685
-0.076715276 -0.04803241 -0.035932455
-0.079731353 -0.057038199 -0.03503859
-0.080756836 -0.053998943 -0.036965068
-0.02611593 -0.059798401 0.050936799
-0.02611593 -0.059798401 0.050936799
-0.02611593 -0.059798401 0.050936799
-0.02611593 -0.059798401 0.050936799
-0.02611593 -0.059798401 0.050936799
-0.0806771 -0.048054229 -0.033857971
-0.08776734 -0.056973308 -0.03688759
-0.086755738 -0.053977411 -0.036852326
-0.02611593 -0.059798401 0.050936799
-0.02611593 -0.059798401 0.050936799
-0.02611593 -0.059798401 0.050936799
-0.02611593 -0.059798401 0.050936799
-0.08872094 -0.049989 -0.035743006
-0.087709337 -0.046993099 -0.035707738
-0.091710433 -0.057013221 -0.033813443
-0.093769252 -0.052934367 -0.037702434
-0.02611593 -0.059798401 0.050936799
-0.02611593 -0.059798401 0.050936799
-0.02611593 -0.059798401 0.050936799
-0.02611593 -0.059798401 0.050936799
-0.090645693 -0.050054178 -0.03170678
-0.091671161 -0.047014922 -0.033633258
-0.098709151 -0.056988098 -0.03368191
-0.098730892 -0.052952603 -0.035609156
-0.02611593 -0.059798401 0.050936799
-0.02611593 -0.059798401 0.050936799
-0.02611593 -0.059798401 0.050936799
-0.02611593 -0.059798401 0.050936799
-0.096625865 -0.050050732 -0.030594371
-0.098684676 -0.045971878 -0.034483366
-0.10468541 -0.055984825 -0.032551486
-0.10776276 -0.051884294 -0.037421346
-0.02611593 -0.059798401 0.050936799
-0.02611593 -0.059798401 0.050936799
-0.02611593 -0.059798401 0.050936799
-0.02611593 -0.059798401 0.050936799
-0.10667628 -0.048960749 -0.033387437
-0.10262778 -0.046011791 -0.031409215
-0.1086098 -0.056042824 -0.028477672
-0.11677984 -0.051833902 -0.038251892
-0.02611593 -0.059798401 0.050936799
-0.02611593 -0.059798401 0.050936799
-0.02611593 -0.059798401 0.050936799
-0.02611593 -0.059798401 0.050936799
-0.11061938 -0.049000658 -0.030313283
-0.10962258 -0.044986844 -0.031259667
-0.1186454 -0.055970754 -0.030289087
-0.12273737 -0.050848719 -0.036121808
-0.02611593 -0.059798401 0.050936799
-0.02611593 -0.059798401 0.050936799
-0.02611593 -0.059798401 0.050936799
-0.02611593 -0.059798401 0.050936799
-0.11354394 -0.049062248 -0.026258275
-0.11660257 -0.044979807 -0.030128468
-0.13167655 -0.054888096 -0.032026127
-0.1286801 -0.050881449 -0.03301008
-0.02611593 -0.059798401 0.050936799
-0.02611593 -0.059798401 0.050936799
-0.02611593 -0.059798401 0.050936799
-0.02611593 -0.059798401 0.050936799
-0.12457544 -0.047986764 -0.028032877
-0.1246159 -0.043933176 -0.030959789
-0.14065617 -0.054873884 -0.030857347
-0.13765581 -0.04986741 -0.031823292
-0.02611593 -0.059798401 0.050936799
-0.02611593 -0.059798401 0.050936799
-0.02611593 -0.059798401 0.050936799
-0.02611593 -0.059798401 0.050936799
-0.13558821 -0.046929367 -0.02880783
-0.13562869 -0.042875782 -0.031734742
-0.14759479 -0.0539032 -0.027708806
-0.15067215 -0.049802665 -0.032578673
-0.02611593 -0.059798401 0.050936799
-0.02611593 -0.059798401 0.050936799
-0.02611593 -0.059798401 0.050936799
-0.02611593 -0.059798401 0.050936799
-0.14860064 -0.045864791 -0.029545184
-0.14053021 -0.041948453 -0.02662446
-0.1646252 -0.052806176 -0.029370666
-0.16164748 -0.048781447 -0.031354301
-0.02611593 -0.059798401 0.050936799
-0.02611593 -0.059798401 0.050936799
-0.02611593 -0.059798401 0.050936799
-0.02611593 -0.059798401 0.050936799
-0.16260894 -0.0437968 -0.030245751
-0.15356137 -0.040865786 -0.028361488
-0.17254883 -0.052849822 -0.025221705
-0.17765936 -0.047706105 -0.032035291
-0.02611593 -0.059798401 0.050936799
-0.02611593 -0.059798401 0.050936799
-0.02611593 -0.059798401 0.050936799
-0.02611593 -0.059798401 0.050936799
-0.17558393 -0.0427684 -0.028983787
-0.16755487 -0.039815709 -0.028080404
-0.19961488 -0.051680736 -0.02869498
-0.19866639 -0.045612987 -0.032604311
-0.02611593 -0.059798401 0.050936799
-0.02611593 -0.059798401 0.050936799
-0.02611593 -0.059798401 0.050936799
-0.02611593 -0.059798401 0.050936799
-0.18654051 -0.041765273 -0.026759751
-0.18759559 -0.036690176 -0.03064952
-0.22362134 -0.049576849 -0.029207639
-0.21965861 -0.044537794 -0.032191694
-0.02611593 -0.059798401 0.050936799
-0.02611593 -0.059798401 0.050936799
-0.02611593 -0.059798401 0.050936799
-0.02611593 -0.059798401 0.050936799
-0.21659814 -0.03858576 -0.030140635
-0.20355131 -0.035669103 -0.028331522
-0.25059375 -0.048498213 -0.027682606
-0.2506786 -0.04139087 -0.033554453
-0.02611593 -0.059798401 0.050936799
-0.02611593 -0.059798401 0.050936799
-0.02611593 -0.059798401 0.050936799
-0.02611593 -0.059798401 0.050936799
-0.24258554 -0.036492787 -0.029616043
-0.23159055 -0.032514855 -0.030750323
-1.0196935 -0.0055259722 -0.24657989
-0.25247228 -0.04158267 -0.022520598
-0.02611593 -0.059798401 0.050936799
-0.02611593 -0.059798401 0.050936799
-1.0202214 -0.0049747825 -0.22155152
-0.02611593 -0.059798401 0.050936799
-0.25848505 -0.035525978 -0.024299063
-0.25653675 -0.029461818 -0.02822718
-1.0458717 -0.0032074125 -0.20303303
-1.0070693 0.019920042 -0.21834636
-0.02611593 -0.059798401 0.050936799
-0.02611593 -0.059798401 0.050936799
-1.0413817 -0.0026922566 -0.17709899
-1.014652 0.020550625 -0.19618548
-0.98585564 0.041714311 -0.21134694
-0.96308482 0.060917966 -0.22743136
-1.0539596 -0.0010438985 -0.15482613
-1.0212163 0.02115953 -0.17304373
-0.99949348 0.042420696 -0.1920723
-0.97472304 0.061617166 -0.20819429
-1.0574868 -0.00048193871 -0.12974143
-1.0318171 0.021818969 -0.15182614
-1.0100944 0.043080132 -0.17085469
-0.98534656 0.061294861 -0.18799438
-1.0580333 8.7343622e-05 -0.10571276
-1.0544267 0.024539225 -0.13134667
-1.0267129 0.043779194 -0.15052402
-0.99295193 0.060943704 -0.16685116
-1.0665746 0.0016851637 -0.081515744
-1.0489594 0.024069054 -0.1064491
-1.0332956 0.044406187 -0.12838192
-1.0075707 0.061635584 -0.14655806
-1.0701206 0.0022652165 -0.057430692
-1.0545238 0.024674369 -0.083326139
-1.0358645 0.044000909 -0.10533334
-1.0312214 0.063395768 -0.12807715
-1.0966918 0.0049636466 -0.034876756
-1.0670869 0.025304807 -0.060071632
-1.0534642 0.044685461 -0.083984219
-1.0408264 0.06305179 -0.10689637
-1.1122507 0.0066046785 -0.011547863
-1.089663 0.026989048 -0.037610859
-1.0560292 0.04528001 -0.060917616
-1.0413957 0.062639333 -0.083885372
-1.11076 0.0071306047 0.014442552
-1.1042218 0.028626492 -0.014300771
-1.0806048 0.046971444 -0.038419276
-1.060995 0.063331075 -0.062498666
-1.1342945 0.0097820861 0.038939442
-1.1317743 0.031310428 0.0092716217
-1.0961634 0.048612468 -0.015090384
-1.0765762 0.063990369 -0.040187441
-0.02611593 -0.059798401 0.050936799
-1.1343017 0.031868793 0.034337547
-1.1157212 0.050267853 0.0083136782
-1.0961528 0.065663844 -0.017783053
-1.1523204 0.012927055 0.090351254
-1.1547992 0.034473341 0.060777389
-1.131265 0.050890978 0.0326242
-1.1076974 0.066272601 0.006452322
-1.1568248 0.014474346 0.11647244
-1.1713202 0.03608178 0.086124398
-1.1447865 0.052488659 0.057914831
-1.1262593 0.066924572 0.029819567
-1.1792846 0.01704989 0.14494918
-1.1678339 0.035600699 0.11205921
-1.1603304 0.053111766 0.082225367
-1.1417844 0.067529611 0.055129763
-1.2077206 0.020628707 0.17455634
-1.1763189 0.037144255 0.1392552
-1.1788136 0.054691218 0.10960928
-1.1513294 0.068131186 0.079327546
-0.02611593 -0.059798401 0.050936799
-1.2037778 0.039737746 0.16782592
-1.1902978 0.056245536 0.13686164
-1.1658359 0.068714537 0.10561861
-1.2176359 0.023636425 0.23181581
-1.2062452 0.041241672 0.19590883
-1.1868117 0.055764455 0.16279647
-1.1773242 0.069269024 0.13285297
-1.2200991 0.026140191 0.25991672
-1.2127159 0.041760139 0.2240489
-1.2132332 0.058318168 0.19334769
-1.1898123 0.069827117 0.16010612
-0.02611593 -0.059798401 0.050936799
-1.2281394 0.044274375 0.25439343
-1.2217035 0.05884381 0.22152534
-1.1973054 0.069367416 0.18724729
-0.02611593 -0.059798401 0.050936799
-1.2624807 0.047784276 0.28911167
-1.2132033 0.057326857 0.24834783
-1.2017802 0.068878874 0.21533176
-1.2871523 0.035558961 0.36237729
-1.2907857 0.051236477 0.32571644
-1.235607 0.059848137 0.27982357
-1.2232065 0.070414804 0.24577102
-0.02611593 -0.059798401 0.050936799
-0.02611593 -0.059798401 0.050936799
-1.277868 0.064314224 0.31870878
-0.02611593 -0.059798401 0.050936799
-3.1275258 0.18385093 0.97072262
-1.3632537 0.060071312 0.40626037
-1.3330479 0.069754429 0.36185494
-0.02611593 -0.059798401 0.050936799
-3.0793617 0.18556021 1.0318726
-3.1406739 0.22218056 0.95565706
-1.3135498 0.068198018 0.38847071
-0.02611593 -0.059798401 0.050936799
-3.1365106 0.19503354 1.1291468
-3.080569 0.2188838 1.014492
-6.2355957 0.56063896 1.830021
-1.3175848 0.078283027 0.38472748
-3.2144227 0.20636484 1.2388477
-3.1317828 0.22639021 1.1086186
-3.0896447 0.24709226 1.005169
-1.3368803 0.079685174 0.42212677
-3.277379 0.21667862 1.3462493
-3.1938558 0.23580909 1.2099855
-3.1170323 0.24965808 1.0907573
-3.0977409 0.26528069 0.99664676
-3.3511343 0.2298505 1.4639084
-3.265758 0.24510114 1.3205372
-3.1860516 0.258048 1.1952366
-3.1101956 0.2658473 1.0789181
-3.433701 0.24287379 1.5917332
-3.3355634 0.25529531 1.4360678
-3.2569582 0.26633659 1.3057516
-3.1752646 0.27125958 1.1812689
-3.50227 0.25584683 1.7192949
-3.4201336 0.26732594 1.5639122
-3.3257899 0.27454564 1.4202275
-3.2541175 0.27852276 1.2949152
-4.7206001 0.37674692 2.4355352
-3.4926867 0.27929541 1.6925306
-3.4094057 0.28460923 1.5460178
-3.3229764 0.28475025 1.4083555
-4.6121373 0.37593371 2.5125158
-4.7468109 0.4081606 2.4185882
-3.4859476 0.2945753 1.6756752
-3.4065995 0.29281414 1.5341096
-4.6283598 0.38837638 2.6580939
-4.6185436 0.40143937 2.486088
-4.7768168 0.42935506 2.4145322
-3.4871113 0.30075875 1.6658053
-4.699935 0.40542233 2.8378031
-4.6110601 0.40705043 2.6170938
-4.6435843 0.41863477 2.4808662
-4.7760448 0.433586 2.4015899
-4.5914826 0.40662688 2.91382
-3.4465683 0.29435027 2.0680668
-4.5905528 0.41648 2.588871
-4.6576486 0.42075697 2.4771667
-3.196213 0.27203098 2.1420007
-3.5344889 0.30877969 2.2300286
-3.4378347 0.29858863 2.0529747
-4.5887709 0.41367233 2.5777829
-4.3677592 0.40617412 3.0566716
-3.2973001 0.28959805 2.1882269
-3.5445838 0.31292343 2.2242906
-3.4459052 0.29467228 2.0500541
-2.6191962 0.2255175 1.9332852
-3.4433734 0.31146011 2.3944271
-3.3429348 0.29443672 2.207175
-4.6260171 0.41730794 2.8836498
-2.7781582 0.25133505 2.1448002
-2.6283739 0.22773033 1.9234937
-4.3991079 0.41164634 3.0373511
-3.3253036 0.28268164 2.1896262
-4.0509505 0.40834132 3.255847
-4.1743817 0.40717259 3.1811113
-2.6364069 0.22377783 1.9225725
-4.3982911 0.3937543 3.0310099
-3.9526083 0.40969026 3.3260541
-4.0671549 0.40358049 3.2460608
-4.1686692 0.39638805 3.167805
-2.6276095 0.21089245 1.9141718
-2.3671291 0.22763819 2.0936587
-3.9589422 0.40100276 3.31001
-4.0683217 0.38969499 3.2398295
-4.1746836 0.37334111 3.1715019
-1.8827523 0.1749817 1.7465197
-2.3811502 0.22168943 2.0938137
-3.9650269 0.38404527 3.3088167
-4.0693674 0.36364874 3.2423787
-1.8380785 0.17617223 1.7817168
-1.8908157 0.16804779 1.7445446
-2.3782766 0.20875323 2.0895243
-3.9670691 0.35398519 3.3123124
-1.8944881 0.19195701 1.9171042
-1.842188 0.16726048 1.777631
-1.8889233 0.1550971 1.7412738
-2.3802607 0.18867335 2.0941999
-2.0576243 0.22201385 2.1717887
-1.8878064 0.17818752 1.9027252
-1.8412619 0.15327737 1.7763604
-1.8879381 0.13704228 1.7439296
-2.2517314 0.25922537 2.4802005
-2.0587993 0.20612866 2.1655211
-1.8937331 0.16308495 1.9095653
-1.8393033 0.13323741 1.7779617
-3.2831166 0.42308342 3.7689118
-2.2538843 0.2393083 2.4758792
-2.0735304 0.18785995 2.1834724
-1.9241281 0.14354825 1.9457933
-3.1870546 0.42471087 3.8241613
-3.2853017 0.39015049 3.7653556
-2.2479646 0.21427292 2.4763157
-2.0920596 0.16338956 2.213387
-3.0987551 0.42914948 3.8916113
-3.189177 0.38870609 3.8245497
-3.2783852 0.35005978 3.768502
-3.3626406 0.30441484 3.7112343
-3.0056741 0.43076968 3.947917
-3.0949919 0.38821441 3.8867986
-3.1831975 0.34554717 3.8316598
-3.2624841 0.29690287 3.7732444
-2.9125707 0.43337142 4.0052404
-3.0038064 0.38773355 3.9491036
-3.0889864 0.34201986 3.8958538
-3.1672478 0.29033625 3.8393648
-2.8253272 0.43786794 4.0697103
-2.9116392 0.38726726 4.0103903
-2.9899302 0.33761948 3.9519384
-3.0739923 0.28375882 3.9065225
-2.7361629 0.44142973 4.1301255
-2.8175292 0.38684797 4.0686407
-2.8996773 0.33507019 4.0182252
-2.9758315 0.27725381 3.9685881
-2.6420932 0.44506407 4.1854486
-2.7292788 0.38832319 4.134037
-2.8035233 0.33158997 4.0793824
-2.8776894 0.27076697 4.029654
-2.5519102 0.44860411 4.2468452
-2.6351271 0.38886759 4.1943049
-2.7073834 0.32912767 4.1395588
-2.7785473 0.26427644 4.0907011
-2.4607613 0.45317668 4.3062415
-2.539036 0.38845921 4.2515178
-2.6141686 0.3266038 4.2037897
-2.6833444 0.25874591 4.1548405
-2.3657475 0.45686164 4.3585467
-2.4497857 0.38993093 4.3168955
-2.5199497 0.32507613 4.2680197
-2.5861795 0.25324434 4.2169428
-2.2784815 0.46233988 4.4240346
-2.3547094 0.390544 4.3731456
-2.4229081 0.32170087 4.3231597
-2.4919205 0.24766314 4.2840996
-2.1873324 0.46691242 4.4834304
-2.2576892 0.39120436 4.4263592
-2.3306332 0.32012612 4.3904266
-2.3937702 0.24317589 4.3452015
-2.0942438 0.47053227 4.5397725
-2.168323 0.39356723 4.4977527
-2.2354331 0.31861296 4.4536386
-2.292681 0.23773238 4.4032302
-2.0010908 0.47609746 4.5991492
-2.0702431 0.3951695 4.5539646
-2.1352906 0.31713614 4.5137572
-2.1973393 0.23407483 4.4744034
-1.0328876 0.22973666 2.5188601
-1.9750876 0.3967101 4.6142316
-2.0429177 0.3164708 4.58604
-2.0990398 0.22944286 4.5435023
-0.94988525 0.22335891 2.4661729
-1.008316 0.1838899 2.5045662
-1.0628867 0.14253348 2.5358503
-1.9969651 0.22501367 4.6005301
-0.87090486 0.21601379 2.4125431
-0.92247206 0.17564645 2.4437892
-0.97298324 0.13522124 2.4780149
-1.0254201 0.089713641 2.5171869
-0.79682606 0.20959599 2.3640237
-0.84154826 0.16834837 2.3871226
-0.88908261 0.1269307 2.4202747
-0.93172723 0.081586175 2.4482625
-0.72103232 0.20244253 2.3004537
-0.76652968 0.16098146 2.3355675
-0.80813611 0.12061441 2.3646262
-0.84397322 0.074425831 2.3824675
-0.65483582 0.19694471 2.2581005
-0.69454414 0.1546613 2.2820873
-0.73026794 0.1133814 2.305017
-0.76881969 0.067932099 2.3379278
-0.59259713 0.19242497 2.2178397
-0.62547916 0.14927939 2.2326798
-0.65822625 0.10700698 2.2545359
-0.68896663 0.061709829 2.2772996
-0.53055358 0.18608642 2.1675465
-0.56226343 0.14377424 2.1913829
-0.59301072 0.10149469 2.2132013
-0.61892068 0.056342408 2.2268741
-0.47512254 0.1824107 2.1374319
-0.50110334 0.13833061 2.1471243
-0.52694529 0.096123539 2.1638503
-0.55176163 0.05087721 2.1825027
-0.41798049 0.17699948 2.0922489
-0.44384506 0.13381068 2.1079574
-0.46766865 0.091578349 2.1256452
-0.48952311 0.046357434 2.142242
-0.36748838 0.17428724 2.0652454
-0.39045107 0.1301783 2.075881
-0.41037291 0.08702223 2.0884776
-0.42835912 0.041913606 2.0980015
-0.31897724 0.17156413 2.0392792
-0.33803815 0.12653145 2.0448232
-0.35601649 0.083422482 2.0543833
-0.37106335 0.037357513 2.0608339
-0.27313542 0.17154376 2.0304174
-0.2876623 0.12292795 2.0118036
-0.30367848 0.079847954 2.0193269
-0.31759056 0.034652609 2.0327742
-0.23515984 0.17748722 2.0808308
-0.24863465 0.12781373 2.0651793
-0.26098558 0.081027582 2.0555611
-0.27134076 0.033234451 2.0458872
-0.19489592 0.18515188 2.1462379
-0.20845352 0.13355105 2.1265516
-0.2198312 0.084779739 2.1158791
-0.22819853 0.03397993 2.1061132
-0.1526659 0.19384532 2.209626
-0.16423565 0.13923785 2.1898479
-0.17650864 0.088361934 2.1851561
-0.1839402 0.035613142 2.1723366
-0.19834906 0.49075717 4.7247047
-0.26649514 0.46885443 5.7329259
-0.36242414 0.43212283 7.1815486
-0.4063769 0.27195156 7.5876117
-0.095532469 0.49155012 4.7137904
-0.13786361 0.46671739 5.712472
-0.19270384 0.42468631 7.1132135
-0.21692856 0.25450134 7.2936497
0.0052243695 0.49140465 4.6998968
-0.011094034 0.46039879 5.6469622
-0.029009342 0.41424516 6.9909182
-0.040833235 0.23848592 7.0339751
0.10438921 0.48882419 4.6549778
0.11594281 0.46088853 5.6475925
0.1265875 0.3958171 6.7585926
0.11922759 0.22256413 6.7726016
0.20541605 0.49042517 4.6551156
0.24044794 0.4598923 5.6202345
0.27353477 0.38009521 6.5444846
0.27107337 0.2099323 6.5524554
0.30358106 0.48784822 4.6102157
0.36245093 0.4553743 5.5668502
0.41177234 0.36613393 6.3455768
0.41393957 0.19731468 6.3334785
0.39982525 0.48620588 4.5693703
0.5098784 0.47865969 5.7965889
0.53993297 0.35128105 6.1428394
0.54594266 0.18560974 6.1217232
0.49972123 0.48793709 4.5625296
0.63004208 0.47094178 5.6991668
0.66221094 0.33734098 5.9462314
0.67142308 0.17547742 5.9351273
0.5964452 0.48884207 4.5467286
0.75997001 0.4725292 5.6937609
0.77697021 0.32597697 5.7748189
0.78873646 0.16553649 5.7396846
-0.02611593 -0.059798401 0.050936799
-0.02611593 -0.059798401 0.050936799
-0.02611593 -0.059798401 0.050936799
-0.02611593 -0.059798401 0.050936799
-0.02611593 -0.059798401 0.050936799
0.97755933 0.45487839 5.4602885
0.9930048 0.30481032 5.4592848
1.0098311 0.15031473 5.4261637
-0.02611593 -0.059798401 0.050936799
1.0769247 0.44399276 5.3211846
0.26173973 0.031658381 1.4066612
0.26741302 -0.0081935469 1.3968308
0.28618062 0.11143201 1.4146494
0.28885055 0.070591033 1.4048573
1.1842617 0.28653392 5.1552706
1.2070463 0.1360704 5.1191096
-0.02611593 -0.059798401 0.050936799
1.2567 0.42325324 5.0453501
1.2734493 0.27786472 5.006393
1.3013986 0.13123786 4.9782081
-0.02611593 -0.059798401 0.050936799
1.3390723 0.4134284 4.9065828
1.3610383 0.27082247 4.878583
1.3898791 0.12530036 4.844399
1.2577927 0.49187389 4.3453336
1.4249988 0.40606779 4.796804
1.4457257 0.26470035 4.7558446
1.4744579 0.12028664 4.7156811
1.3554872 0.49481118 4.3275514
1.5027171 0.39793491 4.6761603
1.5243164 0.2576904 4.6282029
1.5560601 0.11626542 4.588037
1.4489123 0.49601629 4.2958131
1.5763797 0.38987079 4.5525937
1.6042519 0.25235093 4.5185728
-0.02611593 -0.059798401 0.050936799
1.5339338 0.49463043 4.2431788
-0.02611593 -0.059798401 0.050936799
-0.02611593 -0.059798401 0.050936799
0.47237095 -0.012018166 1.2868869
-0.02611593 -0.059798401 0.050936799
0.47871363 0.065910853 1.2901791
0.49044985 0.027982796 1.283271
1.7855281 0.10462585 4.2404118
0.50310278 0.10860034 1.3024988
1.7913287 0.37079787 4.2321157
1.8240285 0.23744026 4.1880765
1.8522679 0.10153168 4.1200657
1.8037723 0.49669826 4.125124
1.8553191 0.36446169 4.1257668
1.8868734 0.23225227 4.0737672
1.9223106 0.099137142 4.015676
1.8805439 0.49357665 4.059608
1.918314 0.35912895 4.019455
1.9477975 0.22799888 3.9635122
1.9914509 0.097655557 3.916321
1.9407039 0.48709205 3.9623313
1.9815146 0.35359722 3.9241393
2.0140243 0.22443795 3.8691754
2.0534949 0.095289722 3.8120811
2.0010173 0.48146254 3.8730698
2.0448167 0.34997475 3.833858
2.0793111 0.2218262 3.7778752
2.1187298 0.093732044 3.7177997
2.0624058 0.47575718 3.7877884
2.1009812 0.34450433 3.7366745
2.1415989 0.21922518 3.686631
2.1799278 0.092224911 3.621594
2.121798 0.47105876 3.7025623
2.1603029 0.34087807 3.6474679
2.2029426 0.21657357 3.5984046
2.2411485 0.091699541 3.526406
2.1781349 0.46642527 3.6143942
2.2217405 0.33813596 3.56424
2.2591376 0.21408451 3.5022748
2.2973661 0.090192243 3.431294
2.2356219 0.46164364 3.534204
2.2750444 0.33454937 3.4741464
2.3144491 0.21249041 3.4121797
2.3587782 0.090485804 3.3461206
2.2880156 0.4569703 3.4491098
2.3304455 0.33186495 3.3890321
2.3749697 0.21167916 3.3330054
2.4171493 0.089826465 3.2589862
2.3384285 0.45228603 3.3650527
2.3859401 0.32909006 3.3089156
2.4242406 0.20914291 3.2410059
2.4674282 0.089286283 3.1670039
2.3919761 0.44846436 3.2879548
2.4414535 0.32629716 3.2297988
2.479706 0.20840389 3.158926
2.5320678 0.090351835 3.0937881
2.4496052 0.4465555 3.2148166
2.4888375 0.32365954 3.1438348
2.5382643 0.20756365 3.0817883
2.5834403 0.089717612 3.0067854
2.4960375 0.44186753 3.1318343
2.5464151 0.32280481 3.0677154
2.5856373 0.20694382 2.9948606
2.6368761 0.091021612 2.92278
2.5496678 0.43997312 3.0587711
2.596952 0.32101157 2.9897106
2.6391776 0.20613959 2.9168172
2.6913867 0.092249677 2.8427544
2.5982163 0.43616933 2.9817672
2.6475265 0.31918216 2.9137049
2.6957815 0.20727006 2.8417525
2.7428794 0.093506582 2.7617857
2.6478283 0.43430731 2.9077797
2.6970863 0.31837422 2.8367362
2.7381742 0.20665005 2.7559183
2.7872379 0.093915418 2.6739328
2.7005334 0.43234402 2.8387339
2.748702 0.31750482 2.7627289
2.7877192 0.20686005 2.6779683
2.8397903 0.096114293 2.5959623
2.7491457 0.43048564 2.764765
2.797262 0.31670052 2.6857791
2.8423569 0.20696163 2.6049223
2.8903394 0.097320527 2.5180113
2.7947359 0.4276562 2.6898348
2.8418229 0.31591049 2.6089046
2.8878653 0.20722219 2.525048
2.9926846 0.10258314 2.4811778
2.8423486 0.42580134 2.6158848
2.8883832 0.31511337 2.5319922
2.982156 0.21256776 2.4853659
3.0422006 0.10482898 2.4012644
2.8839061 0.42402232 2.5390484
2.9867895 0.32133588 2.498251
3.0368207 0.21465093 2.4133556
3.096771 0.10700259 2.3242559
2.9925845 0.43295524 2.5191689
3.0343912 0.32149875 2.4233372
3.0863886 0.21584266 2.3364234
3.145324 0.10921584 2.2463603
3.041234 0.43106058 2.4471991
3.0860522 0.32259288 2.3513656
3.1309197 0.21708854 2.257585
3.1999216 0.11337103 2.1703877
3.0787361 0.42935017 2.367439
3.1316357 0.32278109 2.2754898
3.1886063 0.22014266 2.1865363
3.2474372 0.11562403 2.0905116
3.1192751 0.42759278 2.2896221
3.1822965 0.32387879 2.2035367
3.2321374 0.22139211 2.1077173
4.6697154 0.19387905 2.8215458
3.1750662 0.42854592 2.2245727
3.2288837 0.32506317 2.1276603
4.6558456 0.34238291 2.8535028
4.7497311 0.19950151 2.7141132
3.2176273 0.4277631 2.1477356
3.2764895 0.32622594 2.0527644
4.716723 0.34520075 2.7393756
4.8085413 0.20439848 2.5960608
3.2602077 0.42696226 2.071898
4.4165692 0.45378485 2.6069143
4.8019066 0.3506425 2.6408455
4.6068416 0.19563015 2.3495951
3.893719 0.51260954 2.3426783
4.4938807 0.45812875 2.5155146
4.5911093 0.3309626 2.3913515
4.6940665 0.20202833 2.2530451
3.9501688 0.5128848 2.259598
4.5741925 0.46246207 2.4240582
4.6642389 0.33650163 2.2900486
5.0374684 0.22343168 2.2670074
4.0095849 0.51418537 2.1744802
4.6423488 0.46498334 2.3247943
4.9371481 0.35864455 2.2783353
5.1083446 0.23123083 2.1517823
4.0639644 0.51554012 2.0874572
4.7125125 0.46949717 2.2255285
4.8810897 0.35276675 2.1172242
-0.02611593 -0.059798401 0.050936799
4.1314583 0.51773936 2.0062058
4.9077234 0.48758662 2.178185
5.1174173 0.37359998 2.0751619
8.1051702 0.41246507 2.9302161
4.1777043 0.51824957 1.9123173
4.9394817 0.48761752 2.0585501
6.1363039 0.46040425 2.3087349
8.0829601 0.41659969 2.7056305
4.2300282 0.51966566 1.8223327
5.1496038 0.50774324 2.0059624
6.1896243 0.46478966 2.1647673
7.9471312 0.41573784 2.4500716
4.2833519 0.52107823 1.7323295
5.1540928 0.50512481 1.8727858
6.2369123 0.47023264 2.0189309
8.037816 0.4276188 2.2705276
4.3195024 0.52071494 1.6336126
5.2099748 0.50896031 1.7587702
6.2268538 0.47120658 1.8560816
8.1646233 0.44326133 2.0963771
4.3748102 0.52313823 1.5425899
5.2658 0.51285011 1.6417558
6.2560477 0.47580475 1.7055672
7.954772 0.43868381 1.8411369
4.4260783 0.52461213 1.4496253
5.3055496 0.51586998 1.5210253
6.2792382 0.47942472 1.5551475
8.0002193 0.4499616 1.6494251
4.4782944 0.52713668 1.3536608
5.3131061 0.51618594 1.3908454
6.2732806 0.48229355 1.3972574
7.8881269 0.45131117 1.4324747
4.5224729 0.52972603 1.2558475
5.3086381 0.51456356 1.2598553
6.299479 0.48790222 1.2468175
7.9306712 0.46350914 1.2458355
4.5756507 0.53228313 1.1578648
5.3644671 0.51945317 1.1428589
6.2825937 0.48973837 1.0931147
7.7956915 0.46383297 1.0352973
4.5956693 0.53110403 1.0524329
5.3439608 0.51692444 1.0101521
6.2917724 0.49442646 0.94197643
7.8854113 0.47969869 0.85684389
4.6669159 0.53754157 0.95718312
5.3967566 0.52286088 0.89123058
6.237812 0.49446809 0.78493422
6.1125035 0.3675701 0.52789772
4.6868963 0.53639865 0.84975195
5.3923345 0.52320194 0.76227587
6.1909437 0.49439412 0.6327588
5.9886079 0.36680883 0.37515181
4.7219424 0.53814709 0.74509192
5.4270368 0.52829355 0.6386764
6.0419092 0.48583251 0.47434053
-0.02611593 -0.059798401 0.050936799
4.7629766 0.54189181 0.63935554
5.4817615 0.53529501 0.51573676
6.0132031 0.48954853 0.32989627
-0.02611593 -0.059798401 0.050936799
4.7949486 0.54372334 0.53075331
5.6967382 0.56051999 0.40112928
3.5362384 0.2678017 0.13219348
3.0562785 0.17309906 -0.0025791451
4.8439665 0.54845732 0.42388493
3.5624738 0.32974249 0.1858409
3.2395201 0.24347495 0.048280347
3.0819116 0.18033974 -0.076953299
4.8849254 0.55227435 0.31414995
3.5369163 0.32933044 0.10328398
3.0401003 0.2275272 -0.022298377
3.0265882 0.18081802 -0.14693256
-0.02611593 -0.059798401 0.050936799
3.01915 0.27376604 0.024946291
3.0777538 0.23570654 -0.095880337
2.7026396 0.15986753 -0.19026105
3.5326159 0.38182431 0.077305257
3.0388291 0.27797449 -0.046370193
2.8026199 0.21274328 -0.14916253
2.7413719 0.16897075 -0.25984514
2.9889009 0.31426486 0.004238205
3.0694907 0.28316137 -0.11887501
2.6415646 0.2003148 -0.20138967
2.7750635 0.17712829 -0.33135259
2.9206192 0.30571899 -0.061660316
2.7524188 0.25026017 -0.16654989
2.7292473 0.21329576 -0.2748214
2.3548839 0.14676769 -0.33103478
2.920342 0.30594566 -0.12967408
2.7012661 0.2465439 -0.22667977
1.9616697 0.13950422 -0.23077017
2.3777423 0.15380204 -0.39335665
2.6593013 0.27380708 -0.17638388
2.7320065 0.25265825 -0.29516792
2.3427985 0.18202186 -0.34217459
2.4125273 0.16186555 -0.45988464
2.7060618 0.28084576 -0.244155
3.0041952 0.28649625 -0.40068769
2.3726556 0.18903111 -0.40462798
2.5379417 0.17998059 -0.54893523
2.7327952 0.28497484 -0.31260404
2.3366182 0.21232772 -0.35751587
2.4074371 0.19609477 -0.47117397
2.6990621 0.20125538 -0.65460277
2.3235161 0.23459621 -0.31385297
2.3724551 0.21933351 -0.42108166
2.5348141 0.21423882 -0.56226146
2.5903134 0.19736741 -0.6926499
2.3424156 0.23759136 -0.37317273
2.398268 0.22439364 -0.48549521
2.6690662 0.23448405 -0.66044211
2.4766781 0.1933888 -0.72460514
2.3712461 0.24262263 -0.43664303
2.5953677 0.2515744 -0.59373051
2.5513783 0.22655669 -0.69439358
2.4655724 0.19850935 -0.78432482
2.400058 0.24767198 -0.501113
2.6339836 0.25978631 -0.66933054
2.4347839 0.2185353 -0.72336549
2.4365404 0.20262235 -0.83972567
2.6877542 0.28594035 -0.63385212
2.5103562 0.24780878 -0.69924271
2.4664237 0.2277541 -0.79781634
-0.02611593 -0.059798401 0.050936799
2.5809736 0.27404651 -0.67208111
2.2724285 0.22254077 -0.68824142
2.3906913 0.22472943 -0.83546597
0.17841624 -0.03707625 -0.03351019
2.4732907 0.2630657 -0.70527482
2.4124966 0.2439452 -0.79651332
-0.02611593 -0.059798401 0.050936799
-0.02611593 -0.059798401 0.050936799
2.0484335 0.21037351 -0.63024807
-0.02611593 -0.059798401 0.050936799
0.17840539 -0.035058498 -0.034473822
0.15639369 -0.03897886 -0.034132503
2.4211831 0.26027197 -0.81638747
0.18941122 -0.033098314 -0.034644477
-0.02611593 -0.059798401 0.050936799
-0.02611593 -0.059798401 0.050936799
-0.02611593 -0.059798401 0.050936799
-0.02611593 -0.059798401 0.050936799
0.14943635 -0.037990086 -0.031983621
0.13241288 -0.039910648 -0.032699883
0.18539715 -0.032066036 -0.035550948
0.17033589 -0.033957601 -0.03830412
-0.02611593 -0.059798401 0.050936799
-0.02611593 -0.059798401 0.050936799
-0.02611593 -0.059798401 0.050936799
-0.02611593 -0.059798401 0.050936799
0.13141698 -0.038907226 -0.032663073
0.11541207 -0.040849462 -0.032398462
0.16038993 -0.034975808 -0.035135243
0.1473283 -0.036874548 -0.037925992
-0.02611593 -0.059798401 0.050936799
-0.02611593 -0.059798401 0.050936799
-0.02611593 -0.059798401 0.050936799
-0.02611593 -0.059798401 0.050936799
0.11243134 -0.040856786 -0.031342432
0.10239179 -0.041784547 -0.033171866
0.1364013 -0.03790725 -0.033738673
0.12832786 -0.037806183 -0.037586994
-0.02611593 -0.059798401 0.050936799
-0.02611593 -0.059798401 0.050936799
-0.02611593 -0.059798401 0.050936799
-0.02611593 -0.059798401 0.050936799
0.10039216 -0.041777369 -0.033134285
0.089408964 -0.042755812 -0.031945944
0.12434337 -0.03880975 -0.036530189
0.11232293 -0.039748423 -0.037322383
-0.02611593 -0.059798401 0.050936799
-0.02611593 -0.059798401 0.050936799
-0.02611593 -0.059798401 0.050936799
-0.02611593 -0.059798401 0.050936799
0.088390425 -0.042734131 -0.03292682
0.077407226 -0.043712575 -0.031738475
0.10537645 -0.040777393 -0.034209874
0.097340465 -0.040712506 -0.036058884
-0.02611593 -0.059798401 0.050936799
-0.02611593 -0.059798401 0.050936799
-0.02611593 -0.059798401 0.050936799
-0.02611593 -0.059798401 0.050936799
0.077392437 -0.042694654 -0.032720122
0.070371062 -0.043651272 -0.033606261
0.090390064 -0.04274131 -0.032964401
0.084353715 -0.042683601 -0.034850974
-0.02611593 -0.059798401 0.050936799
-0.02611593 -0.059798401 0.050936799
-0.02611593 -0.059798401 0.050936799
-0.02611593 -0.059798401 0.050936799
0.067409068 -0.043676686 -0.031550571
0.061391436 -0.043637063 -0.032437492
0.082354076 -0.042676419 -0.034813393
0.078279927 -0.042589713 -0.038736876
-0.02611593 -0.059798401 0.050936799
-0.02611593 -0.059798401 0.050936799
-0.02611593 -0.059798401 0.050936799
-0.02611593 -0.059798401 0.050936799
0.062353816 -0.043604471 -0.034455601
0.054374002 -0.04359385 -0.033305611
0.07333307 -0.043625865 -0.035661966
0.068277821 -0.043553654 -0.038566992
-0.02611593 -0.059798401 0.050936799
-0.02611593 -0.059798401 0.050936799
-0.02611593 -0.059798401 0.050936799
-0.02611593 -0.059798401 0.050936799
0.052370436 -0.044586502 -0.03328605
0.050299838 -0.04350714 -0.037229102
0.06236862 -0.044622391 -0.033473954
0.056350984 -0.044582769 -0.034360878
-0.02611593 -0.059798401 0.050936799
-0.02611593 -0.059798401 0.050936799
-0.02611593 -0.059798401 0.050936799
-0.02611593 -0.059798401 0.050936799
0.046371542 -0.04456497 -0.033173308
0.04037264 -0.044543438 -0.033060562
0.05336633 -0.045589924 -0.03332286
0.050314635 -0.044525061 -0.036247462
-0.02611593 -0.059798401 0.050936799
-0.02611593 -0.059798401 0.050936799
-0.02611593 -0.059798401 0.050936799
-0.02611593 -0.059798401 0.050936799
0.040353917 -0.044525348 -0.034060229
0.03535483 -0.044507407 -0.033966277
0.045363862 -0.04656104 -0.033190548
0.046240482 -0.044438347 -0.040170945
-0.02611593 -0.059798401 0.050936799
-0.02611593 -0.059798401 0.050936799
-0.02611593 -0.059798401 0.050936799
-0.02611593 -0.059798401 0.050936799
0.032370169 -0.045514558 -0.032928258
0.02837483 -0.04450037 -0.032835077
0.041308422 -0.046492416 -0.03611438
0.036313269 -0.045474645 -0.036002412
-0.02611593 -0.059798401 0.050936799
-0.02611593 -0.059798401 0.050936799
-0.02611593 -0.059798401 0.050936799
-0.02611593 -0.059798401 0.050936799
0.026389994 -0.045511112 -0.031815864
0.024338119 -0.044449836 -0.034759246
0.035290804 -0.046452794 -0.037001297
0.032257833 -0.045406025 -0.038926236
-0.02611593 -0.059798401 0.050936799
-0.02611593 -0.059798401 0.050936799
-0.02611593 -0.059798401 0.050936799
-0.02611593 -0.059798401 0.050936799
-0.02611593 -0.059798401 0.050936799
0.020301403 -0.044399302 -0.036683403
0.028306879 -0.047445592 -0.035888124
0.026258934 -0.045384489 -0.038813494
-0.02611593 -0.059798401 0.050936799
-0.02611593 -0.059798401 0.050936799
-0.02611593 -0.059798401 0.050936799
-0.02611593 -0.059798401 0.050936799
0.019278932 -0.045377456 -0.037682291
-0.02611593 -0.059798401 0.050936799
0.024270168 -0.047395058 -0.037812278
0.021241123 -0.045348454 -0.039719198
-0.02611593 -0.059798401 0.050936799
-0.02611593 -0.059798401 0.050936799
-0.02611593 -0.059798401 0.050936799
