# .PCD v0.7 - Point Cloud Data file format
VERSION 0.7
FIELDS x y z
SIZE 4 4 4
TYPE F F F
COUNT 1 1 1
WIDTH 1381
HEIGHT 1
VIEWPOINT 0 0 0 1 0 0 0
POINTS 1381
DATA ascii
0.33248547 0.60148931 1.0175126
0.31268862 0.61023611 0.81397241
0.32485431 0.60605741 0.87669021
0.337024 0.60287875 0.93942618
0.35537282 0.6025151 1.0111003
0.32753217 0.60932714 0.80567521
0.33961511 0.60322124 0.86435843
0.35684788 0.60196996 0.93003535
0.37615913 0.60163891 0.99969143
0.34444326 0.6113562 0.80039352
0.35956708 0.60620314 0.86103767
0.37567589 0.60206455 0.92068148
0.40001276 0.60369712 0.99127924
0.35930943 0.61142898 0.79311395
0.37639546 0.60630494 0.85172129
0.39446259 0.60119551 0.90931004
0.41769031 0.59892285 0.97485638
0.37413037 0.60953838 0.78379917
0.39321992 0.60540694 0.84238684
0.4153769 0.60421002 0.90397125
0.44054416 0.60098469 0.96646285
0.38900048 0.6106109 0.77653766
0.41007096 0.60649043 0.83408815
0.43518597 0.60431916 0.89359879
0.46027055 0.59916645 0.95205581
0.40282547 0.60972363 0.76725966
0.4268806 0.60661036 0.82377207
0.45399529 0.60443187 0.88324517
0.48101938 0.59832644 0.93864757
0.41663176 0.60885441 0.75698197
0.44268653 0.60573399 0.81345683
0.47072223 0.60262448 0.86889446
0.50285858 0.60140979 0.92929125
0.43354684 0.6118834 0.75171828
0.4594962 0.60585386 0.80314076
0.48851296 0.60275888 0.85755998
0.52158517 0.59959519 0.91490299
0.44839823 0.61297411 0.74345714
0.47635117 0.60793722 0.79486012
0.50730747 0.60388947 0.84622467
0.54134214 0.60075837 0.90154958
0.463227 0.61308306 0.73417836
0.49109715 0.60611892 0.78154659
0.52303463 0.60208559 0.83189273
0.5621174 0.60189992 0.88917708
0.4729434 0.60830122 0.71990508
0.50793344 0.60822034 0.77226627
0.54391927 0.60713601 0.82459062
0.57978803 0.60014313 0.87180853
0.48779875 0.61039186 0.71166199
0.52576947 0.61031818 0.76296711
0.55756396 0.60341209 0.8062616
0.59956747 0.60228813 0.85947293
0.50260878 0.61051887 0.70138347
0.5384745 0.60754341 0.74767381
0.57533997 0.60456437 0.79394543
0.61930966 0.60446924 0.84513783
0.51641899 0.61064953 0.69112378
0.55122083 0.60573226 0.73439795
0.59005249 0.60378206 0.77865064
0.63493919 0.60175598 0.82578951
0.53127825 0.61373985 0.6828987
0.5670011 0.6078915 0.72213739
0.6067872 0.60397428 0.76433593
0.65059537 0.60102439 0.80747706
0.54406995 0.61389214 0.67165816
0.57972878 0.60609847 0.70786184
0.62456715 0.60612637 0.75203776
0.66729659 0.60225254 0.79118103
0.55786139 0.61404091 0.66039884
0.59450525 0.60726154 0.69560206
0.63926482 0.60636193 0.7357614
0.68293005 0.60053921 0.77185076
0.56862682 0.61221892 0.64816016
0.60928178 0.60842454 0.68334228
0.65193629 0.6046232 0.71848685
0.69863147 0.60177106 0.75557351
0.5813998 0.61238927 0.63591993
0.62508076 0.61056584 0.67208141
0.66254419 0.60094613 0.69821483
0.71529531 0.60303545 0.73727822
0.59417671 0.61355948 0.62369782
0.63881999 0.61176866 0.65784115
0.6803506 0.60507989 0.68695241
0.73095536 0.60330367 0.71898365
0.60594594 0.61273372 0.61145836
0.65051037 0.61001533 0.64158505
0.69709712 0.60827154 0.67269182
0.73950738 0.59968811 0.6957503
0.61772293 0.61390752 0.59925491
0.66324592 0.61022198 0.6273455
0.7077316 0.60657614 0.6534555
0.75619388 0.60193419 0.67847264
0.62947345 0.61309981 0.58601588
0.67496288 0.61045021 0.61212504
0.72141075 0.6068334 0.63619816
0.76781327 0.60125315 0.65823597
0.64125049 0.61427361 0.57381243
0.69075102 0.61460918 0.5999006
0.73206776 0.60611975 0.61797959
0.78145891 0.60254639 0.63899738
0.65095603 0.61150956 0.55857557
0.70244533 0.61385572 0.58366245
0.74374729 0.60638422 0.6007598
0.79103738 0.60090888 0.61678082
0.66273707 0.61368322 0.54639018
0.71212125 0.61312753 0.56646234
0.75845677 0.6096192 0.58453745
0.80570942 0.60418004 0.59855914
0.67245042 0.61291885 0.53118932
0.72179717 0.61239934 0.54926217
0.76705015 0.60696733 0.56332141
0.81224298 0.60058975 0.57436365
0.68523121 0.61508894 0.51898515
0.73249561 0.61264932 0.53306085
0.77873355 0.6082316 0.54611969
0.82794148 0.60583895 0.55715883
0.69291842 0.61235017 0.50278616
0.74016798 0.61092836 0.51588029
0.7914021 0.61051017 0.5279175
0.83650136 0.60422307 0.53396147
0.70365822 0.61356384 0.48860228
0.74984783 0.61119998 0.49869812
0.80106717 0.61179972 0.50975376
0.84408408 0.60359251 0.51180059
0.71034557 0.61082852 0.47242212
0.7564978 0.60850102 0.48051864
0.80868727 0.61113292 0.48959219
0.85471547 0.60591453 0.49163669
0.72110802 0.61302394 0.45925581
0.77023017 0.61272138 0.46533275
0.81730729 0.61046261 0.46941185
0.87038034 0.61219972 0.47245064
0.72878045 0.61130303 0.44207525
0.7768839 0.61102223 0.44717127
0.82595384 0.61177379 0.4502672
0.874937 0.60959834 0.44931042
0.73852038 0.61252022 0.42791009
0.78554529 0.61131555 0.42900825
0.83155173 0.61013252 0.42912555
0.88252753 0.6109674 0.42718557
0.7472192 0.61277729 0.41174641
0.79119933 0.60961998 0.41086558
0.84120196 0.61243993 0.40998009
0.88606966 0.60938758 0.40308249
0.754933 0.61202013 0.39658314
0.80088711 0.61189127 0.39371943
0.84477758 0.60982412 0.38785833
0.88863069 0.60779315 0.37999788
0.7666617 0.61524796 0.3814168
0.8065263 0.61121356 0.37459511
0.850402 0.6101644 0.36775237
0.89724761 0.61114025 0.35888994
0.76930845 0.61156344 0.36329445
0.81621408 0.6134848 0.35744905
0.85803002 0.61149722 0.34762684
0.90383828 0.61251289 0.33678389
0.78105593 0.61477309 0.34912777
0.82185721 0.61380696 0.33834273
0.86868805 0.61580086 0.32849866
0.90941447 0.61490703 0.31371498
0.7887401 0.61605179 0.33200121
0.82751524 0.61311126 0.32021806
0.86826438 0.61319923 0.30645204
0.9140017 0.61528707 0.29162848
0.79441679 0.61533791 0.31487623
0.83618838 0.61640412 0.30210909
0.87288898 0.61354309 0.28636488
0.91454822 0.61471778 0.26759979
0.80312347 0.61759472 0.29874855
0.84283531 0.61772245 0.28300202
0.87749881 0.61490482 0.26529607
0.90807641 0.60917443 0.24361257
0.80880016 0.61688083 0.28162357
0.84144139 0.61308861 0.26293752
0.88210869 0.61626661 0.24422726
0.6299293 0.40955609 0.17018445
0.81548452 0.61816305 0.26451582
0.84911472 0.61638504 0.24484734
0.60290372 0.40667155 0.16963807
0.5863809 0.3781319 0.14742364
0.81813908 0.6164782 0.2464295
0.65442181 0.46418923 0.1857194
0.56943721 0.38215604 0.14981447
0.58006674 0.37444353 0.13146973
0.74927926 0.55734754 0.21263768
0.57965672 0.40498963 0.15703861
0.56112635 0.37445745 0.13482574
-0.02611593 -0.059798401 0.050936799
0.56877989 0.41193748 0.16236976
0.56631243 0.39332771 0.14107209
0.56286782 0.37570336 0.12081091
0.55642372 0.35808975 0.1006061
0.55142057 0.39629063 0.14640632
0.55599803 0.38463652 0.12610292
0.54955012 0.36602303 0.10588008
0.55315435 0.35635406 0.086631179
0.5511654 0.39352629 0.13335666
0.56078035 0.38683525 0.11404908
0.54930669 0.36625817 0.092884496
0.55490363 0.35959965 0.0726524
0.53885829 0.38182464 0.11937068
0.54948097 0.3771297 0.10008033
0.55207062 0.36848226 0.07986857
0.55765271 0.36284161 0.05865483
0.54566681 0.38599783 0.10831495
0.54019296 0.37041643 0.086128056
0.54781616 0.36573228 0.066894084
-0.02611593 -0.059798401 0.050936799
0.55747128 0.39417046 0.096237674
0.55200148 0.37958893 0.0740688
0.56863564 0.38288918 0.053810198
-0.02611593 -0.059798401 0.050936799
0.55220926 0.38942441 0.083245933
0.5768469 0.39871302 0.061945461
0.58343267 0.39406863 0.040730953
0.57495254 0.38151559 0.017654829
0.57506192 0.40553814 0.07210578
0.60768813 0.42183301 0.048781782
0.60421479 0.41126168 0.025647746
0.58570892 0.39174578 0.002633404
0.62197006 0.44158038 0.059875358
0.62549645 0.43600118 0.035700221
0.62198967 0.4264659 0.01058488
0.58243251 0.39302766 -0.012287121
0.63074851 0.44778222 0.046818763
0.63023424 0.44125375 0.020701446
0.61170572 0.42075604 -0.0033305846
0.58218223 0.39628041 -0.026228327
0.62847894 0.44604304 0.032825053
0.62594235 0.43853995 0.0057276338
0.5984146 0.4130573 -0.017225705
0.5909164 0.405536 -0.042229854
0.63822383 0.45327726 0.017768357
0.62769169 0.44178551 -0.0082511455
0.5821535 0.40333349 -0.029101174
-0.02611593 -0.059798401 0.050936799
0.62093246 0.44057563 0.0048579574
0.60438573 0.42510611 -0.021120869
0.57889205 0.40359747 -0.043040063
0.57738274 0.40308967 -0.070030138
0.62766993 0.44582105 -0.010178391
0.59712398 0.42036721 -0.034075029
0.56863475 0.39986926 -0.055919826
0.59411329 0.42135122 -0.088019155
0.61140108 0.43409756 -0.022089906
0.58286649 0.41163608 -0.045970056
0.57837266 0.41012105 -0.071922116
0.80647284 0.59278774 -0.15691732
0.58612508 0.41538948 -0.032958757
0.5796237 0.41188201 -0.058909286
0.59509528 0.42638296 -0.089947157
0.84302312 0.62820971 -0.18797141
0.57487494 0.40864721 -0.044874135
0.58535051 0.41914871 -0.074890479
0.76853138 0.56778359 -0.14865646
0.83266532 0.62758946 -0.20679513
0.57762009 0.41088933 -0.058889721
0.59408468 0.4284043 -0.090892002
0.83904642 0.62920582 -0.18687858
0.82529992 0.62997609 -0.22662073
0.56737363 0.40514332 -0.070805863
0.7755053 0.57581139 -0.15164283
0.83366209 0.63160324 -0.20774147
0.20905973 0.13280527 -0.032010429
0.58509618 0.42140162 -0.088849679
0.83303583 0.62622786 -0.18681988
0.8253265 0.63195759 -0.22558503
0.19500822 0.12387513 -0.032909185
0.78849691 0.5837996 -0.15374227
0.82768494 0.62758934 -0.20570147
0.20707488 0.13179453 -0.0309912
-0.02611593 -0.059798401 0.050936799
0.84002364 0.6282205 -0.18791506
0.83030003 0.63497537 -0.22762428
0.19103068 0.11985399 -0.030906774
0.15997654 0.099950545 -0.029684979
0.83765739 0.63058907 -0.20783465
0.20608595 0.12978035 -0.030008789
-0.02611593 -0.059798401 0.050936799
-0.02611593 -0.059798401 0.050936799
0.82531774 0.62494075 -0.22471154
0.17410988 0.10579076 -0.023841973
0.15999134 0.098932646 -0.028703339
0.13892539 0.086028293 -0.029542636
0.20110072 0.12376315 -0.02802363
-0.02611593 -0.059798401 0.050936799
-0.02611593 -0.059798401 0.050936799
-0.02611593 -0.059798401 0.050936799
0.18606418 0.11381868 -0.027921956
0.17293069 0.10797489 -0.033783752
0.14688738 0.091053009 -0.032601845
0.12385533 0.077119857 -0.031422269
-0.02611593 -0.059798401 0.050936799
-0.02611593 -0.059798401 0.050936799
-0.02611593 -0.059798401 0.050936799
-0.02611593 -0.059798401 0.050936799
0.16097935 0.095929556 -0.028776184
0.1478872 0.091049418 -0.032620635
0.12684 0.078126997 -0.032460272
0.10584895 0.065150306 -0.029300936
-0.02611593 -0.059798401 0.050936799
-0.02611593 -0.059798401 0.050936799
-0.02611593 -0.059798401 0.050936799
-0.02611593 -0.059798401 0.050936799
0.14291286 0.083014458 -0.029671852
0.12983945 0.078116231 -0.032516647
0.11280721 0.069178775 -0.032359377
0.092805102 0.058216248 -0.030182447
-0.02611593 -0.059798401 0.050936799
-0.02611593 -0.059798401 0.050936799
-0.02611593 -0.059798401 0.050936799
-0.02611593 -0.059798401 0.050936799
0.12386528 0.070084855 -0.029549073
0.11279542 0.06617929 -0.032413431
0.09678565 0.05821998 -0.031257275
0.07585077 0.045189027 -0.025098946
-0.02611593 -0.059798401 0.050936799
-0.02611593 -0.059798401 0.050936799
-0.02611593 -0.059798401 0.050936799
-0.02611593 -0.059798401 0.050936799
0.10882876 0.060140401 -0.029447403
0.098781362 0.057212967 -0.031312875
-0.02611593 -0.059798401 0.050936799
0.068802826 0.042250838 -0.027020793
-0.02611593 -0.059798401 0.050936799
-0.02611593 -0.059798401 0.050936799
-0.02611593 -0.059798401 0.050936799
-0.02611593 -0.059798401 0.050936799
0.094810769 0.050174247 -0.02836486
0.088726096 0.052285895 -0.033214383
0.076727383 0.04731172 -0.03207932
0.058799818 0.036269654 -0.025941331
-0.02611593 -0.059798401 0.050936799
-0.02611593 -0.059798401 0.050936799
-0.02611593 -0.059798401 0.050936799
-0.02611593 -0.059798401 0.050936799
0.081800438 0.042204183 -0.027265068
0.079689384 0.04733713 -0.034135025
0.064735599 0.039319962 -0.029998664
0.05177059 0.033313375 -0.026863519
-0.02611593 -0.059798401 0.050936799
-0.02611593 -0.059798401 0.050936799
-0.02611593 -0.059798401 0.050936799
-0.02611593 -0.059798401 0.050936799
0.071774788 0.035241257 -0.027203295
0.067697607 0.039345376 -0.032054357
0.056721356 0.035349358 -0.029920414
0.042804834 0.027292432 -0.023803528
-0.02611593 -0.059798401 0.050936799
-0.02611593 -0.059798401 0.050936799
-0.02611593 -0.059798401 0.050936799
-0.02611593 -0.059798401 0.050936799
0.061790485 0.029241985 -0.025124174
0.059679434 0.034374941 -0.031994123
0.049710855 0.032374989 -0.029842936
0.038753327 0.028360877 -0.026709333
-0.02611593 -0.059798401 0.050936799
-0.02611593 -0.059798401 0.050936799
-0.02611593 -0.059798401 0.050936799
-0.02611593 -0.059798401 0.050936799
0.052768569 0.023275308 -0.025063168
0.05265021 0.031418666 -0.032916311
0.03974136 0.025357803 -0.026782181
0.030783463 0.021336516 -0.023686156
-0.02611593 -0.059798401 0.050936799
-0.02611593 -0.059798401 0.050936799
-0.02611593 -0.059798401 0.050936799
-0.02611593 -0.059798401 0.050936799
0.048709203 0.022344101 -0.028005011
0.04368446 0.025397714 -0.02985632
0.037670761 0.026437169 -0.030725226
0.025780452 0.020354636 -0.023610223
-0.02611593 -0.059798401 0.050936799
-0.02611593 -0.059798401 0.050936799
-0.02611593 -0.059798401 0.050936799
-0.02611593 -0.059798401 0.050936799
0.039728664 0.01734107 -0.025926661
0.037673775 0.022419758 -0.029797632
0.033619259 0.027505621 -0.03363103
-0.02611593 -0.059798401 0.050936799
-0.02611593 -0.059798401 0.050936799
-0.02611593 -0.059798401 0.050936799
-0.02611593 -0.059798401 0.050936799
-0.02611593 -0.059798401 0.050936799
0.034703001 0.01537745 -0.026868414
0.03166309 0.019441806 -0.029738948
0.02565725 0.022480913 -0.030571815
0.01478155 0.015376871 -0.022493958
-0.02611593 -0.059798401 0.050936799
-0.02611593 -0.059798401 0.050936799
-0.02611593 -0.059798401 0.050936799
-0.02611593 -0.059798401 0.050936799
0.027726015 0.011367071 -0.024809629
0.027611582 0.02051026 -0.032644752
0.019661356 0.018485043 -0.029531475
0.010763557 0.015409316 -0.023418456
-0.02611593 -0.059798401 0.050936799
-0.02611593 -0.059798401 0.050936799
-0.02611593 -0.059798401 0.050936799
-0.02611593 -0.059798401 0.050936799
0.022700353 0.0094034513 -0.025751371
0.021619618 0.017514206 -0.031586394
0.014677068 0.01748506 -0.028455883
0.0067603653 0.014423842 -0.023361314
-0.02611593 -0.059798401 0.050936799
-0.02611593 -0.059798401 0.050936799
-0.02611593 -0.059798401 0.050936799
-0.02611593 -0.059798401 0.050936799
0.016727114 0.0063893069 -0.023693364
0.01758291 0.01756474 -0.033510566
0.011625377 0.01854993 -0.031380471
0.003712601 0.016488537 -0.026267886
-0.02611593 -0.059798401 0.050936799
-0.02611593 -0.059798401 0.050936799
-0.02611593 -0.059798401 0.050936799
-0.02611593 -0.059798401 0.050936799
0.013690218 0.0064362516 -0.025636312
0.012579894 0.01658286 -0.033434633
0.006637163 0.016550127 -0.030322906
-0.02611593 -0.059798401 0.050936799
-0.02611593 -0.059798401 0.050936799
-0.02611593 -0.059798401 0.050936799
-0.02611593 -0.059798401 0.050936799
-0.02611593 -0.059798401 0.050936799
0.0096535068 0.0064867856 -0.027560476
0.0066175251 0.011550973 -0.030412998
0.0026191701 0.016582571 -0.031247392
-0.0033048415 0.016531749 -0.027136013
-0.02611593 -0.059798401 0.050936799
-0.02611593 -0.059798401 0.050936799
-0.02611593 -0.059798401 0.050936799
-0.02611593 -0.059798401 0.050936799
0.004698805 0.0034509785 -0.024521593
0.0025995323 0.011583418 -0.031337485
-0.001384025 0.015597096 -0.03119025
-0.0072932439 0.014528354 -0.026097231
-0.02611593 -0.059798401 0.050936799
-0.02611593 -0.059798401 0.050936799
-0.02611593 -0.059798401 0.050936799
-0.02611593 -0.059798401 0.050936799
0.00066209107 0.0035015121 -0.026445754
-0.0014145308 0.012615693 -0.032243971
-0.0054355334 0.01666555 -0.034096062
-0.011307305 0.015560629 -0.027003709
-0.02611593 -0.059798401 0.050936799
-0.02611593 -0.059798401 0.050936799
-0.02611593 -0.059798401 0.050936799
-0.02611593 -0.059798401 0.050936799
-0.002374805 0.0035484571 -0.028388701
-0.0054029315 0.010612299 -0.031205181
-0.0093904175 0.013626146 -0.031075962
-0.015276983 0.013539145 -0.024965256
-0.02611593 -0.059798401 0.050936799
-0.02611593 -0.059798401 0.050936799
-0.02611593 -0.059798401 0.050936799
-0.02611593 -0.059798401 0.050936799
-0.0063927965 0.0035809018 -0.029313199
-0.009435717 0.011662663 -0.033111334
-0.013385758 0.014640332 -0.030982785
-0.018276434 0.013549912 -0.024908882
-0.02611593 -0.059798401 0.050936799
-0.02611593 -0.059798401 0.050936799
-0.02611593 -0.059798401 0.050936799
-0.02611593 -0.059798401 0.050936799
-0.011358364 0.0025628377 -0.027237948
-0.013453707 0.011695107 -0.034035832
-0.017452059 0.016726704 -0.034870233
-0.022260908 0.012546347 -0.02385208
-0.02611593 -0.059798401 0.050936799
-0.02611593 -0.059798401 0.050936799
-0.02611593 -0.059798401 0.050936799
-0.02611593 -0.059798401 0.050936799
-0.014376538 0.0025916933 -0.028181236
-0.017452978 0.011709463 -0.033960667
-0.020447584 0.017737295 -0.034795843
-0.025319539 0.016628794 -0.02772228
-0.02611593 -0.059798401 0.050936799
-0.02611593 -0.059798401 0.050936799
-0.02611593 -0.059798401 0.050936799
-0.02611593 -0.059798401 0.050936799
-0.02611593 -0.059798401 0.050936799
-0.021374341 0.0076340581 -0.028959267
-0.024446853 0.017751651 -0.034720682
-0.027256064 0.013564123 -0.023740109
-0.02611593 -0.059798401 0.050936799
-0.02611593 -0.059798401 0.050936799
-0.02611593 -0.059798401 0.050936799
-0.02611593 -0.059798401 0.050936799
-0.02611593 -0.059798401 0.050936799
-0.025451513 0.011738175 -0.033810344
-0.027412785 0.016726416 -0.032683011
-0.031255335 0.013578478 -0.023664948
-0.02611593 -0.059798401 0.050936799
-0.02611593 -0.059798401 0.050936799
-0.02611593 -0.059798401 0.050936799
-0.02611593 -0.059798401 0.050936799
-0.02611593 -0.059798401 0.050936799
-0.028450964 0.011748942 -0.033753973
-0.031412054 0.016740773 -0.03260785
-0.034310035 0.018660754 -0.027517129
-0.02611593 -0.059798401 0.050936799
-0.02611593 -0.059798401 0.050936799
-0.02611593 -0.059798401 0.050936799
-0.02611593 -0.059798401 0.050936799
-0.02611593 -0.059798401 0.050936799
-0.032479823 0.013799137 -0.035642091
-0.035377804 0.015719119 -0.030551374
-0.037261173 0.016617594 -0.024497811
-0.02611593 -0.059798401 0.050936799
-0.02611593 -0.059798401 0.050936799
-0.02611593 -0.059798401 0.050936799
-0.02611593 -0.059798401 0.050936799
-0.02611593 -0.059798401 0.050936799
-0.036460366 0.013795403 -0.03456727
-0.039436255 0.019805152 -0.034402788
-0.04130483 0.019685708 -0.027367577
-0.02611593 -0.059798401 0.050936799
-0.02611593 -0.059798401 0.050936799
-0.02611593 -0.059798401 0.050936799
-0.02611593 -0.059798401 0.050936799
-0.037401922 0.0047100782 -0.029712345
-0.040396526 0.01073791 -0.030547511
-0.043416802 0.019801421 -0.033327967
-0.045285374 0.019681975 -0.026292756
-0.02611593 -0.059798401 0.050936799
-0.02611593 -0.059798401 0.050936799
-0.02611593 -0.059798401 0.050936799
-0.02611593 -0.059798401 0.050936799
-0.041401189 0.0047244336 -0.02963718
-0.044440184 0.013806025 -0.033417284
-0.046382729 0.018776178 -0.031290285
-0.048262171 0.020674482 -0.025218707
-0.02611593 -0.059798401 0.050936799
-0.02611593 -0.059798401 0.050936799
-0.02611593 -0.059798401 0.050936799
-0.02611593 -0.059798401 0.050936799
-0.045381732 0.0047207 -0.028562352
-0.048420724 0.013802292 -0.032342464
-0.050378073 0.019790364 -0.031197108
-0.048114225 0.010495286 -0.015402284
-0.02611593 -0.059798401 0.050936799
-0.02611593 -0.059798401 0.050936799
-0.02611593 -0.059798401 0.050936799
-0.02611593 -0.059798401 0.050936799
-0.048358534 0.0057132086 -0.027488302
-0.052382547 0.013780469 -0.030267969
-0.05435469 0.02078646 -0.030104261
-0.02611593 -0.059798401 0.050936799
-0.02611593 -0.059798401 0.050936799
-0.02611593 -0.059798401 0.050936799
-0.02611593 -0.059798401 0.050936799
-0.02611593 -0.059798401 0.050936799
-0.05335369 0.0067309765 -0.027376331
-0.058466293 0.02090935 -0.036027078
-0.05937944 0.02384007 -0.031955581
-0.02611593 -0.059798401 0.050936799
-0.02611593 -0.059798401 0.050936799
-0.02611593 -0.059798401 0.050936799
-0.02611593 -0.059798401 0.050936799
-0.02611593 -0.059798401 0.050936799
-0.056334417 0.006723654 -0.026320301
-0.06244684 0.020905618 -0.034952246
-0.065414861 0.028915016 -0.034751724
-0.02611593 -0.059798401 0.050936799
-0.02611593 -0.059798401 0.050936799
-0.02611593 -0.059798401 0.050936799
-0.02611593 -0.059798401 0.050936799
-0.02611593 -0.059798401 0.050936799
-0.062358987 0.0097808652 -0.02815282
-0.066408657 0.020883797 -0.032877766
-0.06422966 0.018696066 -0.022954766
-0.02611593 -0.059798401 0.050936799
-0.02611593 -0.059798401 0.050936799
-0.02611593 -0.059798401 0.050936799
-0.02611593 -0.059798401 0.050936799
-0.02611593 -0.059798401 0.050936799
-0.068379626 0.013837892 -0.029967319
-0.071395963 0.023901224 -0.032729756
-0.066177055 0.01764914 -0.019936219
-0.071185172 0.02971931 -0.022625033
-0.02611593 -0.059798401 0.050936799
-0.02611593 -0.059798401 0.050936799
-0.02611593 -0.059798401 0.050936799
-0.02611593 -0.059798401 0.050936799
-0.070308298 0.012772882 -0.025949121
-0.076368473 0.02590074 -0.03160011
-0.02611593 -0.059798401 0.050936799
-0.068022974 0.018511442 -0.01188333
-0.02611593 -0.059798401 0.050936799
-0.02611593 -0.059798401 0.050936799
-0.02611593 -0.059798401 0.050936799
-0.02611593 -0.059798401 0.050936799
-0.075284727 0.013772569 -0.02483749
-0.079300888 0.023839492 -0.027581118
-0.071056858 0.014540975 -0.012898702
-0.083237313 0.039851122 -0.027217664
-0.02611593 -0.059798401 0.050936799
-0.02611593 -0.059798401 0.050936799
-0.02611593 -0.059798401 0.050936799
-0.02611593 -0.059798401 0.050936799
-0.081286646 0.017811507 -0.02565233
-0.087361611 0.031957291 -0.03228496
-0.088300429 0.037923679 -0.030158732
-0.087210007 0.041847058 -0.026106805
-0.02611593 -0.059798401 0.050936799
-0.02611593 -0.059798401 0.050936799
-0.02611593 -0.059798401 0.050936799
-0.02611593 -0.059798401 0.050936799
-0.087273762 0.02083254 -0.025485534
-0.093330011 0.034960221 -0.031118505
-0.096312828 0.043987546 -0.031899624
-0.091167904 0.042825066 -0.024014305
-0.02611593 -0.059798401 0.050936799
-0.02611593 -0.059798401 0.050936799
-0.02611593 -0.059798401 0.050936799
-0.02611593 -0.059798401 0.050936799
-0.096300788 0.027917914 -0.028189275
-0.10032781 0.040002581 -0.031896539
-0.10432525 0.050051417 -0.033640508
-0.099195108 0.04990685 -0.026736833
-0.02611593 -0.059798401 0.050936799
-0.02611593 -0.059798401 0.050936799
-0.02611593 -0.059798401 0.050936799
-0.02611593 -0.059798401 0.050936799
-0.10125457 0.029899335 -0.026059959
-0.10628142 0.041987605 -0.029748429
-0.10623914 0.047968492 -0.02864065
-0.10313427 0.050866764 -0.023644671
-0.02611593 -0.059798401 0.050936799
-0.02611593 -0.059798401 0.050936799
-0.02611593 -0.059798401 0.050936799
-0.02611593 -0.059798401 0.050936799
-0.10821886 0.033905692 -0.02485669
-0.11426032 0.047015451 -0.029508013
-0.11118899 0.050949741 -0.026493326
-0.11012816 0.056908961 -0.024404686
-0.02611593 -0.059798401 0.050936799
-0.02611593 -0.059798401 0.050936799
-0.02611593 -0.059798401 0.050936799
-0.02611593 -0.059798401 0.050936799
-0.11822698 0.040976565 -0.026541978
-0.12122067 0.052021641 -0.028286718
-0.12117445 0.059002366 -0.027160935
-0.12013236 0.064979672 -0.026071955
-0.02611593 -0.059798401 0.050936799
-0.02611593 -0.059798401 0.050936799
-0.02611593 -0.059798401 0.050936799
-0.02611593 -0.059798401 0.050936799
-0.12719785 0.048007678 -0.02624673
-0.13222076 0.06109577 -0.029917192
-0.12712413 0.061987206 -0.024994813
-0.12607418 0.06996417 -0.023869798
-0.02611593 -0.059798401 0.050936799
-0.02611593 -0.059798401 0.050936799
-0.02611593 -0.059798401 0.050936799
-0.02611593 -0.059798401 0.050936799
-0.1311183 0.04894951 -0.022154905
-0.14420193 0.07015539 -0.030529197
-0.14013079 0.074086092 -0.027533293
-0.13101317 0.070927665 -0.020758841
-0.02611593 -0.059798401 0.050936799
-0.02611593 -0.059798401 0.050936799
-0.02611593 -0.059798401 0.050936799
-0.02611593 -0.059798401 0.050936799
-0.14710175 0.062040895 -0.023619343
-0.1541539 0.077171996 -0.029215503
-0.15107863 0.082106113 -0.026182797
-0.14603031 0.085051492 -0.024223369
-0.02611593 -0.059798401 0.050936799
-0.02611593 -0.059798401 0.050936799
-0.02611593 -0.059798401 0.050936799
-0.02611593 -0.059798401 0.050936799
-0.1650957 0.077157214 -0.02600982
-0.16810814 0.088220373 -0.028754231
-0.1630559 0.092165574 -0.026776776
-0.15999542 0.09811762 -0.02472572
-0.02611593 -0.059798401 0.050936799
-0.02611593 -0.059798401 0.050936799
-0.02611593 -0.059798401 0.050936799
-0.02611593 -0.059798401 0.050936799
-0.18206027 0.090234101 -0.026455797
-0.18102902 0.098229155 -0.026330438
-0.17899796 0.10622061 -0.026223872
-0.17093933 0.10713747 -0.023357198
-0.02611593 -0.059798401 0.050936799
-0.02611593 -0.059798401 0.050936799
-0.02611593 -0.059798401 0.050936799
-0.02611593 -0.059798401 0.050936799
-0.20298965 0.10730658 -0.02575488
-0.20097731 0.11531612 -0.026647981
-0.19092299 0.11522597 -0.0238369
-0.18690014 0.1212106 -0.023803949
-0.02611593 -0.059798401 0.050936799
-0.02611593 -0.059798401 0.050936799
-0.02611593 -0.059798401 0.050936799
-0.02611593 -0.059798401 0.050936799
-0.22389638 0.1253608 -0.024036296
-0.21987356 0.13134542 -0.024003346
-0.21385895 0.13532321 -0.024044015
-0.2108468 0.14332917 -0.024955887
-0.02611593 -0.059798401 0.050936799
-0.02611593 -0.059798401 0.050936799
-0.02611593 -0.059798401 0.050936799
-0.02611593 -0.059798401 0.050936799
-0.25178218 0.14843929 -0.022096064
-0.25380567 0.16151661 -0.025822897
-0.24077454 0.16043393 -0.024085861
-0.22573681 0.15632653 -0.021440811
-0.02611593 -0.059798401 0.050936799
-0.02611593 -0.059798401 0.050936799
-0.02611593 -0.059798401 0.050936799
-0.02611593 -0.059798401 0.050936799
-0.80167311 0.64916521 -0.1597897
-0.76770103 0.65307868 -0.1623558
-0.26164383 0.17845199 -0.020367946
-0.25464812 0.18244426 -0.021427065
-0.80331707 0.64882874 -0.14075854
-0.76736104 0.6487357 -0.14343433
-0.02611593 -0.059798401 0.050936799
-0.02611593 -0.059798401 0.050936799
-0.80596071 0.64849579 -0.12170861
-0.77004218 0.64843899 -0.12638371
-0.74110669 0.65240651 -0.1308552
-0.70816886 0.65234232 -0.13447428
-0.80959642 0.65016609 -0.10260384
-0.77372319 0.64814579 -0.10931432
-0.74281466 0.65012461 -0.11485909
-0.71290976 0.65110719 -0.12040308
-0.80623424 0.64679402 -0.082721047
-0.77938807 0.6518591 -0.092135265
-0.74951679 0.65387774 -0.09966056
-0.71865749 0.6528933 -0.10725872
-0.80389076 0.64344376 -0.063819125
-0.7810694 0.65155876 -0.075103432
-0.7482183 0.64856744 -0.082775205
-0.72337574 0.65263993 -0.092169844
-0.80853707 0.64713538 -0.045659199
-0.77874851 0.64722669 -0.057219207
-0.75293267 0.64931387 -0.067668319
-0.72612089 0.65039772 -0.078154258
-0.80718547 0.64578825 -0.026702449
-0.78040719 0.64790809 -0.039169692
-0.75262225 0.64700675 -0.050710127
-0.72983932 0.65014076 -0.063084178
-0.80782562 0.64644802 -0.0076720864
-0.78109264 0.6466043 -0.022174686
-0.75732869 0.64975286 -0.035567187
-0.7265678 0.64284182 -0.047272094
-0.80547029 0.64609712 0.011283897
-0.78077435 0.6462968 -0.0051804408
-0.75803679 0.64746732 -0.019589871
-0.73529917 0.64863789 -0.033999287
-0.80512935 0.64677137 0.029295821
-0.78244793 0.64799613 0.011887409
-0.76172858 0.64919192 -0.0034840778
-0.7380178 0.64837724 -0.018947996
-0.80177808 0.64541709 0.048214987
-0.78211087 0.64767051 0.02988131
-0.76043707 0.64689922 0.012455672
-0.73974049 0.64711332 -0.0039335117
-0.80143321 0.64709109 0.066244923
-0.78278852 0.64836645 0.046912365
-0.76113737 0.64661342 0.028469037
-0.74445099 0.64885962 0.01119139
-0.79512781 0.64376259 0.083072364
-0.77947861 0.64604849 0.063814193
-0.7618376 0.64632756 0.044482403
-0.74418193 0.64558882 0.026132248
-0.78979957 0.64141941 0.10093628
-0.77817529 0.64675528 0.079807997
-0.76052344 0.64501667 0.061439827
-0.74689651 0.64632797 0.041201558
-0.79241967 0.64708543 0.12009431
-0.7728737 0.64243054 0.096636206
-0.75922799 0.64372379 0.0773976
-0.74562764 0.64305359 0.056123629
-0.78013504 0.63873619 0.13671891
-0.77454317 0.64512968 0.11372209
-0.75795132 0.64244908 0.092355713
-0.74834239 0.64379287 0.071192943
-0.77880126 0.64242435 0.15376644
-0.76823783 0.64180112 0.13054952
-0.75864756 0.64316303 0.10838709
-0.75105309 0.64553195 0.086280257
-0.77049625 0.63908875 0.17055631
-0.76593471 0.64250439 0.14652453
-0.7573483 0.64287001 0.12436288
-0.74679261 0.64024711 0.10110992
-0.7641868 0.63676 0.18740176
-0.75865203 0.63819051 0.16231552
-0.76102829 0.64759415 0.14052272
-0.7504766 0.64397138 0.11725172
-0.76382625 0.6424334 0.20550378
-0.76129097 0.64387465 0.18047389
-0.75574148 0.64428729 0.15636928
-0.75119561 0.64370364 0.13226543
-0.7525484 0.63710529 0.22120155
-0.75402325 0.64057869 0.19528322
-0.75047719 0.63999873 0.17119816
-0.74990016 0.64241076 0.14822321
-0.75121462 0.6407935 0.23824908
-0.75169748 0.64226371 0.21227592
-0.74915516 0.64068735 0.18819164
-0.74862343 0.64113599 0.16318133
-0.74092871 0.63746876 0.25400168
-0.74540687 0.63995308 0.22812171
-0.74687475 0.64040887 0.20314898
-0.74831992 0.64184642 0.17919391
-0.73462623 0.63815767 0.26990154
-0.74011219 0.63864589 0.24400431
-0.74357569 0.64010864 0.21908718
-0.74505144 0.63856483 0.1940784
-0.72338182 0.63386554 0.28361803
-0.73383236 0.63835299 0.25888649
-0.73928082 0.63880509 0.23498857
-0.74673975 0.64128208 0.21016462
-0.71707946 0.63455439 0.2995179
-0.72755659 0.63706034 0.27375063
-0.73697376 0.64050812 0.2509816
-0.74047571 0.63698989 0.22497472
-0.70979595 0.63525778 0.3143993
-0.71928501 0.6347605 0.2885592
-0.7307058 0.63721585 0.26580971
-0.74114549 0.63968545 0.2420418
-0.70151657 0.63495779 0.32924387
-0.71595556 0.63744181 0.30555111
-0.72642183 0.63792992 0.28074747
-0.73886496 0.63940692 0.25699914
-0.69126415 0.63266897 0.34301519
-0.7057296 0.63317144 0.31828672
-0.72212297 0.63762617 0.29666692
-0.73656583 0.63911033 0.27295613
-0.68298084 0.63336873 0.35787779
-0.70536906 0.63884479 0.33638871
-0.71684301 0.63733685 0.31156787
-0.728306 0.63381112 0.28771064
-0.67272836 0.63107997 0.37164912
-0.69513935 0.63557434 0.34914237
-0.71156704 0.63604778 0.32645082
-0.72799468 0.63652122 0.30375928
-0.66051775 0.62782031 0.38336551
-0.68785584 0.63627768 0.36402377
-0.70528728 0.63575494 0.34133297
-0.72369587 0.63621742 0.31967866
-0.65422225 0.63152677 0.39831978
-0.67860323 0.63399243 0.37781388
-0.70000732 0.63546562 0.35623395
-0.72139275 0.63692069 0.33565372
-0.64396197 0.63123763 0.41212714
-0.66837341 0.63072193 0.39056751
-0.69372761 0.63517272 0.3711161
-0.71808982 0.63762027 0.35160995
-0.62979692 0.62600732 0.42177057
-0.66308171 0.63343209 0.40552253
-0.68150997 0.62889552 0.3837781
-0.70984483 0.63333899 0.36538276
-0.6244747 0.63169891 0.43777931
-0.65284401 0.6321612 0.41831219
-0.6791724 0.63357997 0.40082484
-0.70454615 0.63303161 0.3812834
-0.61327863 0.62946087 0.44853285
-0.64358354 0.63187563 0.43213832
-0.67191148 0.63330162 0.41468859
-0.70221257 0.63671625 0.39831212
-0.60402906 0.63119304 0.46139532
-0.63729215 0.63458234 0.44707459
-0.66365486 0.63201976 0.42851549
-0.69494092 0.63442022 0.41313949
-0.59083337 0.62894773 0.47211131
-0.62412679 0.62935561 0.4567368
-0.65639395 0.6317414 0.44237924
-0.68766135 0.63412374 0.42800286
-0.58061045 0.62869483 0.48391932
-0.61291206 0.62709939 0.46849
-0.65106094 0.63541532 0.4593516
-0.68038565 0.6328274 0.44284821
-0.57037979 0.63044149 0.49576339
-0.60661662 0.63080579 0.48344427
-0.64182311 0.63414806 0.47216004
-0.67311001 0.63153106 0.45769358
-0.55817604 0.63019937 0.50653416
-0.59542048 0.62856776 0.49419779
-0.627662 0.62791795 0.48178551
-0.66583049 0.63123465 0.47255698
-0.54502171 0.6269905 0.5152328
-0.58420181 0.62731141 0.50596905
-0.62135178 0.63060635 0.49772137
-0.65657389 0.62994927 0.48636511
-0.53774124 0.6317113 0.52918661
-0.57690263 0.6320141 0.52092248
-0.61211389 0.62933916 0.51052982
-0.65124863 0.63162351 0.50330144
-0.52262861 0.62753153 0.53583032
-0.5647254 0.62979043 0.53065759
-0.60284954 0.6300534 0.52437401
-0.63904196 0.62736404 0.51499975
-0.51043969 0.62830734 0.54561943
-0.55547583 0.63152272 0.54352009
-0.59065753 0.62681192 0.53509074
-0.63273561 0.6290527 0.53091764
-0.49923182 0.62906873 0.55642706
-0.54425317 0.63126612 0.55530936
-0.58043861 0.62555909 0.54688072
-0.6224792 0.62776381 0.544707
-0.48804268 0.62984818 0.56623495
-0.53012162 0.6270718 0.56297147
-0.57117027 0.6272732 0.56074291
-0.61517316 0.62944883 0.56060606
-0.47295272 0.62468666 0.57186097
-0.51989096 0.62881845 0.57481551
-0.56387508 0.63097614 0.57567835
-0.60589004 0.63014513 0.57544982
-0.46175182 0.62846559 0.58172297
-0.50673664 0.62560964 0.58351409
-0.548729 0.62576032 0.58430332
-0.59563363 0.62885606 0.58923924
-0.4495855 0.62825972 0.59049445
-0.49454769 0.62638545 0.59330332
-0.54043776 0.62845969 0.59920204
-0.58341902 0.62659633 0.60097361
-0.43546483 0.6260832 0.597193
-0.4852902 0.63011736 0.60620189
-0.53018844 0.63018841 0.61204571
-0.57510912 0.62927765 0.61687195
-0.42331332 0.62689531 0.60498279
-0.4740597 0.63186044 0.61802709
-0.5140838 0.62400532 0.61863458
-0.56091756 0.62602895 0.62755108
-0.41018859 0.62572217 0.61171812
-0.45898849 0.62671697 0.62265348
-0.50383437 0.62573391 0.63147837
-0.54869896 0.62476903 0.63930351
-0.39703724 0.62653059 0.61948913
-0.4458223 0.62650752 0.63140619
-0.49355838 0.62944418 0.64535779
-0.53938931 0.62744671 0.65518308
-0.38490841 0.62636095 0.62626129
-0.43267882 0.62531632 0.63914114
-0.48135462 0.62920207 0.65612853
-0.52519375 0.62519789 0.6658802
-0.37177581 0.62718749 0.63303268
-0.42146316 0.62807739 0.64998478
-0.4672192 0.62600756 0.6638087
-0.51392579 0.62690473 0.67970479
-0.35771525 0.62406546 0.63671416
-0.40829703 0.62786788 0.65873748
-0.45303845 0.62477666 0.67352426
-0.49973425 0.62365609 0.69038391
-0.34651428 0.62784439 0.64657617
-0.39705864 0.63161069 0.67059875
-0.43987626 0.6235674 0.6822589
-0.48748907 0.62437773 0.70317203
-0.33240452 0.62768561 0.65231109
-0.3820022 0.62748516 0.67424345
-0.42666873 0.62432158 0.69302887
-0.47619456 0.62806624 0.71803242
-0.31933597 0.62656671 0.6560474
-0.36787766 0.62630838 0.68096006
-0.41443449 0.62706089 0.70485342
-0.45813173 0.62091237 0.72256631
-0.30619943 0.62839317 0.66283679
-0.35374916 0.62613159 0.68769455
-0.39931405 0.62488079 0.71153307
-0.44586393 0.62261569 0.73637217
-0.29213497 0.62627083 0.66653633
-0.33966595 0.62399125 0.69239384
-0.38610262 0.62663484 0.72232121
-0.43070209 0.62139922 0.74506927
-0.27715734 0.62121791 0.6661644
-0.32649198 0.62578142 0.70118248
-0.37197804 0.62545812 0.7290377
-0.41552156 0.62016469 0.75476599
-0.26594853 0.62699652 0.67606241
-0.31143162 0.62265581 0.70484519
-0.35681623 0.62424165 0.73773479
-0.40129158 0.62189704 0.76653481
-0.2519215 0.62491041 0.67776269
-0.29825372 0.62544578 0.71365196
-0.34168792 0.62406117 0.74445057
-0.38803878 0.62461466 0.77934021
-0.2388037 0.62675488 0.68355232
-0.28414002 0.62628686 0.71940488
-0.32844985 0.62779677 0.75627428
-0.37187713 0.62339461 0.78801847
-0.22573119 0.62663585 0.68730676
-0.26909834 0.62317926 0.72206789
-0.3123897 0.62466753 0.75991821
-0.35284802 0.61727321 0.79055232
-0.21072307 0.62456423 0.68798852
-0.25498468 0.62402034 0.72782087
-0.29632956 0.62153834 0.76356214
-0.33952731 0.62293607 0.80641073
-0.19673742 0.6215145 0.68767136
-0.24089362 0.62387961 0.7325561
-0.28215575 0.62332487 0.77233207
-0.3224259 0.62076688 0.8120532
-0.18368755 0.62041378 0.69040811
-0.22584803 0.62177193 0.73523718
-0.26698211 0.62510788 0.78108323
-0.3053019 0.61957943 0.81871343
-0.17055796 0.62525773 0.69625187
-0.21168512 0.62557626 0.74304348
-0.24993691 0.62299293 0.78372675
-0.28815523 0.61937368 0.82639128
-0.15750809 0.62415701 0.69898856
-0.19663954 0.6234684 0.74572456
-0.23383145 0.62182719 0.78940606
-0.27200443 0.62017143 0.83410591
-0.14346927 0.62507039 0.70074278
-0.18158612 0.62336034 0.7484417
-0.21871792 0.62266463 0.79514015
-0.25392589 0.61701685 0.83871198
-0.02611593 -0.059798401 0.050936799
-0.16748722 0.62521935 0.75321293
-0.20167272 0.62054974 0.79778367
-0.23677136 0.61881077 0.84642583
-0.02611593 -0.059798401 0.050936799
-0.15246037 0.62312967 0.75489438
-0.18653655 0.62236893 0.80453545
-0.21964343 0.6186232 0.85310405
-0.02611593 -0.059798401 0.050936799
-0.13733898 0.62596685 0.76066452
-0.16955143 0.61930841 0.80416197
-0.20159841 0.61650461 0.85572875
-0.02611593 -0.059798401 0.050936799
-0.12146302 0.61900103 0.75523949
-0.15339281 0.62210578 0.81191266
-0.18346278 0.61831307 0.86242414
-0.02611593 -0.059798401 0.050936799
-0.10729224 0.62480503 0.76308179
-0.1364077 0.61904526 0.81153911
-0.16537248 0.61815798 0.86708426
-0.02611593 -0.059798401 0.050936799
-0.092325486 0.62176979 0.76174629
-0.11933592 0.61891186 0.81521839
-0.14639165 0.6140905 0.86665517
-0.02611593 -0.059798401 0.050936799
-0.077290788 0.62167978 0.76346368
-0.10232424 0.61783302 0.81588054
-0.12832399 0.61295366 0.87029755
-0.02611593 -0.059798401 0.050936799
-0.061410896 0.61571383 0.75805664
-0.086270995 0.61772126 0.81857896
-0.10931659 0.6108678 0.87090415
-0.02611593 -0.059798401 0.050936799
-0.047190882 0.62448114 0.76795232
-0.069191359 0.6195876 0.82229418
-0.091218412 0.61271238 0.87560028
-0.02611593 -0.059798401 0.050936799
-0.032242857 0.62146401 0.76561713
-0.052179679 0.61850864 0.82295632
-0.072139151 0.61457157 0.87927794
-0.02611593 -0.059798401 0.050936799
-0.016317662 0.6174615 0.76224536
-0.035228088 0.61648417 0.82060158
-0.053154416 0.6115039 0.87886685
-0.02611593 -0.059798401 0.050936799
-0.0021390207 0.62526524 0.77012378
-0.018171102 0.6173687 0.82329911
-0.03509368 0.61338466 0.88156366
-0.02611593 -0.059798401 0.050936799
0.012726258 0.6203208 0.76375383
-0.0032605221 0.61438775 0.81896454
-0.01603706 0.61426204 0.88422358
-0.02611593 -0.059798401 0.050936799
0.027746163 0.62124866 0.76448965
0.013777741 0.61529034 0.8206625
0.0018690461 0.6102705 0.87981468
-0.02611593 -0.059798401 0.050936799
0.042720772 0.62021315 0.76319009
0.030774631 0.61522937 0.82034302
0.020865569 0.61020231 0.87945765
-0.02611593 -0.059798401 0.050936799
0.057680584 0.62019551 0.7609089
0.047798097 0.61714995 0.82105929
0.039903466 0.61109775 0.88111794
-0.02611593 -0.059798401 0.050936799
0.072640389 0.62017781 0.75862783
0.064621642 0.61123466 0.81263447
0.058862541 0.61106575 0.87876165
-0.02611593 -0.059798401 0.050936799
0.087596267 0.61916029 0.75632852
0.081754431 0.61706412 0.81842113
0.077863 0.61199737 0.87842262
-0.02611593 -0.059798401 0.050936799
0.10149224 0.61720079 0.75103116
0.098623283 0.61311227 0.81203157
0.096840791 0.61194724 0.8770659
-0.02611593 -0.059798401 0.050936799
0.11751589 0.61912501 0.7517662
0.11558665 0.61408722 0.80973089
0.11573586 0.60996985 0.8716746
-0.02611593 -0.059798401 0.050936799
0.13145716 0.619129 0.74850416
0.13150491 0.61310232 0.80541354
0.13474023 0.61190128 0.87135363
-0.02611593 -0.059798401 0.050936799
0.14642091 0.62011123 0.74624097
0.14844562 0.61309564 0.80209512
0.15365794 0.61090565 0.86697984
-0.02611593 -0.059798401 0.050936799
0.16133934 0.6191299 0.74194247
0.16436386 0.61211073 0.79777777
0.17153838 0.60994977 0.86062574
-0.02611593 -0.059798401 0.050936799
0.17521659 0.61718851 0.73564541
0.18133119 0.61408561 0.79549509
0.19047873 0.60993588 0.8572697
-0.02611593 -0.059798401 0.050936799
0.19020692 0.62015224 0.73441797
0.19929437 0.61505699 0.79317558
0.20938164 0.60995811 0.85191435
-0.02611593 -0.059798401 0.050936799
0.20301639 0.6152693 0.72508663
0.21626559 0.61803162 0.79091084
0.22622089 0.60804212 0.84356159
-0.02611593 -0.059798401 0.050936799
0.21902917 0.61921114 0.72485805
0.23105991 0.61415941 0.78056031
0.24514645 0.60904616 0.83922398
-0.02611593 -0.059798401 0.050936799
0.23393279 0.61924773 0.71957791
0.24591826 0.61223251 0.7732448
0.26305348 0.61007178 0.83390546
-0.02611593 -0.059798401 0.050936799
0.247814 0.61830622 0.7132988
0.26282153 0.61226189 0.76792699
0.2809191 0.61013389 0.82656956
-0.02611593 -0.059798401 0.050936799
0.25962755 0.61442661 0.70400435
0.27977791 0.61625451 0.76468068
0.3008711 0.61311579 0.82324886
-0.02611593 -0.059798401 0.050936799
0.27453515 0.61546308 0.69874215
0.29357243 0.61238587 0.75434899
0.31560531 0.608298 0.80988127
0.26951882 0.62448901 0.64298046
0.28741649 0.61452514 0.69248188
0.30943844 0.61245501 0.7470507
0.33347881 0.61035967 0.80258143
0.28140429 0.62455451 0.63675702
0.30027911 0.61360526 0.68522203
0.32428592 0.61254591 0.7387715
0.35132572 0.61043978 0.79424596
0.29326317 0.6226384 0.62949789
0.31416816 0.61466336 0.67897892
0.3401559 0.61361492 0.73149127
0.36815411 0.61054158 0.78492957
0.30414885 0.62270749 0.62329322
0.32803452 0.61473972 0.6717183
0.35499942 0.61270595 0.72319406
0.38498253 0.61064339 0.77561319
0.30874807 0.60701787 0.60491705
0.34194621 0.61677963 0.666493
0.36880574 0.61183679 0.71291637
0.3997699 0.60978872 0.76431704
0.32065618 0.60806507 0.5997113
0.35374501 0.61391795 0.6562168
0.38363451 0.61194575 0.70363754
0.41762465 0.61186844 0.75601751
0.33151919 0.6071524 0.59248894
0.36866438 0.61795384 0.65100873
0.40057218 0.61595643 0.69939154
0.43341577 0.61201 0.74472064
0.34133705 0.60427982 0.58324999
0.37944067 0.61411405 0.63973361
0.41229218 0.6121673 0.68509877
0.44713932 0.60921353 0.73040825
0.3605088 0.62010038 0.58917922
0.39331493 0.61619014 0.63250899
0.42610237 0.61229795 0.67483908
0.4639982 0.6122967 0.72214556
0.37237552 0.62018389 0.58195615
0.40411392 0.61333209 0.62225163
0.44098037 0.61537021 0.66761363
0.47979325 0.61343807 0.71086669
0.38426492 0.6212492 0.57575071
0.41901457 0.61738598 0.61604387
0.45581302 0.61647904 0.65835285
0.49456978 0.61460119 0.69860691
0.38484615 0.60559201 0.55645007
0.42777643 0.61457133 0.60382479
0.46858206 0.61564958 0.64609462
0.50625235 0.61084825 0.68231481
0.39569438 0.60569721 0.54824609
0.44265443 0.61764359 0.59659934
0.48240015 0.61777985 0.63587105
0.52205521 0.61398923 0.67107189
0.40654257 0.60580248 0.54004216
0.45346126 0.61678523 0.58637804
0.49212047 0.61399794 0.62161577
0.53476417 0.61221427 0.65579665
0.41536459 0.60393339 0.53084004
0.46219656 0.6119889 0.57312322
0.50491607 0.61515003 0.61039323
0.54956716 0.61535889 0.64457262
0.42723525 0.60501671 0.52363491
0.46891353 0.60721791 0.55890638
0.51666653 0.61434239 0.59715414
0.55921268 0.61164933 0.62631869
0.43401229 0.60119128 0.51243502
0.47560784 0.60146511 0.54367179
0.52741724 0.61353821 0.58393383
0.56787694 0.60792518 0.60908329
0.44590953 0.60425621 0.50626564
0.48849016 0.60554433 0.53650194
0.53816783 0.61273408 0.57071352
0.57959396 0.60815346 0.59386289
0.45881057 0.60831743 0.50009549
0.50847346 0.61652499 0.53332531
0.55197501 0.61688215 0.55952626
0.59335983 0.61133784 0.58065826
0.46862146 0.60846239 0.48991093
0.51824307 0.61570632 0.52112353
0.55863196 0.61116552 0.54229236
0.60509557 0.61154807 0.56643754
0.47846988 0.60857123 0.48172575
0.52803528 0.61586946 0.50993931
0.56633776 0.60840869 0.52709305
0.6168164 0.61277616 0.55123514
0.48725447 0.60673821 0.47052431
0.53780484 0.61505085 0.49773747
0.5750702 0.60762978 0.51291066
0.62447006 0.61107337 0.53305489
0.49811047 0.60884315 0.46235639
0.54962718 0.61818808 0.48756942
0.58582866 0.60882533 0.49972641
0.63519114 0.61230505 0.51787132
0.50589913 0.60801357 0.45119175
0.55330336 0.61246413 0.47139159
0.5955686 0.61004245 0.48556125
0.64691603 0.61453301 0.50268692
0.51673257 0.60913676 0.44200611
0.56714803 0.61657608 0.46220362
0.60428226 0.60928172 0.4703792
0.65053982 0.60986316 0.48352814
0.52249891 0.60733265 0.42986143
0.56472671 0.60494709 0.44203177
0.61709362 0.61443323 0.45922875
0.66227257 0.6140908 0.46837983
0.53435868 0.61043376 0.4216927
0.572478 0.60415369 0.42886785
0.61768359 0.60579288 0.43905461
0.6679039 0.61141342 0.44921944
0.54110235 0.60764432 0.40851155
0.59241307 0.61718822 0.4227283
0.62947637 0.61096603 0.42692325
0.6746031 0.61167777 0.43309331
0.54991728 0.60879278 0.3983638
0.58595812 0.60159236 0.40155986
0.63516784 0.60923427 0.41077989
0.68328708 0.61295277 0.41594797
0.55770993 0.60896301 0.38721722
0.60791939 0.61660135 0.39641845
0.64493442 0.61243302 0.39765045
0.69199765 0.61620945 0.39983836
0.56347626 0.6071589 0.37507254
0.61567855 0.61780757 0.38329053
0.65668583 0.61664253 0.38350177
0.69562942 0.61353922 0.38071558
0.57125014 0.60734719 0.36292624
0.61936641 0.61508316 0.36716676
0.66340363 0.61688876 0.36837533
0.70131397 0.61482507 0.3636266
0.57599401 0.60456496 0.34978265
0.62914783 0.61726403 0.35501894
0.67010677 0.61815286 0.35226724
0.71000189 0.61709994 0.34649929
0.58479041 0.60573143 0.33863527
0.63588434 0.61749214 0.34089217
0.67783225 0.62039512 0.33715802
0.70963043 0.61344427 0.32743368
0.59359062 0.60789776 0.32750592
0.64160246 0.61774194 0.3257845
0.68353164 0.62066305 0.3210507
0.71529633 0.61474812 0.30934501
0.6023683 0.60908234 0.31535891
0.64733922 0.61797369 0.3116765
0.68823117 0.62093455 0.30496216
0.72301096 0.61900824 0.2932722
0.6071161 0.60729998 0.30223331
0.65305334 0.61722368 0.29655084
0.69190824 0.62022781 0.28787476
0.72667718 0.62031931 0.27522117
0.61186785 0.60651731 0.28912574
0.66182399 0.62142581 0.2834582
0.69761145 0.6214956 0.27178547
0.72833198 0.61863804 0.25715363
0.62265694 0.61069429 0.27699518
0.66754204 0.62167555 0.26835054
0.69728142 0.61880362 0.25473717
0.73097956 0.61997086 0.23812172
0.62640494 0.60891539 0.26388842
0.66722679 0.6179657 0.2522839
0.69793242 0.61612606 0.23667043
0.73063463 0.6182968 0.22009179
0.63416791 0.61112148 0.25077853
0.6719411 0.61721921 0.237177
0.70767331 0.62236059 0.22159572
0.55805701 0.4628959 0.16749403
0.63588971 0.60736823 0.23667362
0.67666334 0.61847252 0.22210614
0.69323856 0.60677528 0.20157725
0.54972756 0.45521536 0.15150562
0.64466435 0.61257023 0.22359899
0.6844154 0.6226964 0.20803264
0.55898172 0.48203382 0.1598203
0.53236824 0.43956861 0.1355422
0.64839363 0.61080945 0.20949253
0.6538834 0.59120739 0.18602723
0.55267054 0.47432801 0.14479399
0.54619205 0.45273316 0.12351744
0.65313065 0.61104476 0.19540332
0.55890954 0.49715781 0.15309295
0.55444944 0.47553772 0.13277848
0.56605709 0.47185719 0.1124877
0.64880037 0.60334992 0.17933977
0.55161732 0.48943758 0.13908508
0.56323582 0.48373923 0.11975793
0.58991045 0.49298453 0.10041919
0.5588935 0.51222765 0.14936459
0.55640346 0.49263623 0.12704925
0.58410066 0.50285953 0.10870941
0.61475676 0.51712584 0.087386273
0.54657084 0.49652669 0.13530654
0.564197 0.49782366 0.11499309
0.59086084 0.50908673 0.094690733
0.62152481 0.52535254 0.073403634
0.5513531 0.49872544 0.12325267
0.57902068 0.51098466 0.10294954
0.60466594 0.52226943 0.081666306
0.62425917 0.52961254 0.058424421
0.56819904 0.51286107 0.11218922
0.58882952 0.52016437 0.090927869
0.61042631 0.52850014 0.067666419
0.63002729 0.53784281 0.044460572
0.57599252 0.51804852 0.10013306
0.6056419 0.53533596 0.077883109
0.61518282 0.53373462 0.053667303
0.62873191 0.53913569 0.028502803
0.58478969 0.52423233 0.088076122
0.60938698 0.53757453 0.063848726
0.61793596 0.53797638 0.039687749
0.61944783 0.53342223 0.014568549
0.59056497 0.52944511 0.075057879
0.61514723 0.54380524 0.049848843
0.61667788 0.53923303 0.025729304
0.61215651 0.53071922 -0.00034888834
0.60034716 0.53664315 0.062000506
0.61189651 0.54205143 0.036873586
0.61640102 0.54050416 0.010752402
0.61389494 0.53598255 -0.015291292
0.60812593 0.54284859 0.048962697
0.61664921 0.54628605 0.022856448
0.61514294 0.54176086 -0.0032060407
0.59261125 0.52027762 -0.027180918
0.61087108 0.54509068 0.034947108
0.61637229 0.54755729 0.0078795515
0.60085893 0.53104812 -0.016136769
0.59033871 0.52255589 -0.042102218
0.61263126 0.54631853 0.021931948
0.61209917 0.54482538 -0.0060945973
0.59960097 0.53230482 -0.030095216
0.58409244 0.5218128 -0.055003084
0.60935396 0.54258323 0.0079209954
0.60583723 0.54008287 -0.019067533
0.59232831 0.52958363 -0.044012986
0.579835 0.52308023 -0.06890516
0.60208434 0.53584474 -0.0050691962
0.59456056 0.53135914 -0.032018606
0.58507049 0.52584463 -0.056949127
0.66952449 0.61537462 -0.10392673
0.59981471 0.53410542 -0.019062903
0.59131372 0.5306052 -0.044975847
0.5818128 0.52710849 -0.07086999
0.67822999 0.63168335 -0.12280112
0.59656405 0.53235173 -0.032038171
0.58804828 0.52986938 -0.058932744
0.6745097 0.62139183 -0.10591192
0.67195028 0.63197619 -0.1376833
