# .PCD v0.7 - Point Cloud Data file format
VERSION 0.7
FIELDS x y z
SIZE 4 4 4
TYPE F F F
COUNT 1 1 1
WIDTH 1383
HEIGHT 1
VIEWPOINT 0 0 0 1 0 0 0
POINTS 1383
DATA ascii
-0.77530074 0.6369527 0.23462933
-0.80255795 0.63730288 0.22114143
-0.83178425 0.64064157 0.20874481
-0.85508054 0.63599628 0.19409199
-0.77102059 0.63666701 0.24954909
-0.79724848 0.63497776 0.23800567
-0.83142459 0.6412977 0.2277564
-0.85669786 0.63764137 0.21415883
-0.76572204 0.63635963 0.2654497
-0.79492658 0.63566279 0.25498033
-0.83106494 0.64195389 0.24676797
-0.85630465 0.63726145 0.23515171
-0.76243782 0.63707745 0.28040627
-0.79358196 0.63733339 0.27299148
-0.82474089 0.63860726 0.26459509
-0.8549304 0.63689613 0.25512612
-0.75317043 0.63377422 0.29517803
-0.78926438 0.63701147 0.28991055
-0.82040852 0.63726747 0.2824958
-0.85652906 0.6385231 0.27619264
-0.74789041 0.63348496 0.31007898
-0.78791577 0.63968176 0.30793974
-0.81608003 0.63492781 0.3003785
-0.85116333 0.63614368 0.29605585
-0.74657542 0.63719124 0.32612684
-0.77567941 0.63338643 0.32160139
-0.81469399 0.63756198 0.32040697
-0.85176218 0.63776714 0.31710359
-0.74126887 0.63888353 0.34206349
-0.77036589 0.63206118 0.33848366
-0.80936188 0.63621861 0.3382889
-0.84836555 0.6383763 0.33805811
-0.73204279 0.63461673 0.35481793
-0.76900947 0.63673115 0.35654888
-0.80302984 0.63487154 0.35615206
-0.84399575 0.63700032 0.35795817
-0.72675902 0.63532734 0.36973691
-0.7646693 0.63739097 0.37448561
-0.80064791 0.63650233 0.37614372
-0.83763027 0.63461733 0.37780261
-0.71750242 0.63404191 0.38354504
-0.7554245 0.63310605 0.38823968
-0.79233891 0.63416642 0.39295161
-0.83224195 0.63321966 0.39868349
-0.71221465 0.63575232 0.39848202
-0.75107652 0.63576573 0.40621248
-0.79192615 0.63878566 0.41403455
-0.82884145 0.63482875 0.41965604
-0.70098901 0.63147837 0.41119885
-0.74180907 0.6324625 0.42098424
-0.78164411 0.6344611 0.42976916
-0.82147223 0.63344198 0.43949974
-0.69472402 0.6322034 0.42509937
-0.73747981 0.63514018 0.43795735
-0.77628541 0.63509923 0.44868678
-0.81510282 0.6320588 0.45936218
-0.68843651 0.63391024 0.44001758
-0.72621262 0.63182986 0.4526915
-0.76302654 0.62978208 0.46334735
-0.81265682 0.6356349 0.48238891
-0.67920256 0.63164312 0.45280802
-0.71891046 0.63251513 0.46857256
-0.76059538 0.63437617 0.48539239
-0.8033067 0.6342591 0.50119531
-0.6709379 0.63236099 0.46667099
-0.7106123 0.63219702 0.48441681
-0.74833244 0.63006234 0.50008976
-0.79493761 0.63286883 0.52102017
-0.66072297 0.63010836 0.47844297
-0.69838691 0.6279195 0.49711487
-0.74394691 0.63268584 0.52006185
-0.78261846 0.62850082 0.53871655
-0.64656192 0.62387824 0.48806837
-0.69501209 0.63256419 0.51614213
-0.73068029 0.62936825 0.53475845
-0.77226853 0.62712145 0.55750412
-0.64124358 0.62857002 0.50405908
-0.68278259 0.62928647 0.52885818
-0.72431773 0.63100272 0.55367529
-0.76486874 0.62871605 0.57840151
-0.63300169 0.62830615 0.51690441
-0.67348081 0.62996453 0.5447017
-0.71302414 0.6296739 0.56944519
-0.75646913 0.63030714 0.59928018
-0.62278271 0.62705338 0.52869439
-0.66519749 0.63066435 0.55956429
-0.70171183 0.62832713 0.58621466
-0.74021488 0.62397939 0.61386633
-0.61353707 0.62778574 0.54153889
-0.65394127 0.62937176 0.57333481
-0.6884678 0.62402791 0.59989363
-0.73179263 0.62655216 0.63576263
-0.60331815 0.62653297 0.55332893
-0.64266253 0.62906092 0.58812308
-0.67714757 0.62468076 0.61669916
-0.71750742 0.62321305 0.65144002
-0.5930953 0.62628001 0.56513691
-0.62847877 0.62381256 0.59876621
-0.66975868 0.6282931 0.63663292
-0.70810407 0.62580043 0.67231786
-0.58287251 0.62602711 0.57694501
-0.61919177 0.62550861 0.61362797
-0.6555109 0.62499022 0.65031105
-0.69575059 0.6254136 0.69108593
-0.57164985 0.62577051 0.58873421
-0.6069544 0.62423056 0.62638009
-0.64223641 0.62367237 0.66504365
-0.68341577 0.62504494 0.70885438
-0.55949533 0.62256509 0.59745163
-0.59371734 0.62294894 0.63911337
-0.63191211 0.6253286 0.68188608
-0.66322219 0.61775726 0.72034836
-0.55022305 0.62527913 0.61133182
-0.58148009 0.62167084 0.65186548
-0.61668324 0.62204015 0.69454575
-0.65378845 0.623326 0.74227983
-0.53901911 0.62504065 0.62212139
-0.5731436 0.62633377 0.66879952
-0.60240501 0.62171859 0.70927751
-0.63654512 0.61901242 0.75588363
-0.52586478 0.62183166 0.63082004
-0.55895203 0.62308508 0.67947865
-0.59106207 0.62335318 0.72710079
-0.62218803 0.6196183 0.77463216
-0.51756579 0.62653077 0.64575469
-0.54572976 0.62282133 0.69123024
-0.57777965 0.624035 0.74186945
-0.60690999 0.61929315 0.7893452
-0.50536197 0.62628871 0.65652543
-0.53346193 0.62452471 0.7050361
-0.56254292 0.62274617 0.75456518
-0.59353 0.62088436 0.80913019
-0.49222246 0.6240977 0.66424245
-0.52024359 0.62326115 0.7167697
-0.54630643 0.62145376 0.76724213
-0.57527906 0.61856681 0.82275116
-0.48001871 0.62385565 0.67501318
-0.50506693 0.62102675 0.72644842
-0.53204685 0.62115026 0.78097427
-0.5570429 0.61726725 0.83539051
-0.46881083 0.62461704 0.68582082
-0.49179941 0.62272656 0.74023545
-0.51385605 0.6178872 0.79157829
-0.53976911 0.61593515 0.85004795
-0.45562601 0.62438947 0.69557315
-0.47759598 0.62247729 0.75096869
-0.50054699 0.62055057 0.8073827
-0.52440035 0.61953688 0.86883175
-0.44341835 0.62514728 0.70636189
-0.46337387 0.62221003 0.76270151
-0.48430264 0.6212579 0.82009566
-0.50616419 0.61823732 0.8814711
-0.42930162 0.62197089 0.7130425
-0.44821203 0.62099349 0.7713986
-0.46808484 0.61998349 0.83177286
-0.48788273 0.61890119 0.89614582
-0.41710868 0.62374657 0.72284967
-0.43300885 0.62074071 0.78211302
-0.45088592 0.61872375 0.84243172
-0.46673378 0.61466372 0.90467608
-0.40294668 0.62253374 0.73156554
-0.41782829 0.61950612 0.79180974
-0.43266454 0.61844206 0.85408938
-0.44942945 0.61631292 0.92038727
-0.39073512 0.62429136 0.74237227
-0.40262115 0.62025315 0.80254221
-0.41548434 0.61720026 0.86374855
-0.42923111 0.61504233 0.93098968
-0.37561464 0.6221112 0.74905205
-0.38741401 0.62100017 0.81327456
-0.39728174 0.61693668 0.87440658
-0.40709716 0.61181921 0.93851954
-0.36242196 0.62388337 0.75884038
-0.36931679 0.61782748 0.81888032
-0.37718871 0.61275709 0.87995666
-0.3897436 0.61643171 0.95628405
-0.34827864 0.62268859 0.76655662
-0.35410571 0.61957437 0.82963073
-0.36091381 0.61644572 0.89372337
-0.36760962 0.61320859 0.9638139
-0.33317694 0.62052649 0.7722367
-0.33698562 0.61738712 0.83627295
-0.34272993 0.61620021 0.90338171
-0.34547174 0.61098522 0.97136176
-0.3199842 0.62229866 0.78202504
-0.31986156 0.61619961 0.84293306
-0.32359147 0.61398768 0.91098595
-0.32528424 0.61173242 0.98100054
-0.30392405 0.61916935 0.78566897
-0.30369598 0.61597943 0.85162938
-0.30346799 0.61278945 0.91758978
-0.30316502 0.60952717 0.98754883
-0.28881839 0.61800712 0.79136705
-0.28750387 0.61774075 0.86136138
-0.28525352 0.61552536 0.92830187
-0.28193638 0.61123437 0.99918616
-0.27462584 0.61977565 0.80113661
-0.26846689 0.61361897 0.8639313
-0.26519802 0.61138195 0.93185264
-0.25979456 0.61001092 1.006752
-0.25951624 0.61961329 0.80685282
-0.25225207 0.61636204 0.87468088
-0.24502924 0.61214709 0.9404918
-0.23769017 0.6088236 1.0123186
-0.2434295 0.61846566 0.81153244
-0.23418832 0.61422545 0.87830532
-0.22585636 0.6139158 0.94916779
-0.21554047 0.60959977 1.0199205
-0.22830118 0.61828518 0.81824815
-0.21610586 0.61207074 0.88292933
-0.20483848 0.60980499 0.9507004
-0.19247767 0.60744524 1.023451
-0.21221441 0.61713743 0.82292777
-0.19892868 0.61484641 0.89166093
-0.18566561 0.61157364 0.95937634
-0.16939218 0.60627234 1.027999
-0.19612767 0.6159898 0.82760745
-0.17988385 0.61272424 0.89426684
-0.16555297 0.6123932 0.96501648
-0.14721592 0.60903007 1.0366367
-0.18001433 0.61682361 0.83332282
-0.16272934 0.61451823 0.90198082
-0.14448978 0.61024576 0.96858454
-0.12417182 0.60689366 1.0391674
-0.16485551 0.61962461 0.84109223
-0.14368449 0.61239612 0.90458661
-0.12335472 0.6120435 0.97522366
-0.10099573 0.60964769 1.0477862
-0.14878748 0.61849499 0.84477228
-0.12468101 0.60931039 0.90517521
-0.10234769 0.6099503 0.97579265
-0.078030452 0.60658383 1.0463003
-0.13176492 0.61539829 0.84639812
-0.1065454 0.61111879 0.91187072
-0.082299113 0.60882449 0.97839773
-0.054955848 0.60742879 1.0498848
-0.11562894 0.61721396 0.85313106
-0.087515354 0.61001462 0.91349494
-0.061246797 0.60869485 0.98100215
-0.030945443 0.60632473 1.0504155
-0.09862119 0.61513513 0.85377526
-0.069466412 0.60889596 0.9161377
-0.040171821 0.6095469 0.98462421
-0.0079762284 0.60426056 1.0489476
-0.081526749 0.61598349 0.85847217
-0.049409971 0.6097697 0.9187789
-0.018228998 0.60550481 0.98213947
0.014992982 0.60219646 1.0474797
-0.064432316 0.6168319 0.86316907
-0.030379936 0.60866553 0.92040318
0.001831363 0.60737848 0.98479867
0.038094174 0.60502297 1.0520999
-0.047469862 0.61278963 0.8617779
-0.011345968 0.60856116 0.92204553
0.022864966 0.60726696 0.98640335
0.062112428 0.60591859 1.0526665
-0.030390229 0.61465597 0.86549312
0.0067108339 0.60944211 0.92472428
0.043774448 0.60426438 0.98195606
0.085108228 0.60583603 1.0522344
-0.013318447 0.61452258 0.86917233
0.025703428 0.60837412 0.92434919
0.065834448 0.60613084 0.98457766
0.10902501 0.6048224 1.0477668
0.0036745127 0.61346173 0.86883485
0.044737399 0.60826975 0.92599154
0.086807959 0.60507369 0.98316544
0.13198335 0.60477602 1.0453353
0.020731498 0.61434627 0.87153244
0.064779036 0.61016142 0.92765105
0.10769871 0.60208935 0.97771847
0.15491906 0.6037479 1.0418861
0.038678974 0.61131835 0.8691408
0.083730258 0.6081298 0.9252587
0.1298306 0.6079008 0.98341113
0.17779465 0.60177428 1.0354199
0.055717245 0.61222094 0.87083876
0.1037266 0.60805798 0.92488289
0.15074401 0.60589814 0.97898191
0.20177941 0.60370582 1.0340053
0.073751397 0.61212021 0.87249982
0.12264038 0.60606241 0.92049116
0.1727252 0.60683715 0.97758681
0.22474562 0.60565919 1.0316099
0.091770753 0.61303741 0.87317926
0.14268203 0.6079542 0.92215073
0.19366518 0.60681605 0.97419322
0.24760246 0.6037035 1.0241441
0.10976745 0.6129728 0.872841
0.16159581 0.60595864 0.91775894
0.21456379 0.60583127 0.96878237
0.27050462 0.60371143 1.0187136
0.12876397 0.61290461 0.87248397
0.18153204 0.60494131 0.91436619
0.23439856 0.60290468 0.96035516
0.29234689 0.60277742 1.0102848
0.14569685 0.61089814 0.8691296
0.20049113 0.6049093 0.91200984
0.2584739 0.60876328 0.96301121
0.31629816 0.60574508 1.0068889
0.16467464 0.61084807 0.86777294
0.22040863 0.60391009 0.90761739
0.27726355 0.60387683 0.95256752
0.33709526 0.60285103 0.99644363
0.18374304 0.61472487 0.87048692
0.24041677 0.60683775 0.90729564
0.2960611 0.60099006 0.94215989
0.35787764 0.60097504 0.98501676
0.20063454 0.61175489 0.86511511
0.25927436 0.60489649 0.89990491
0.32009897 0.60688484 0.94281662
0.37868264 0.60008067 0.97460759
0.21957096 0.61074114 0.86174107
0.28028625 0.6088205 0.89958239
0.33889648 0.60399801 0.93240893
0.40055543 0.60212809 0.96723253
0.23751152 0.61073083 0.85840386
0.29916653 0.60786104 0.89320946
0.35873914 0.60307109 0.92401785
0.423428 0.60417175 0.95983869
0.25542939 0.60973877 0.85404897
0.31804675 0.60690153 0.88683641
0.37962687 0.6041041 0.91764331
0.44423693 0.60427725 0.94944751
0.2754336 0.61166662 0.85370922
0.33899462 0.6088801 0.88347888
0.39945078 0.60319531 0.90825254
0.46402338 0.60340464 0.93805748
0.29437789 0.61265254 0.85037124
0.35470206 0.60207713 0.86905682
0.41931996 0.60424995 0.90089715
0.48272729 0.60060829 0.92265147
0.31120926 0.60873693 0.84198242
0.37569913 0.60701901 0.86775267
0.44017029 0.60531908 0.89252323
0.5035401 0.60171372 0.91227829
0.32909366 0.60878086 0.83564621
0.39454195 0.60609567 0.8593803
0.45900226 0.6064136 0.88318729
0.52228934 0.60088086 0.89890766
0.34801921 0.60978484 0.83130854
0.41338474 0.6051724 0.851008
0.47570258 0.6026246 0.86780089
0.54415125 0.60494584 0.89056903
0.36798987 0.61274874 0.82898754
0.43223152 0.60524893 0.84265363
0.4945119 0.60273731 0.85744721
0.56185925 0.60315299 0.87519985
0.38582894 0.61082917 0.82061595
0.45008236 0.60632879 0.83433616
0.51638854 0.60578442 0.85009021
0.5806163 0.60431975 0.86186522
0.40367195 0.60990947 0.81226248
0.4699555 0.60838336 0.82699883
0.53107059 0.60202074 0.83374178
0.59936941 0.6044867 0.84851259
0.42257878 0.61093152 0.80692506
0.48567083 0.60358006 0.81261277
0.55090624 0.60411137 0.82440501
0.61708921 0.60569328 0.83319753
0.43837684 0.60805553 0.79657376
0.50452149 0.6046564 0.80427653
0.57072318 0.60622013 0.81406868
0.63275623 0.60294396 0.81584853
0.45928726 0.61007029 0.79121691
0.52437985 0.60772878 0.79595745
0.589499 0.60736889 0.80173373
0.64945352 0.6031723 0.79953456
0.47816056 0.61212838 0.78389829
0.53910321 0.60492873 0.78162628
0.60112143 0.60267031 0.78242463
0.6671921 0.60436076 0.78521907
0.49598482 0.61122674 0.77454507
0.55893886 0.60701936 0.77228957
0.62094229 0.60577893 0.77210617
0.67879975 0.60068017 0.76492828
0.51381302 0.61132491 0.76520997
0.57470733 0.60617918 0.75997496
0.63972205 0.6079275 0.75978929
0.69449729 0.60091221 0.74863303
0.53162253 0.6114412 0.75487506
0.59249806 0.60631359 0.74864048
0.65545696 0.60812336 0.74549335
0.7132473 0.60509658 0.73435289
0.54738712 0.60960126 0.74254251
0.60822916 0.60550958 0.73432654
0.66706073 0.60344285 0.72518462
0.72792238 0.60435045 0.71705872
0.56212914 0.60678303 0.72921097
0.62600505 0.60666186 0.72201043
0.68175447 0.60267866 0.70889008
0.73751175 0.60069507 0.69580591
0.58093846 0.60689569 0.71885729
0.63866878 0.60292339 0.70469975
0.69851577 0.60485244 0.69561118
0.75322098 0.6039266 0.67956471
0.5997743 0.60899001 0.70953941
0.65544873 0.60507917 0.69242054
0.7132135 0.60508806 0.6793347
0.76585901 0.6032238 0.66030884
0.61859542 0.61210215 0.69923979
0.67322868 0.60723126 0.68012238
0.72791117 0.60532367 0.66305828
0.77850091 0.60352081 0.64107102
0.63227755 0.60834199 0.68291008
0.6869148 0.60447097 0.66381067
0.74056792 0.60460275 0.64480209
0.79013896 0.60282159 0.62183392
0.65313965 0.61241072 0.67459029
0.70365739 0.60666287 0.64953202
0.75526947 0.60583818 0.62854362
0.80382597 0.60507852 0.60461265
0.66989315 0.61258483 0.66127527
0.72040004 0.60885471 0.63525337
0.76794881 0.60609901 0.61130518
0.81242329 0.60342646 0.58341467
0.68153822 0.60886806 0.64298379
0.73409396 0.6080941 0.61897767
0.77756083 0.60342538 0.59106994
0.82204312 0.60275251 0.56321549
0.69727314 0.60906386 0.62868792
0.74676937 0.60735512 0.60172117
0.78921765 0.60270816 0.57283252
0.83268541 0.60305667 0.54401529
0.71605289 0.61121249 0.61637092
0.75844109 0.60561991 0.58446538
0.80390847 0.60596132 0.55561054
0.84738004 0.60730976 0.52681118
0.72772062 0.60847741 0.59909725
0.77416509 0.6078335 0.56920588
0.81761414 0.60820019 0.5393889
0.85598129 0.60665745 0.50563121
0.74241829 0.60871303 0.58282077
0.78479958 0.60613805 0.54996955
0.8333047 0.61144972 0.52214807
0.86360538 0.60699058 0.4854877
0.75913829 0.60992312 0.56752443
0.79748273 0.60739875 0.53274906
0.83585 0.60585606 0.49899137
0.87525529 0.60929084 0.46630466
0.77383989 0.61115861 0.55126601
0.81216568 0.60865223 0.51549101
0.84852237 0.6091345 0.48080724
0.88793164 0.61356908 0.44813854
0.78447038 0.60846335 0.53201169
0.82280397 0.60795665 0.49627271
0.85613859 0.60746789 0.46062768
0.89149237 0.61197114 0.42503515
0.80019444 0.61067683 0.51675218
0.83649099 0.61021352 0.47905144
0.86778849 0.60976821 0.44144467
0.89809406 0.61132604 0.40389273
0.81182867 0.60897785 0.49749708
0.84511101 0.6095432 0.4588711
0.87338251 0.60712701 0.42028499
0.90269601 0.61068815 0.38278788
0.82551175 0.61023492 0.48025781
0.85170084 0.60589862 0.43767461
0.88303268 0.60943449 0.40113953
0.91032791 0.61302084 0.36268035
0.83714986 0.60953575 0.46102074
0.86739928 0.61114788 0.42046982
0.89266038 0.61076021 0.38097644
0.91290766 0.61140841 0.34059536
0.84979177 0.60983276 0.44178289
0.8750155 0.60948133 0.40029019
0.90229201 0.61308575 0.36083135
0.91851723 0.6127665 0.31950778
0.86143392 0.61013341 0.42256382
0.8866654 0.61178154 0.38110721
0.90889752 0.61344045 0.33970696
0.92613053 0.61511743 0.29840061
0.87004608 0.60746342 0.40234748
0.89829665 0.61409998 0.36092454
0.91349947 0.61280257 0.31860209
0.92470306 0.61151963 0.27635479
0.88267696 0.60977817 0.38214597
0.90589809 0.61345124 0.33976331
0.91910523 0.61316091 0.29749644
0.93132037 0.61487377 0.25528443
0.89432299 0.61107868 0.36294496
0.91552573 0.61477697 0.31960019
0.927737 0.61549008 0.27737015
0.92989689 0.61227596 0.23325661
0.90695405 0.61339337 0.34274352
0.92313498 0.61612803 0.298475
0.92629081 0.6119104 0.25432467
0.61665112 0.39080498 0.1590901
0.91858131 0.61471194 0.32254282
0.9267332 0.61449379 0.2773709
0.93089664 0.61227232 0.23323782
0.58822197 0.37125254 0.14026231
0.92113054 0.61011809 0.29940417
0.93431985 0.61486304 0.25522804
0.59852457 0.3769443 0.15517741
-0.02611593 -0.059798401 0.050936799
0.93777657 0.61641788 0.2791996
0.93992561 0.61522138 0.23412243
0.58015454 0.36331877 0.13826916
0.55857921 0.34990299 0.11042099
0.94738543 0.61776167 0.25803682
0.61056465 0.38288209 0.15605971
0.56583309 0.35264221 0.1233391
0.550295 0.34418604 0.096467942
0.94791627 0.61319309 0.23393607
0.59419817 0.37024924 0.13913187
0.55251533 0.34296191 0.10840827
0.54604053 0.34143603 0.083493456
-0.02611593 -0.059798401 0.050936799
0.58486491 0.3615725 0.12314425
0.55727881 0.34517881 0.095354766
0.54782337 0.34364554 0.07149598
0.59312952 0.36229038 0.13700721
0.56851733 0.34892157 0.10721608
-0.02611593 -0.059798401 0.050936799
0.5415653 0.33990294 0.058541056
-0.02611593 -0.059798401 0.050936799
0.56223267 0.34319735 0.093225457
0.55779195 0.34564552 0.069344789
0.55539608 0.35004997 0.047461901
0.596578 0.36080095 0.10790582
0.5549522 0.3384766 0.079271644
-0.02611593 -0.059798401 0.050936799
0.55016452 0.34828535 0.035523884
-0.02611593 -0.059798401 0.050936799
0.55871201 0.33969724 0.066218905
0.56634587 0.35206443 0.04429226
0.56594664 0.36047909 0.0214442
0.5679124 0.33846611 0.077028044
0.57250142 0.34888062 0.053122409
-0.02611593 -0.059798401 0.050936799
-0.02611593 -0.059798401 0.050936799
0.55759805 0.32977483 0.062058862
0.56523961 0.34414172 0.040168259
0.55182624 0.3435865 0.018401971
-0.02611593 -0.059798401 0.050936799
0.56035799 0.33099911 0.049024917
0.55597037 0.33741036 0.027215647
0.5575974 0.34779948 0.005365707
0.57925403 0.37614986 -0.018535033
0.56311804 0.33222333 0.035990972
0.56172293 0.3416414 0.013179719
0.56036925 0.35202315 -0.0076141842
-0.02611593 -0.059798401 0.050936799
0.56283325 0.33149484 0.020978035
0.56246459 0.34289092 -0.00081630424
0.56311828 0.35526514 -0.02161175
0.57677943 0.37962684 -0.044434585
0.57659996 0.33969647 0.0068638623
0.56721717 0.34712553 -0.014833439
0.56687117 0.35950333 -0.035610095
-0.02611593 -0.059798401 0.050936799
0.57230806 0.33698264 -0.0081099495
0.57196987 0.35136014 -0.02885057
0.57862747 0.36972991 -0.050650313
0.59027404 0.39511675 -0.074417204
0.5640465 0.33224741 -0.021045316
0.58370352 0.36060497 -0.044908468
0.58136165 0.37398979 -0.065629527
0.61000013 0.4123677 -0.092480615
0.60176331 0.35746855 -0.041302107
0.59242982 0.36786094 -0.060946036
0.58909214 0.38224918 -0.081630282
0.89123517 0.62682056 -0.17689545
0.60048258 0.35774347 -0.056278236
0.6101445 0.38211954 -0.079025909
0.92725897 0.62967277 -0.1765182
0.88488042 0.62718576 -0.19577627
0.64813542 0.39101782 -0.081577107
0.75660861 0.48646063 -0.12889758
0.92186671 0.63007063 -0.19741713
0.87752604 0.6275546 -0.21463831
0.75565344 0.46434134 -0.12227757
0.75926805 0.4907929 -0.14787546
0.91547465 0.630472 -0.21829727
0.87216032 0.62993401 -0.23450151
0.76029772 0.46968433 -0.14227465
0.7878328 0.51519114 -0.17597844
0.91108614 0.63186604 -0.23919696
0.20209178 0.11674266 -0.027168881
0.76391953 0.47404912 -0.16327064
0.86822981 0.57568622 -0.22040445
0.21207514 0.11772469 -0.028338432
0.20002118 0.11782203 -0.031111926
0.76851547 0.48144609 -0.18623064
0.93557906 0.62824732 -0.26572996
-0.02611593 -0.059798401 0.050936799
-0.02611593 -0.059798401 0.050936799
0.7721225 0.48682883 -0.20820829
0.20798436 0.10879485 -0.031424418
0.18994929 0.10387839 -0.032175947
0.17295542 0.099921979 -0.030928917
0.2119492 0.10479926 -0.032571319
0.19491789 0.10087903 -0.033323608
-0.02611593 -0.059798401 0.050936799
-0.02611593 -0.059798401 0.050936799
0.18993175 0.089844599 -0.030428879
-0.02611593 -0.059798401 0.050936799
0.16190244 0.085963838 -0.030974478
0.14791195 0.08299651 -0.029765803
-0.02611593 -0.059798401 0.050936799
0.16189368 0.078946941 -0.030100949
-0.02611593 -0.059798401 0.050936799
-0.02611593 -0.059798401 0.050936799
0.16187012 0.072947972 -0.030209057
-0.02611593 -0.059798401 0.050936799
0.14384383 0.075048417 -0.031834118
0.13185294 0.072073892 -0.030663021
-0.02611593 -0.059798401 0.050936799
0.14281651 0.068053201 -0.031941455
-0.02611593 -0.059798401 0.050936799
-0.02611593 -0.059798401 0.050936799
0.13881935 0.059032902 -0.030029137
-0.02611593 -0.059798401 0.050936799
0.12381513 0.062104307 -0.030692879
0.11582054 0.063132852 -0.030524537
-0.02611593 -0.059798401 0.050936799
0.12578034 0.058115903 -0.0318022
-0.02611593 -0.059798401 0.050936799
-0.02611593 -0.059798401 0.050936799
0.12176445 0.049113702 -0.030889541
-0.02611593 -0.059798401 0.050936799
0.10976363 0.053174179 -0.031591646
0.10478026 0.057191432 -0.031425618
-0.02611593 -0.059798401 0.050936799
0.10577039 0.045153715 -0.029661305
-0.02611593 -0.059798401 0.050936799
-0.02611593 -0.059798401 0.050936799
0.10673184 0.040169057 -0.030769847
-0.02611593 -0.059798401 0.050936799
0.093783453 0.043179031 -0.028472196
0.093736053 0.050250195 -0.032344706
-0.02611593 -0.059798401 0.050936799
0.092741348 0.037201732 -0.029561177
-0.02611593 -0.059798401 0.050936799
-0.02611593 -0.059798401 0.050936799
0.088733308 0.030199191 -0.028612487
-0.02611593 -0.059798401 0.050936799
0.083742999 0.037234031 -0.02939206
0.083733045 0.044269014 -0.031265259
-0.02611593 -0.059798401 0.050936799
0.083689839 0.033270884 -0.031463459
-0.02611593 -0.059798401 0.050936799
-0.02611593 -0.059798401 0.050936799
0.079696596 0.025250426 -0.029533122
-0.02611593 -0.059798401 0.050936799
0.074710205 0.033285096 -0.030294679
0.073711306 0.038305927 -0.031185463
-0.02611593 -0.059798401 0.050936799
0.071701989 0.026278967 -0.02936478
-0.02611593 -0.059798401 0.050936799
-0.02611593 -0.059798401 0.050936799
0.069678791 0.020287169 -0.029435311
-0.02611593 -0.059798401 0.050936799
0.062737159 0.025275258 -0.027214363
0.062742002 0.03129233 -0.028105911
-0.02611593 -0.059798401 0.050936799
0.063669011 0.022326447 -0.030286185
-0.02611593 -0.059798401 0.050936799
-0.02611593 -0.059798401 0.050936799
0.061645821 0.016334645 -0.030356716
-0.02611593 -0.059798401 0.050936799
0.057696693 0.024329551 -0.029137749
0.058667842 0.031379044 -0.032029387
-0.02611593 -0.059798401 0.050936799
0.056639791 0.019370172 -0.031208377
-0.02611593 -0.059798401 0.050936799
-0.02611593 -0.059798401 0.050936799
0.054616593 0.013378366 -0.031278905
-0.02611593 -0.059798401 0.050936799
0.05362254 0.024416262 -0.033061232
0.048698336 0.024361851 -0.028968636
-0.02611593 -0.059798401 0.050936799
0.045693129 0.013338311 -0.027111143
-0.02611593 -0.059798401 0.050936799
-0.02611593 -0.059798401 0.050936799
0.044636231 0.0083789313 -0.029181764
-0.02611593 -0.059798401 0.050936799
0.044656783 0.01839532 -0.030001238
0.0436914 0.022380134 -0.028910715
-0.02611593 -0.059798401 0.050936799
0.042618789 0.013421433 -0.031053416
-0.02611593 -0.059798401 0.050936799
-0.02611593 -0.059798401 0.050936799
0.03762573 0.0054045618 -0.029104289
-0.02611593 -0.059798401 0.050936799
0.037661076 0.01440303 -0.028942123
0.038650941 0.021434426 -0.030834109
-0.02611593 -0.059798401 0.050936799
0.035608292 0.010447063 -0.030975942
-0.02611593 -0.059798401 0.050936799
-0.02611593 -0.059798401 0.050936799
0.031633768 0.0024085143 -0.028045941
-0.02611593 -0.059798401 0.050936799
0.03263934 0.013439233 -0.029865846
0.03167396 0.017424049 -0.028775323
-0.02611593 -0.059798401 0.050936799
0.031586371 0.0094796848 -0.031918451
-0.02611593 -0.059798401 0.050936799
-0.02611593 -0.059798401 0.050936799
0.02757833 0.0024771374 -0.030969765
-0.02611593 -0.059798401 0.050936799
0.025662359 0.0094288625 -0.027807072
0.02764811 0.015456839 -0.029735859
-0.02611593 -0.059798401 0.050936799
0.023643086 0.0044368869 -0.02785958
-0.02611593 -0.059798401 0.050936799
-0.02611593 -0.059798401 0.050936799
0.019635044 -0.0025656535 -0.026910886
-0.02611593 -0.059798401 0.050936799
0.02260674 0.0094938967 -0.030749682
0.022645101 0.014474954 -0.029659923
-0.02611593 -0.059798401 0.050936799
0.018617421 0.0024732593 -0.028801322
-0.02611593 -0.059798401 0.050936799
-0.02611593 -0.059798401 0.050936799
0.014632034 -0.0035475437 -0.026834954
-0.02611593 -0.059798401 0.050936799
0.015681997 0.00442942 -0.025709931
0.0196082 0.014521898 -0.031602871
-0.02611593 -0.059798401 0.050936799
0.012662904 -0.00055896642 -0.025743652
-0.02611593 -0.059798401 0.050936799
-0.02611593 -0.059798401 0.050936799
0.010595318 -0.0034970096 -0.028759111
-0.02611593 -0.059798401 0.050936799
0.013581809 0.0075446242 -0.031616256
0.013631037 0.010507931 -0.029562883
-0.02611593 -0.059798401 0.050936799
0.0086261928 -0.00050843263 -0.027667817
-0.02611593 -0.059798401 0.050936799
-0.02611593 -0.059798401 0.050936799
0.0065921289 -0.0044824812 -0.028701968
-0.02611593 -0.059798401 0.050936799
0.010544909 0.0075915693 -0.033559218
0.010598065 0.011554706 -0.031487811
-0.02611593 -0.059798401 0.050936799
0.0046190708 -0.0024937307 -0.02762869
-0.02611593 -0.059798401 0.050936799
-0.02611593 -0.059798401 0.050936799
0.0025366903 -0.0044138581 -0.031625781
-0.02611593 -0.059798401 0.050936799
0.0036201687 0.002527093 -0.028519463
0.0065613575 0.01160524 -0.033411983
-0.02611593 -0.059798401 0.050936799
0.0015525823 -0.000410954 -0.031534918
-0.02611593 -0.059798401 0.050936799
-0.02611593 -0.059798401 0.050936799
-0.0014812992 -0.0043814136 -0.032550287
-0.02611593 -0.059798401 0.050936799
-0.00039782096 0.0025595375 -0.029443961
0.001606654 0.0085694334 -0.030373096
-0.02611593 -0.059798401 0.050936799
-0.0034356345 -0.0024107522 -0.030477349
-0.02611593 -0.059798401 0.050936799
-0.02611593 -0.059798401 0.050936799
-0.02611593 -0.059798401 0.050936799
-0.02611593 -0.059798401 0.050936799
-0.0034307907 0.0036063131 -0.031368889
-0.0023817448 0.0065660309 -0.029334307
-0.02611593 -0.059798401 0.050936799
-0.0064538079 -0.0023818966 -0.031420629
-0.02611593 -0.059798401 0.050936799
-0.02611593 -0.059798401 0.050936799
-0.02611593 -0.059798401 0.050936799
-0.02611593 -0.059798401 0.050936799
-0.0074339877 0.0026208381 -0.031311747
-0.0054147146 0.0076128137 -0.031259235
-0.02611593 -0.059798401 0.050936799
-0.02611593 -0.059798401 0.050936799
-0.02611593 -0.059798401 0.050936799
-0.02611593 -0.059798401 0.050936799
-0.02611593 -0.059798401 0.050936799
-0.02611593 -0.059798401 0.050936799
-0.02611593 -0.059798401 0.050936799
-0.0093883211 0.0045914995 -0.029238813
-0.02611593 -0.059798401 0.050936799
-0.02611593 -0.059798401 0.050936799
-0.02611593 -0.059798401 0.050936799
-0.02611593 -0.059798401 0.050936799
-0.02611593 -0.059798401 0.050936799
-0.02611593 -0.059798401 0.050936799
-0.02611593 -0.059798401 0.050936799
-0.012421289 0.0056382748 -0.031163741
-0.02611593 -0.059798401 0.050936799
-0.018455541 -0.0033386638 -0.031213161
-0.02611593 -0.059798401 0.050936799
-0.02611593 -0.059798401 0.050936799
-0.02611593 -0.059798401 0.050936799
-0.02611593 -0.059798401 0.050936799
-0.02611593 -0.059798401 0.050936799
-0.016390966 0.003616791 -0.029125296
-0.02611593 -0.059798401 0.050936799
-0.022454809 -0.0033243084 -0.031137999
-0.02611593 -0.059798401 0.050936799
-0.02611593 -0.059798401 0.050936799
-0.02611593 -0.059798401 0.050936799
-0.02611593 -0.059798401 0.050936799
-0.02611593 -0.059798401 0.050936799
-0.019438729 0.0056814863 -0.032031871
-0.02611593 -0.059798401 0.050936799
-0.02611593 -0.059798401 0.050936799
-0.02611593 -0.059798401 0.050936799
-0.02611593 -0.059798401 0.050936799
-0.02611593 -0.059798401 0.050936799
-0.02611593 -0.059798401 0.050936799
-0.02611593 -0.059798401 0.050936799
-0.023423204 0.0046779225 -0.030975062
-0.02611593 -0.059798401 0.050936799
-0.02611593 -0.059798401 0.050936799
-0.02611593 -0.059798401 0.050936799
-0.02611593 -0.059798401 0.050936799
-0.02611593 -0.059798401 0.050936799
-0.02611593 -0.059798401 0.050936799
-0.02611593 -0.059798401 0.050936799
-0.027437266 0.0057101976 -0.031881548
-0.02611593 -0.059798401 0.050936799
-0.02611593 -0.059798401 0.050936799
-0.02611593 -0.059798401 0.050936799
-0.02611593 -0.059798401 0.050936799
-0.02611593 -0.059798401 0.050936799
-0.02611593 -0.059798401 0.050936799
-0.02611593 -0.059798401 0.050936799
-0.029407309 0.0036815363 -0.029880684
-0.02611593 -0.059798401 0.050936799
-0.02611593 -0.059798401 0.050936799
-0.02611593 -0.059798401 0.050936799
-0.02611593 -0.059798401 0.050936799
-0.02611593 -0.059798401 0.050936799
-0.02611593 -0.059798401 0.050936799
-0.02611593 -0.059798401 0.050936799
-0.033387855 0.0036778026 -0.028805856
-0.02611593 -0.059798401 0.050936799
-0.02611593 -0.059798401 0.050936799
-0.02611593 -0.059798401 0.050936799
-0.02611593 -0.059798401 0.050936799
-0.02611593 -0.059798401 0.050936799
-0.02611593 -0.059798401 0.050936799
-0.02611593 -0.059798401 0.050936799
-0.036420826 0.004724578 -0.030730788
-0.02611593 -0.059798401 0.050936799
-0.02611593 -0.059798401 0.050936799
-0.02611593 -0.059798401 0.050936799
-0.02611593 -0.059798401 0.050936799
-0.02611593 -0.059798401 0.050936799
-0.02611593 -0.059798401 0.050936799
-0.02611593 -0.059798401 0.050936799
-0.040401373 0.0047208448 -0.029655971
-0.02611593 -0.059798401 0.050936799
-0.04741279 -0.0032707634 -0.028668918
-0.02611593 -0.059798401 0.050936799
-0.02611593 -0.059798401 0.050936799
-0.02611593 -0.059798401 0.050936799
-0.02611593 -0.059798401 0.050936799
-0.04744539 0.0027824841 -0.031559791
-0.043404751 0.0037317807 -0.029617615
-0.02611593 -0.059798401 0.050936799
-0.05242274 -0.0012350684 -0.029538594
-0.02611593 -0.059798401 0.050936799
-0.02611593 -0.059798401 0.050936799
-0.057448402 -0.0031986963 -0.030480333
-0.02611593 -0.059798401 0.050936799
-0.051425934 0.0027787504 -0.030484963
-0.047385294 0.0037280472 -0.028542787
-0.02611593 -0.059798401 0.050936799
-0.02611593 -0.059798401 0.050936799
-0.02611593 -0.059798401 0.050936799
-0.02611593 -0.059798401 0.050936799
-0.02611593 -0.059798401 0.050936799
-0.02611593 -0.059798401 0.050936799
-0.055406481 0.0027750172 -0.02941015
-0.052428763 0.0067997435 -0.031393766
-0.02611593 -0.059798401 0.050936799
-0.058331955 -0.0023038075 -0.02444556
-0.02611593 -0.059798401 0.050936799
-0.02611593 -0.059798401 0.050936799
-0.065401636 -0.0012065019 -0.028294649
-0.02611593 -0.059798401 0.050936799
-0.058372416 0.001749775 -0.027372472
-0.056442827 0.0078320261 -0.032300252
-0.02611593 -0.059798401 0.050936799
-0.064375244 0.00077148154 -0.027277745
-0.02611593 -0.059798401 0.050936799
-0.02611593 -0.059798401 0.050936799
-0.070415519 -0.00017064111 -0.029182348
-0.02611593 -0.059798401 0.050936799
-0.063382365 0.00378547 -0.028242137
-0.059390038 0.0067886878 -0.029262912
-0.02611593 -0.059798401 0.050936799
-0.067341171 -0.0002537641 -0.025240075
-0.02611593 -0.059798401 0.050936799
-0.02611593 -0.059798401 0.050936799
-0.073325276 -0.0012501468 -0.024145681
-0.02611593 -0.059798401 0.050936799
-0.067358986 0.0047815675 -0.027149301
-0.062352046 0.0067632766 -0.027207214
-0.02611593 -0.059798401 0.050936799
-0.070303179 -0.00027917558 -0.023184378
-0.02611593 -0.059798401 0.050936799
-0.02611593 -0.059798401 0.050936799
-0.077316694 0.00076387031 -0.024034485
-0.02611593 -0.059798401 0.050936799
-0.07032492 0.0037563252 -0.025111627
-0.067380719 0.0088170683 -0.02907655
-0.02611593 -0.059798401 0.050936799
-0.077357158 0.0048174565 -0.026961397
-0.02611593 -0.059798401 0.050936799
-0.02611593 -0.059798401 0.050936799
-0.085355692 0.0048461678 -0.026811071
-0.02611593 -0.059798401 0.050936799
-0.075330943 0.0067918436 -0.02596328
-0.071342543 0.0087952456 -0.027002063
-0.02611593 -0.059798401 0.050936799
-0.082333587 0.0058171423 -0.025849763
-0.02611593 -0.059798401 0.050936799
-0.02611593 -0.059798401 0.050936799
-0.091361538 0.0078852829 -0.02764393
-0.02611593 -0.059798401 0.050936799
-0.080307379 0.0077915369 -0.024851646
-0.075308293 0.0077735926 -0.024945602
-0.02611593 -0.059798401 0.050936799
-0.090383455 0.011917187 -0.029589966
-0.02611593 -0.059798401 0.050936799
-0.02611593 -0.059798401 0.050936799
-0.097333856 0.0098883882 -0.026495494
-0.02611593 -0.059798401 0.050936799
-0.085302532 0.0088093122 -0.024739675
-0.080333039 0.0108272 -0.026796911
-0.02611593 -0.059798401 0.050936799
-0.094326548 0.011877275 -0.026515827
-0.02611593 -0.059798401 0.050936799
-0.02611593 -0.059798401 0.050936799
-0.10127303 0.0108483 -0.023403324
-0.02611593 -0.059798401 0.050936799
-0.0933524 0.014909356 -0.028479889
-0.091411941 0.018973857 -0.032444037
-0.02611593 -0.059798401 0.050936799
-0.10131349 0.014901889 -0.026330236
-0.02611593 -0.059798401 0.050936799
-0.02611593 -0.059798401 0.050936799
-0.11030791 0.01593402 -0.026143104
-0.02611593 -0.059798401 0.050936799
-0.0972955 0.014869445 -0.025405742
-0.089267373 0.012804894 -0.023592774
-0.02611593 -0.059798401 0.050936799
-0.10830043 0.017926497 -0.026144646
-0.02611593 -0.059798401 0.050936799
-0.02611593 -0.059798401 0.050936799
-0.11829074 0.019962054 -0.025920708
-0.02611593 -0.059798401 0.050936799
-0.10732627 0.020958586 -0.028108709
-0.099316865 0.018912122 -0.027295403
-0.02611593 -0.059798401 0.050936799
-0.11630197 0.021972619 -0.026921909
-0.02611593 -0.059798401 0.050936799
-0.02611593 -0.059798401 0.050936799
-0.12828407 0.02601501 -0.026624348
-0.02611593 -0.059798401 0.050936799
-0.11329859 0.022961684 -0.026960261
-0.10630381 0.02193673 -0.027109813
-0.02611593 -0.059798401 0.050936799
-0.12327018 0.024979144 -0.02573666
-0.02611593 -0.059798401 0.050936799
-0.02611593 -0.059798401 0.050936799
-0.13421895 0.027981937 -0.023476589
-0.02611593 -0.059798401 0.050936799
-0.12026681 0.025968209 -0.025775015
-0.11227612 0.023939837 -0.025961373
-0.02611593 -0.059798401 0.050936799
-0.13123429 0.028989084 -0.024514601
-0.02611593 -0.059798401 0.050936799
-0.02611593 -0.059798401 0.050936799
-0.14419354 0.034016803 -0.02318057
-0.02611593 -0.059798401 0.050936799
-0.12924552 0.030999662 -0.025515806
-0.12026288 0.02696804 -0.025756996
-0.02611593 -0.059798401 0.050936799
-0.14322332 0.036049053 -0.025162645
-0.02611593 -0.059798401 0.050936799
-0.02611593 -0.059798401 0.050936799
-0.16019271 0.043108881 -0.024717078
-0.02611593 -0.059798401 0.050936799
-0.13922405 0.036034696 -0.02523781
-0.1322667 0.035045922 -0.027386688
-0.02611593 -0.059798401 0.050936799
-0.16023318 0.047162455 -0.027643982
-0.02611593 -0.059798401 0.050936799
-0.02611593 -0.059798401 0.050936799
-0.17917562 0.056211032 -0.026125144
-0.02611593 -0.059798401 0.050936799
-0.15019847 0.04207316 -0.024923
-0.14023474 0.038056035 -0.02618264
-0.02611593 -0.059798401 0.050936799
-0.17419919 0.055211347 -0.027236767
-0.02611593 -0.059798401 0.050936799
-0.02611593 -0.059798401 0.050936799
-0.19513734 0.06526693 -0.025662329
-0.02611593 -0.059798401 0.050936799
-0.16518302 0.050143719 -0.025496654
-0.15220898 0.044098079 -0.025849041
-0.02611593 -0.059798401 0.050936799
-0.1911568 0.065270655 -0.026737142
-0.02611593 -0.059798401 0.050936799
-0.02611593 -0.059798401 0.050936799
-0.21406804 0.07731498 -0.024089418
-0.02611593 -0.059798401 0.050936799
-0.18114083 0.06019944 -0.025015824
-0.16719353 0.052168641 -0.026422702
-0.02611593 -0.059798401 0.050936799
-0.20508932 0.072283521 -0.024348624
-0.02611593 -0.059798401 0.050936799
-0.02611593 -0.059798401 0.050936799
-0.23900454 0.09240216 -0.023349378
-0.02611593 -0.059798401 0.050936799
-0.20110874 0.072287254 -0.025423456
-0.18313654 0.061206449 -0.02496022
-0.02611593 -0.059798401 0.050936799
-0.23002188 0.088370532 -0.023590565
-0.02611593 -0.059798401 0.050936799
-0.02611593 -0.059798401 0.050936799
-0.02611593 -0.059798401 0.050936799
-0.02611593 -0.059798401 0.050936799
-0.2230576 0.084364176 -0.024793841
-0.20210858 0.072290845 -0.025404666
-1.0450321 0.65640765 -0.23112653
-0.26295602 0.10850365 -0.023609776
-0.02611593 -0.059798401 0.050936799
-0.02611593 -0.059798401 0.050936799
-1.0445986 0.65197414 -0.20720671
-0.02611593 -0.059798401 0.050936799
-0.25198162 0.1024652 -0.023924582
-0.23007412 0.089424618 -0.026571531
-1.0521773 0.65360463 -0.18502781
-1.0459008 0.65628469 -0.22411013
-0.02611593 -0.059798401 0.050936799
-0.02611593 -0.059798401 0.050936799
-1.055746 0.65320295 -0.16196045
-1.0534649 0.65689707 -0.20094955
-1.0491841 0.66058415 -0.23997626
-0.26000187 0.1065294 -0.025701504
-1.0663311 0.65786159 -0.14067078
-1.0580373 0.65549916 -0.17788142
-1.0587665 0.66122192 -0.21777776
-0.02611593 -0.059798401 0.050936799
-1.0559001 0.64837503 -0.11602933
-1.0636057 0.6551047 -0.15477648
-1.0623283 0.65780258 -0.19376481
-1.0570635 0.65748674 -0.23288234
-1.0674813 0.6540373 -0.094702862
-1.0661823 0.65269971 -0.13176394
-1.0718918 0.65842223 -0.17056668
-1.065639 0.65510333 -0.20975706
-1.0670586 0.65162158 -0.071746685
-1.0697509 0.65229803 -0.10869656
-1.0804744 0.65905648 -0.14838699
-1.0852149 0.66179407 -0.18826225
-1.070642 0.65223777 -0.049660958
-1.0783256 0.65493184 -0.086480856
-1.0920298 0.66168296 -0.12511525
-1.0907573 0.65836382 -0.163212
-1.0752025 0.65383935 -0.026538759
-1.0798837 0.65250522 -0.062487431
-1.0905815 0.65622801 -0.1002326
-1.101302 0.6589691 -0.13899544
-1.0727801 0.65141642 -0.0036201775
-1.0834523 0.65210354 -0.039420076
-1.0941354 0.65480834 -0.076183587
-1.1078553 0.65756011 -0.11489005
-1.069358 0.64898998 0.019279614
-1.0850253 0.65069485 -0.016408302
-1.0926872 0.64935338 -0.05130095
-1.1033821 0.64905876 -0.088118523
-1.0699458 0.64859557 0.041290954
-1.0885713 0.65127492 0.0076767504
-1.0972369 0.64893723 -0.027215123
-1.1149186 0.65166724 -0.06384711
-1.0685154 0.64817595 0.064264372
-1.0871487 0.64885557 0.030614119
-1.1037824 0.64952803 -0.0030737072
-1.1194576 0.64923328 -0.038797669
-1.0701181 0.64880311 0.085312858
-1.0906909 0.65043545 0.054717191
-1.1093094 0.65009719 0.022048589
-1.1289759 0.65181637 -0.013564177
-1.0637151 0.64638394 0.10715662
-1.0902641 0.6490196 0.077691384
-1.1068721 0.64665639 0.045948811
-1.1314816 0.64833927 0.013428994
-1.0632844 0.6459679 0.13014883
-1.0888376 0.64760011 0.10064676
-1.112395 0.64822531 0.071089119
-1.1390082 0.64891553 0.038588859
-1.0578774 0.64455223 0.1520294
-1.0914025 0.64819473 0.12371337
-1.1139452 0.64779836 0.095118567
-1.1415021 0.64843792 0.065636083
-1.0604532 0.64716446 0.17413238
-1.0929449 0.6497674 0.14777885
-1.1124854 0.64534295 0.12005526
-1.1420417 0.64598966 0.090610355
-1.0550462 0.64574867 0.19601294
-1.0895188 0.6483407 0.17069668
-1.1150167 0.64490145 0.14510316
-1.1465353 0.6455192 0.11769516
-1.0516347 0.64534003 0.21794912
-1.0801133 0.64189345 0.19341165
-1.1125715 0.64346027 0.16903943
-1.150044 0.64606303 0.14377953
-1.0472275 0.64392787 0.23984848
-1.0786601 0.64245546 0.21740273
-1.111089 0.64198655 0.19499382
-1.1485502 0.64257157 0.17069754
-1.0468038 0.64652938 0.26189506
-1.0772072 0.64301765 0.24139383
-1.1146084 0.64454818 0.22011456
-1.1520176 0.64407915 0.19879924
-1.0334554 0.640122 0.28153592
-1.0727812 0.64158732 0.26429284
-1.1091529 0.64107853 0.24495807
-1.1505159 0.6425873 0.22575328
-1.0270671 0.63872081 0.30239803
-1.0683513 0.64115691 0.2872099
-1.1066852 0.6406191 0.26991203
-1.1510103 0.64210248 0.25276291
-1.0266209 0.642304 0.32546231
-1.0619296 0.63871974 0.31005332
-1.1061945 0.64114857 0.29592121
-1.1495088 0.64061069 0.27971697
-1.0162599 0.6389069 0.34521359
-1.0565039 0.63728595 0.33293355
-1.1017311 0.63968223 0.32081959
-1.144016 0.63710481 0.3065598
-1.0068951 0.63651317 0.36500165
-1.05207 0.63785535 0.35586861
-1.1101739 0.64720672 0.34912333
-1.1444839 0.6386016 0.33460516
-1.0044677 0.64010727 0.38702869
-1.0466442 0.63642156 0.37874886
-1.0908047 0.63674223 0.37057868
-1.1429371 0.63907325 0.36359456
-0.99311107 0.63570678 0.40674311
-1.0382378 0.63499498 0.40057305
-1.0863373 0.63627571 0.39549506
-1.1424088 0.63956654 0.39160308
-0.98374212 0.63431281 0.42654923
-1.0288354 0.63256508 0.42236048
-1.0808703 0.63580555 0.42039263
-1.1339166 0.63604999 0.41838956
-0.97934186 0.63591826 0.44750297
-1.0263746 0.63512331 0.44636878
-1.0714343 0.63233954 0.44416133
-1.1323661 0.63752145 0.44739696
-0.97294194 0.6375165 0.46841913
-1.0139993 0.63070107 0.46706411
-1.0699172 0.63484704 0.47118747
-1.1208971 0.63301229 0.47310936
-0.96259594 0.63513732 0.48718876
-1.0075433 0.63224494 0.49097928
-1.0575007 0.63138843 0.49390012
-1.1193423 0.63548368 0.50213486
-0.95420021 0.63572848 0.50804931
-1.0001326 0.63182187 0.51284027
-1.0539838 0.63388878 0.52088863
-1.1108236 0.63394862 0.529957
-0.94482744 0.63533443 0.52787346
-0.98874533 0.63040268 0.53360844
-1.0455172 0.63340789 0.54572988
-1.1042966 0.63442045 0.5578528
-0.93152326 0.63198072 0.54456931
-0.98428506 0.63295382 0.55757922
-1.0331006 0.62994921 0.56844246
-1.0947965 0.63289994 0.58465648
-0.92511946 0.63457882 0.5655036
-0.97090596 0.62952769 0.57827377
-1.028584 0.63244599 0.59541225
-1.0882469 0.6343534 0.61356992
-0.9117927 0.63220698 0.58321714
-0.9595148 0.62910837 0.59906
-1.0181364 0.63197595 0.6192162
-1.0747743 0.63083696 0.6392628
-0.90043896 0.63182378 0.60200405
-0.95503175 0.63264114 0.62404841
-1.003739 0.62852818 0.64089167
-1.0632747 0.62930924 0.66602892
-0.88811195 0.62945539 0.61973643
-0.9367364 0.62726986 0.64061433
-0.99424988 0.6290254 0.66673172
-1.0488169 0.62680715 0.69072133
-0.87480003 0.62810141 0.63646829
-0.92732227 0.62783939 0.6624558
-0.98182148 0.62856632 0.68949842
-1.0363177 0.62527585 0.71746868
-0.86246908 0.62673295 0.65421873
-0.91295427 0.62642759 0.68216789
-0.97035539 0.62807459 0.71428329
-1.0267645 0.62771839 0.74634373
-0.85210729 0.628353 0.67306042
-0.89958614 0.62501931 0.70189875
-0.953973 0.62563765 0.73493946
-1.0132841 0.62620163 0.77207273
-0.83977252 0.62798434 0.6908288
-0.89012659 0.62755227 0.72577566
-0.93954891 0.62417156 0.75765061
-0.99879992 0.62568104 0.7978009
-0.82251054 0.6236527 0.70543218
-0.87577736 0.62615854 0.74448812
-0.92316645 0.62173462 0.77830678
-0.98136151 0.62318629 0.82143724
-0.81017178 0.62428385 0.72321868
-0.85847402 0.62279058 0.76110882
-0.91071153 0.6232571 0.80210924
-0.96687728 0.6226657 0.84716535
-0.79685593 0.62392974 0.73996866
-0.84803343 0.62533814 0.78396714
-0.89726061 0.62377608 0.82587481
-0.94550359 0.61821115 0.86769152
-0.78647149 0.62653148 0.75982797
-0.83072615 0.62296999 0.80060595
-0.88185143 0.62332428 0.8475855
-0.93294716 0.62164283 0.8965283
-0.77022409 0.62322134 0.77346855
-0.81535441 0.62255436 0.82031727
-0.86151111 0.61990935 0.86614919
-0.91255069 0.61817354 0.918091
-0.75492728 0.62287807 0.78918129
-0.80295557 0.62413102 0.84112078
-0.84607935 0.62043929 0.88887751
-0.89802116 0.61961651 0.94585449
-0.74061155 0.62252033 0.80591238
-0.78855705 0.62570059 0.86188656
-0.82673502 0.61802775 0.90747803
-0.87565863 0.61717606 0.96539825
-0.72433752 0.62119174 0.82058871
-0.77122718 0.62431413 0.87954307
-0.81227642 0.62054288 0.93126088
-0.86208361 0.6205861 0.99521589
-0.70905942 0.62086654 0.8353017
-0.75391197 0.62394559 0.89621782
-0.79486364 0.62108374 0.95295203
-0.83287692 0.61224818 1.0075225
-0.69376266 0.62052327 0.85101438
-0.73755914 0.62354445 0.91491073
-0.77451551 0.61966842 0.97155178
-0.81731707 0.61666894 1.0363208
-0.68039745 0.62313241 0.86981779
-0.71437711 0.61826384 0.92538476
-0.75612569 0.61922395 0.99220639
-0.79493189 0.61521024 1.0568823
-0.66414225 0.62182194 0.88349444
-0.69997466 0.62083322 0.9461686
-0.73381531 0.61783761 1.0087693
-0.77350116 0.61571872 1.0794978
-0.64881879 0.62346023 0.90024281
-0.67970139 0.61949033 0.96076971
-0.71057314 0.6135025 1.0222602
-0.74628228 0.6103875 1.0918961
-0.62962812 0.6201936 0.91082805
-0.66236359 0.62010348 0.97846222
-0.69410706 0.61801016 1.0460416
-0.73065847 0.61675364 1.1237295
-0.61141068 0.6189121 0.92246765
-0.63820046 0.61483729 0.98791772
-0.66986507 0.61367142 1.0595138
-0.70239848 0.61238247 1.1381263
-0.59413302 0.61857969 0.93714315
-0.62472987 0.62035549 1.0117733
-0.64850926 0.61425221 1.0781307
-0.68289942 0.6158433 1.1638325
-0.57687396 0.61826551 0.9508189
-0.60249835 0.61804175 1.0243195
-0.62910771 0.61680365 1.0988207
-0.65367711 0.61150473 1.176211
-0.55958831 0.61993277 0.96553051
-0.58126271 0.61673135 1.0369025
-0.60483921 0.61444646 1.1133286
-0.62930304 0.61205661 1.1957713
-0.54230672 0.62060028 0.98022401
-0.56292117 0.61834079 1.0545943
-0.58058542 0.6131072 1.1268548
-0.60009938 0.60773623 1.2071502
-0.52121788 0.61541718 0.98573726
-0.53683722 0.61214 1.0599955
-0.55826718 0.61372066 1.1434537
-0.57761574 0.61220419 1.2318184
-0.50197792 0.61511385 0.99837583
-0.51559758 0.61182946 1.0725965
-0.53014213 0.60847628 1.1508347
-0.54649127 0.60694909 1.2391431
-0.48469236 0.61678123 1.0130873
-0.49529773 0.61246806 1.0882335
-0.50780135 0.61007142 1.1684512
-0.52209079 0.60948247 1.2597392
-0.46546727 0.61749583 1.0247443
-0.47118291 0.60925585 1.094726
-0.48256251 0.60974652 1.1809771
-0.49000776 0.60326022 1.2650276
-0.44335592 0.61329085 1.0312564
-0.4498606 0.61087269 1.1113615
-0.45830476 0.60940713 1.1945214
-0.46651644 0.60972416 1.2897131
-0.42604375 0.61693978 1.0470036
-0.42765865 0.61059469 1.1219445
-0.43208879 0.6080969 1.2060107
-0.43447092 0.6035381 1.2930024
-0.40488696 0.61470193 1.05557
-0.40447956 0.60933137 1.1314909
-0.4058876 0.6078046 1.2165185
-0.4071084 0.60609686 1.3115427
-0.38279042 0.61151493 1.0611005
-0.38030067 0.60806459 1.1410185
-0.38064486 0.60847956 1.2290623
-0.37603614 0.60189593 1.3158865
-0.36352003 0.61419302 1.0747927
-0.35805735 0.60875022 1.1536187
-0.35344777 0.60718387 1.2395332
-0.34768856 0.60546911 1.3334262
-0.34235927 0.61295497 1.0833771
-0.33298013 0.60557067 1.1580932
-0.32724658 0.60689151 1.2500409
-0.31575936 0.59839165 1.3306994
-0.32024011 0.61074978 1.0899253
-0.30975181 0.60727066 1.169693
-0.30010566 0.60565013 1.2575129
-0.28826484 0.60584116 1.3553277
-0.29813573 0.6095624 1.0954918
-0.28650475 0.60895264 1.1822925
-0.27196491 0.60440511 1.264966
-0.25535452 0.59877819 1.3515826
-0.2778655 0.61223686 1.1091653
-0.26046902 0.60480577 1.1847308
-0.24475606 0.60610884 1.275491
-0.22775064 0.61013663 1.3812813
-0.25763661 0.61394769 1.1208215
-0.23628226 0.60553861 1.1942945
-0.21761122 0.60586721 1.2829809
-0.19402471 0.59923345 1.3684483
-0.23367935 0.60888052 1.1192808
-0.21296336 0.61116558 1.209965
-0.18946657 0.60562205 1.290452
-0.16464683 0.60578454 1.387023
-0.21151489 0.6086387 1.1278644
-0.18607068 0.60414225 1.205333
-0.16040483 0.60344601 1.2938699
-0.13185279 0.59783024 1.3772619
-0.18936521 0.60941494 1.1354663
-0.1608388 0.60683489 1.2169132
-0.13229369 0.60423678 1.2993596
-0.1005166 0.60341048 1.3937818
-0.16717415 0.61115474 1.1450855
-0.13577241 0.60567296 1.2204239
-0.10423178 0.60206431 1.3027961
-0.068616986 0.59836882 1.3890917
-0.14313023 0.60901469 1.1475976
-0.10966485 0.60547113 1.2259333
-0.075120836 0.60285151 1.3082671
-0.037318259 0.60398519 1.4036121
-0.12093917 0.61075443 1.1572167
-0.083534613 0.606251 1.2324604
-0.046069965 0.60269314 1.3107212
-0.005576279 0.59708858 1.3908887
-0.096913956 0.60863256 1.1587291
-0.05759253 0.60219461 1.2299005
-0.01695901 0.6034804 1.3161923
0.025579613 0.59983218 1.3983576
-0.073760539 0.61040491 1.1663302
-0.031439647 0.60395622 1.2374452
0.011073313 0.60334373 1.3176655
0.057445712 0.59582651 1.3916864
-0.049754061 0.60830104 1.1668429
-0.0044071414 0.60382318 1.2389374
0.04012417 0.60318536 1.3201196
0.09060517 0.5995627 1.3991357
-0.025642192 0.60910618 1.1724079
0.020727197 0.60560638 1.2455012
0.069077492 0.6021176 1.3175572
-0.02611593 -0.059798401 0.050936799
-0.0026355311 0.60700589 1.1729393
0.047654301 0.60256439 1.2419407
0.09286131 0.57108247 1.2585305
0.15457866 0.60035098 1.3969514
0.021521641 0.60977453 1.1805397
0.074732102 0.60439473 1.2454681
0.12677334 0.59416407 1.302328
