# .PCD v0.7 - Point Cloud Data file format
VERSION 0.7
FIELDS x y z
SIZE 4 4 4
TYPE F F F
COUNT 1 1 1
WIDTH 1414
HEIGHT 1
VIEWPOINT 0 0 0 1 0 0 0
POINTS 1414
DATA ascii
-1.2274079 0.37877834 0.22942212
-1.2371026 0.359411 0.19624205
-1.2831448 0.45007473 0.33679172
-1.2729614 0.41970983 0.29903901
-1.2577412 0.38929081 0.26319164
-0.02611593 -0.059798401 0.050936799
-1.2985113 0.45755196 0.36922568
-1.2773869 0.42218459 0.32917684
-1.2810837 0.39777845 0.29679358
-1.2698816 0.36739188 0.26002175
-1.3486212 0.48097116 0.41260219
-1.3006878 0.43163595 0.3647961
-1.2984351 0.4042449 0.33024675
-1.2653285 0.3648352 0.28990036
-1.698639 0.62695187 0.54684162
-1.3428565 0.45006341 0.40593296
-1.3336433 0.41766629 0.37016231
-0.02611593 -0.059798401 0.050936799
-1.7336217 0.64517343 0.59784347
-1.8110855 0.6338678 0.57608193
-1.3429853 0.4220863 0.40442875
-0.02611593 -0.059798401 0.050936799
-1.7219123 0.64444655 0.63562393
-1.8311208 0.64405495 0.62565815
-1.7069578 0.55502903 0.54369527
-1.3033752 0.37714937 0.39186999
-1.7082258 0.64273083 0.6723491
-1.8193593 0.64227402 0.66641957
-1.9534127 0.64684463 0.66401124
-1.3633642 0.39747834 0.44237804
-1.695554 0.6420365 0.70811135
-1.8105705 0.64248538 0.70827299
-1.9415759 0.64499134 0.70877129
-2.0905781 0.64756203 0.70960778
-1.6788869 0.64032805 0.74378049
-1.7958319 0.63971192 0.74796033
-1.9406466 0.64710456 0.75780869
-2.0786521 0.64461833 0.75934809
-1.6662151 0.63963372 0.7795428
-1.7860433 0.63991976 0.78979504
-1.9178654 0.64124858 0.80029058
-2.0716608 0.64363807 0.81221735
-1.6505438 0.63892871 0.81524879
-1.7643474 0.63615745 0.82733351
-1.9109786 0.64237648 0.84719801
-2.0646658 0.64365768 0.86510473
-1.6318997 0.6362313 0.84986258
-1.7545589 0.63636523 0.86916816
-1.894147 0.63950545 0.89184606
-2.0536978 0.64168137 0.91688114
-1.6182241 0.63653332 0.88562423
-1.7407898 0.63657677 0.90992802
-1.8743532 0.63665974 0.93443853
-2.0407305 0.63969779 0.96862
-1.6015717 0.6358428 0.92031169
-1.7210895 0.63382155 0.94752204
-1.8624713 0.63676989 0.98123384
-2.0287402 0.63869965 1.0213954
-1.5819426 0.63415968 0.95392507
-1.7033437 0.63303697 0.98718905
-1.8505708 0.63686198 1.0290289
-2.0187042 0.63967204 1.0762436
-1.5623134 0.63247669 0.98753852
-1.6875976 0.63225961 1.0268936
-1.8317355 0.63498354 1.0736574
-1.9997566 0.63768506 1.1268702
-1.5436801 0.63179702 1.0211889
-1.6678709 0.63148594 1.0655234
-1.8158731 0.63509744 1.1193779
-1.9897017 0.63863951 1.182718
-1.5201116 0.62915403 1.05171
-1.6461711 0.6287235 1.1030798
-1.7960566 0.63323349 1.1629879
-1.9559265 0.63174427 1.2249753
-1.5014783 0.62847441 1.0853603
-1.6264443 0.62794983 1.1417097
-1.7732409 0.6313588 1.2065417
-1.9349566 0.63073182 1.2765819
-1.4808455 0.62778759 1.1189729
-1.6037555 0.62720156 1.1782837
-1.7524207 0.63049108 1.250151
-1.9307727 0.63559854 1.3386126
-1.4552963 0.62515563 1.1484569
-1.582052 0.62543899 1.2158582
-1.7227076 0.6266821 1.2885387
-1.8999327 0.63065946 1.3839612
-1.4346782 0.62548673 1.181088
-1.5564238 0.62373447 1.2493589
-1.6949527 0.62384385 1.3289815
-1.8789363 0.63162857 1.4366035
-1.4130828 0.62483245 1.2126826
-1.5268232 0.62003392 1.2817488
-1.6721328 0.62296897 1.3725532
-1.8510089 0.62962741 1.4860612
-1.3855714 0.62222946 1.2401298
-1.5070738 0.620242 1.3213961
-1.6473323 0.62210506 1.4150876
-1.8201423 0.62666988 1.5324454
-1.3659157 0.62252796 1.2747788
-1.4794461 0.61853021 1.3548594
-1.6166153 0.61929226 1.4534748
-1.7902528 0.62469774 1.5798663
-1.3374232 0.61993939 1.3012075
-1.4498414 0.61582959 1.3872672
-1.5966671 0.62231892 1.5031726
-1.772113 0.62855047 1.6396165
-1.3108889 0.61832166 1.3296912
-1.4290656 0.61801559 1.4279315
-1.5679084 0.6204769 1.5436147
-1.7362659 0.62559319 1.6849072
-1.2882711 0.61864561 1.3622845
-1.39748 0.61532587 1.4593021
-1.5303317 0.61576593 1.5748366
-1.6926007 0.61977035 1.7209966
-1.2568393 0.61510074 1.3856399
-1.3649734 0.61170501 1.4866372
-1.5015279 0.61588746 1.617314
-1.6567686 0.61783093 1.7653056
-1.2312821 0.61446834 1.4151599
-1.3392813 0.61194587 1.5231729
-1.4639287 0.61215824 1.6495534
-1.6189593 0.61490256 1.8085595
-1.2067209 0.61483932 1.4447168
-1.308669 0.61124122 1.555598
-1.4282875 0.60939991 1.6838478
-1.5831046 0.61394489 1.8538862
-1.1791643 0.61419982 1.4741994
-1.2731817 0.60762769 1.5818772
-1.3965218 0.60954684 1.7242695
-1.5384316 0.61011815 1.8899928
-1.1526221 0.6145817 1.5027189
-1.2454674 0.60884309 1.619393
-1.3627977 0.60872293 1.7626362
-1.4976565 0.60821497 1.9312091
-1.1250652 0.61394209 1.5322014
-1.2138926 0.60817111 1.6498001
-1.3202968 0.60406631 1.7897654
-1.4598207 0.60726821 1.9754984
-1.0936069 0.61237884 1.5565925
-1.1813219 0.60649568 1.6801702
-1.2855836 0.60525662 1.8271496
-1.4151212 0.60542309 2.0126407
-1.0602316 0.60888106 1.5769112
-1.1448309 0.60387838 1.7064486
-1.2517993 0.60537827 1.8685333
-1.3733424 0.60451621 2.0538564
-1.033648 0.61022663 1.6074481
-1.114192 0.60515535 1.7399093
-1.2122115 0.60365957 1.8997717
-1.3276432 0.60266757 2.0909798
-1.0002462 0.60871041 1.6288027
-1.0766972 0.60353428 1.7661868
-1.172582 0.60290462 1.9330273
-1.2838646 0.60175341 2.1321576
-0.96878767 0.6071471 1.6531937
-1.0440812 0.60382235 1.7985923
-1.1290735 0.6002441 1.9601738
-1.2352636 0.59898454 2.1642084
-0.93534428 0.60659456 1.6765654
-1.0056654 0.60127026 1.8208345
-1.0855838 0.59760177 1.9863206
-1.1847 0.59624469 2.1942222
-0.90388191 0.606031 1.7009743
-0.9690876 0.60158014 1.8511657
-1.0439695 0.59785748 2.0185571
-1.1389556 0.59635949 2.233381
-0.86952156 0.60354757 1.7202928
-0.92969078 0.59904259 1.8723893
-1.0014006 0.59614617 2.0487392
-1.087411 0.59363407 2.2623765
-0.83703673 0.60396224 1.7457007
-0.89412761 0.60037392 1.9017575
-0.95786548 0.59546727 2.0769215
-1.0358399 0.59289026 2.2924078
-0.80069542 0.60148972 1.7639817
-0.85368955 0.59879643 1.9249797
-0.91527015 0.59573746 2.1081395
-0.98813307 0.59303403 2.3295295
-0.76437283 0.5990352 1.7812631
-0.81233037 0.59628785 1.9441665
-0.86501408 0.59128743 2.1221228
-0.93456239 0.59228307 2.3595233
-0.7280463 0.59758061 1.7985625
-0.77474898 0.59759396 1.9744967
-0.82140017 0.59153593 2.1543217
-0.88011205 0.58963746 2.3834641
-0.69362193 0.5970425 1.8209158
-0.73054796 0.5932197 1.9855939
-0.77488047 0.59186423 2.1814659
-0.82087648 0.58517313 2.3962789
-0.65537465 0.59465331 1.8341609
-0.69098562 0.59453666 2.0148869
-0.7274397 0.59126139 2.2045746
-0.74481559 0.56471431 2.3494687
-0.62280315 0.59799504 1.8636217
-0.65147549 0.59690773 2.041199
-0.67998028 0.59064049 2.228683
-0.66791242 0.54239702 2.2946064
-0.5863564 0.59843159 1.886955
-0.60619593 0.59345734 2.056294
-0.63057733 0.59006661 2.2497544
-0.59407973 0.52116269 2.2358203
-0.54710931 0.59603864 1.9001815
-0.5619083 0.5920102 2.0714438
-0.57009286 0.57628423 2.2243643
-0.52705073 0.50177222 2.1871979
-0.50976038 0.59556216 1.9184797
-0.51764345 0.58958137 2.0855758
-0.50509006 0.55491942 2.1747439
-0.46391556 0.48530513 2.1437032
-0.47049057 0.59415102 1.9327238
-0.47143501 0.58719945 2.0966713
-0.44492078 0.53742719 2.133287
-0.40279877 0.46886337 2.0992465
-0.43029976 0.59180892 1.9429324
-0.42802703 0.58764702 2.1178737
-0.38766825 0.52187288 2.095921
-0.34563592 0.4543995 2.0569003
-0.39098862 0.5913614 1.9591939
-0.37559724 0.57394761 2.0896349
-0.33353138 0.50543815 2.0525956
-0.29227331 0.44276845 2.0246799
-0.35163608 0.59187758 1.9774727
-0.32242674 0.55648047 2.0483093
-0.28119522 0.49182916 2.0193582
-0.24754241 0.44892201 2.0619664
-0.31140396 0.59049904 1.9896985
-0.27487582 0.54469007 2.0261984
-0.24010301 0.50367039 2.0748217
-0.20427422 0.4625929 2.1264255
-0.27014932 0.59009862 2.0029233
-0.23564041 0.55941129 2.0887513
-0.19787207 0.51738107 2.1373005
-0.15878865 0.47905713 2.2018974
-0.22881198 0.59162551 2.0201828
-0.1943827 0.57510722 2.1522844
-0.15347993 0.53393942 2.2077925
-0.12126803 0.57204056 2.5840063
-0.18679792 0.58743924 2.0213211
-0.14952767 0.58415163 2.1956229
-0.109319 0.57489043 2.3677607
-0.06021218 0.56974959 2.5868227
-0.14446075 0.58896261 2.0385618
-0.10149208 0.5809257 2.1976657
-0.055197831 0.57457006 2.3737435
0.00081017613 0.56849468 2.5876579
-0.10236395 0.58670366 2.0437343
-0.053471282 0.57871759 2.1987271
-0.0010618567 0.5732317 2.3807085
0.060892813 0.56818891 2.5915287
-0.059169799 0.58535051 2.0539045
-0.0052928366 0.57836443 2.2078218
0.051980689 0.57198745 2.3826935
0.12185898 0.56698817 2.5893648
-0.015009351 0.58502984 2.0620749
0.042709246 0.57617432 2.2078831
0.1069667 0.57079023 2.3816421
0.18270499 0.56389636 2.5811667
0.028109912 0.58374906 2.0682464
0.091868788 0.5758357 2.2159598
0.16100907 0.56954229 2.3836079
0.24369775 0.5646773 2.5800385
0.071052819 0.58063143 2.0653849
0.14095344 0.57556945 2.2200375
0.2159389 0.56839937 2.3795578
-0.02611593 -0.059798401 0.050936799
0.1162919 0.58123457 2.077553
0.18983908 0.57248449 2.2140641
-0.02611593 -0.059798401 0.050936799
0.14917615 0.22017874 1.1821027
0.161396 0.58096457 2.0827055
0.23886363 0.57127267 2.2151248
0.14643252 0.24704023 1.190643
0.4263756 0.56229228 2.5615687
0.20532 0.57786143 2.0788257
-0.02611593 -0.059798401 0.050936799
0.20953298 0.30307385 1.3975452
0.25938252 0.28701422 1.4453377
-0.02611593 -0.059798401 0.050936799
0.34220141 0.57557648 2.2312732
0.24708579 0.31143308 1.4250026
0.54803491 0.56216192 2.5422821
0.29980922 0.58205295 2.1031408
0.39101219 0.57256401 2.2213013
0.2843982 0.31600997 1.4403921
0.60783678 0.56212747 2.5311582
0.34243685 0.57522529 2.0842128
0.27683276 0.34974346 1.4571496
0.32167321 0.3206231 1.4537821
0.36537883 0.29063311 1.4434179
0.26209226 0.38166526 1.4650058
0.49405736 0.57413971 2.2224011
0.35455483 0.32061321 1.4471642
0.40030146 0.29157963 1.4387797
0.43873456 0.57859075 2.0984752
0.5417707 0.57022142 2.2074318
0.38739508 0.31963959 1.4385288
0.78283793 0.55941886 2.4768143
0.48462468 0.57651639 2.0925767
0.59162658 0.56916869 2.1994767
0.41705954 0.31683999 1.4209168
0.83838916 0.55763423 2.4527338
0.53267604 0.5772897 2.0946918
0.64348596 0.56910872 2.1915021
0.44674271 0.31402227 1.4043044
-0.02611593 -0.059798401 0.050936799
0.5795511 0.57622975 2.0877926
0.69332319 0.56807417 2.1825471
0.47113019 0.30749449 1.372719
0.38971281 0.20157118 1.0522187
0.62640357 0.57418799 2.0798759
0.74308544 0.56711191 2.1695936
0.37888697 0.22151682 1.057784
0.52971953 0.27149743 1.3039476
0.67220008 0.57220423 2.0689788
-0.02611593 -0.059798401 0.050936799
0.48554093 0.27580893 1.2408313
1.0647334 0.55737174 2.3624606
0.72011644 0.57210428 2.0640783
0.38462257 0.23580045 1.0409293
0.54885554 0.29738861 1.3060584
1.1181352 0.5557391 2.3304205
-0.02611593 -0.059798401 0.050936799
0.51950014 0.31088847 1.284845
1.0259315 0.56021434 2.2131879
1.1695602 0.55509537 2.2994356
0.39590511 0.25555858 1.0520792
0.53370911 0.30155987 1.2443966
1.0785702 0.56136769 2.1932166
1.2230448 0.55539 2.27143
0.53911597 0.33932692 1.3120013
0.99900866 0.56718445 2.1097829
1.128085 0.55964077 2.1672494
1.2765145 0.55670244 2.2424428
0.50942451 0.29887316 1.1767796
1.0487 0.56729448 2.092849
1.1817608 0.5607543 2.1492584
1.3269022 0.55609846 2.2094774
0.9674384 0.57282907 2.0254476
1.0973313 0.56646246 2.0729165
1.2322835 0.56102347 2.1233089
1.3803532 0.55742908 2.1794903
1.0141224 0.57095015 2.008534
1.144884 0.56470662 2.0489864
1.2807276 0.56037241 2.0933797
1.4235284 0.55504954 2.1356242
1.0639073 0.57096964 1.9965981
1.1934818 0.56491065 2.0270729
1.3292092 0.55968511 2.0654502
1.4718829 0.55548865 2.1007149
1.1115949 0.57008702 1.9796835
1.2410574 0.56413651 2.0041604
1.3786985 0.56099397 2.0375378
1.522297 0.55686617 2.0687852
1.1592225 0.56825876 1.959752
1.2875541 0.56243849 1.9772499
1.4220233 0.55846959 2.0016687
1.5654988 0.55646819 2.0259547
1.2058543 0.56743395 1.9398572
1.337133 0.56265694 1.9543179
1.4735535 0.56073493 1.9757363
1.6127973 0.55696523 1.9880651
1.2545232 0.56656581 1.9219244
1.3856747 0.56291527 1.9294052
1.5147852 0.55830824 1.9349065
1.6560402 0.55753088 1.947252
1.3041582 0.56673008 1.9019912
1.4372987 0.56509006 1.908471
1.5571181 0.55778724 1.8990924
1.7023615 0.55901325 1.910399
1.3497115 0.56498128 1.8780985
1.4868625 0.56632656 1.8845572
1.6075925 0.56011027 1.8701797
1.7384295 0.55776721 1.8606843
1.4034286 0.56705856 1.862125
1.5353482 0.56663913 1.8566456
1.6509104 0.56060362 1.8333651
1.7826949 0.55931097 1.82087
1.4530488 0.5682407 1.8412104
1.577696 0.56510007 1.8218132
1.6983063 0.56201005 1.8004919
1.8198229 0.55900687 1.7741536
1.4985496 0.56754613 1.8143367
1.6221074 0.56549931 1.7899781
1.7375236 0.56060845 1.758718
1.8600103 0.55963755 1.7303976
1.5480913 0.56780082 1.7894053
1.6695181 0.56588781 1.7580867
1.7808266 0.56211966 1.720922
1.9022427 0.56222451 1.6886395
1.5966104 0.56707728 1.7634751
1.7128696 0.56534517 1.7232534
1.828208 0.56454402 1.6870672
1.9373748 0.56292742 1.6419789
1.6430775 0.56741512 1.7346013
1.7572436 0.56578058 1.689419
1.8633736 0.56421089 1.6423876
1.9714696 0.56367004 1.5933373
1.693604 0.56868422 1.7086694
1.8046435 0.56818682 1.656564
1.9096988 0.56669307 1.6055527
2.0055459 0.56443083 1.5436963
1.7400337 0.56905818 1.6777966
1.8459393 0.56770551 1.6187693
1.9458871 0.56733817 1.561872
2.0417006 0.56611192 1.4980342
1.7894628 0.56942141 1.6468673
1.8912795 0.5691734 1.5829347
1.9840561 0.56799406 1.5171541
2.0666995 0.56597739 1.4445457
1.8358551 0.56983155 1.6139948
1.9295006 0.56877524 1.5411978
2.0212438 0.56863552 1.4734546
2.1018207 0.56869811 1.3969212
1.8842471 0.5702346 1.581085
1.9697255 0.56936973 1.4994413
2.0462537 0.56648338 1.4209296
2.132879 0.56948769 1.3463368
1.9285836 0.57070619 1.5452513
2.0150285 0.57087374 1.4616076
2.0905125 0.57104468 1.3801697
2.1559007 0.57034218 1.2939035
1.9749197 0.57117063 1.50938
2.0532577 0.57247531 1.4199066
2.1175635 0.56984901 1.3296245
2.1940482 0.57503372 1.2472582
2.0181775 0.57071835 1.4695485
2.0914226 0.57213145 1.3751706
2.1537032 0.57254797 1.2829809
2.2089663 0.57300776 1.189923
2.0594208 0.57129115 1.4287728
2.1265733 0.57281619 1.3295095
2.1878207 0.57427239 1.2353572
2.2329695 0.5738768 1.1364712
2.1046634 0.57184958 1.3879219
2.1617017 0.5725193 1.2828306
2.2128572 0.57410175 1.1838679
2.2590175 0.57670212 1.0850172
2.150929 0.57338625 1.34807
2.1978335 0.57321858 1.236151
2.2408972 0.57492024 1.1323402
2.282006 0.57859266 1.0306026
2.1941345 0.57398814 1.3052576
2.2309289 0.57396483 1.1875283
2.2739816 0.57768434 1.0827539
2.2999916 0.57950127 0.97626376
2.2363026 0.57462972 1.2604644
2.2660463 0.57568568 1.1398858
2.2909365 0.57561505 1.0273803
2.3149402 0.58045685 0.91998214
2.276453 0.57529658 1.2147093
2.3051667 0.57839197 1.092186
2.3220062 0.57940418 0.97685003
2.3339257 0.58136183 0.86562461
2.3196061 0.57695246 1.1689157
2.3372247 0.57917798 1.0415831
2.3460093 0.58027321 0.9233982
2.3529186 0.58426648 0.81130308
2.3647404 0.5786193 1.1220849
2.3733082 0.58193123 0.99194032
2.3690128 0.58114582 0.86996526
2.3688896 0.58620024 0.75602031
2.4058378 0.58033663 1.07333
2.402329 0.58276415 0.9393943
2.3950233 0.5840072 0.81651187
2.3798389 0.58717012 0.69981378
2.4418762 0.58112639 1.0216521
2.4303129 0.58363688 0.88486761
2.405946 0.58299565 0.75926965
2.3827446 0.5862053 0.64172232
2.4788957 0.58193064 0.96895564
2.4502528 0.5825749 0.82845592
2.4289198 0.585904 0.70387334
2.4017415 0.59010983 0.58741879
2.5088565 0.58181447 0.91337377
2.4752221 0.58447629 0.77300411
2.4469094 0.58781248 0.6495527
2.407692 0.59109771 0.53130627
2.5519013 0.58457875 0.86160034
2.5082316 0.58731264 0.71941918
2.4699016 0.59070283 0.59515607
2.4116199 0.59111094 0.4742136
2.5818245 0.58449876 0.80401915
2.5352004 0.58920687 0.6639297
2.4747694 0.58976692 0.53502756
2.4235954 0.59405887 0.41902402
2.6187954 0.58735693 0.7483598
2.5530887 0.5892061 0.60457462
2.4967473 0.59367877 0.47966808
2.4305496 0.59604305 0.36291066
2.6476853 0.5883165 0.68881601
2.5800281 0.59313619 0.54712188
2.5016334 0.59272486 0.42053932
2.4284787 0.5960778 0.30593076
2.6835971 0.59023273 0.63015842
2.5948977 0.59316432 0.48682356
2.5225968 0.59765822 0.36421698
2.4334369 0.59906894 0.24987304
2.7014058 0.58930445 0.56678677
2.6168113 0.59513074 0.42842907
2.5224655 0.59674031 0.30418247
2.4434168 0.60302389 0.19473907
2.7322619 0.59129292 0.50522411
2.6326663 0.59617317 0.36713028
2.5263746 0.59677166 0.24609017
2.4273367 0.60010946 0.13796815
2.7550964 0.59232831 0.44279417
2.6465216 0.59722275 0.30586913
2.482152 0.58506787 0.18368527
2.4503303 0.60801703 0.082661957
2.795944 0.59729844 0.38009804
2.5390751 0.56891066 0.23534477
2.4650493 0.58117533 0.12591548
2.4432828 0.60905153 0.026793677
2.7936475 0.59253305 0.31203178
2.5449464 0.56897104 0.17521554
2.4729884 0.58417368 0.068801731
2.4322283 0.60810071 -0.029035479
2.8154302 0.59462613 0.24663967
2.6199319 0.58672655 0.1171131
2.4579268 0.58123761 0.013011703
2.3261867 0.58240467 -0.078531697
2.8451779 0.59772652 0.17911591
2.6588142 0.59568501 0.055526305
2.4408467 0.57832682 -0.043740403
2.2812192 0.5734688 -0.12786815
2.8619204 0.59887391 0.11180037
2.6846683 0.60170883 -0.0068699419
2.3047979 0.54472172 -0.091817379
-0.02611593 -0.059798401 0.050936799
2.877629 0.60106087 0.042522334
2.3814139 0.52778238 -0.056546297
-0.02611593 -0.059798401 0.050936799
1.0686386 0.24438679 -0.084103301
2.8803434 0.59927702 -0.025583841
1.2875869 0.26071501 -0.038891923
1.1248413 0.24096926 -0.073213704
1.0372198 0.2368793 -0.10465784
2.8400302 0.58864909 -0.093044177
1.2000672 0.23946509 -0.061645422
2.3187556 0.55562598 -0.25593707
2.3311925 0.60325021 -0.3483398
1.3003522 0.23981662 -0.047511879
2.356245 0.52390146 -0.2242021
2.3876042 0.57654709 -0.32187003
-0.02611593 -0.059798401 0.050936799
2.66559 0.54849869 -0.21354532
2.3402247 0.52193266 -0.27795598
-0.02611593 -0.059798401 0.050936799
1.033873 0.24320611 -0.17750543
2.4875963 0.50797313 -0.25696057
2.50582 0.56380957 -0.36232749
1.1019089 0.24090812 -0.17582023
1.0244401 0.24265462 -0.20034653
2.4984224 0.51106936 -0.32012868
2.254308 0.50402832 -0.37570438
2.2767706 0.55861545 -0.46816888
1.036937 0.24911346 -0.22847319
2.4004884 0.48925352 -0.36470485
2.2702239 0.51103354 -0.43489572
2.2956791 0.56862748 -0.52836221
1.0285078 0.24955823 -0.25131509
2.2637365 0.45937997 -0.39769602
2.3010778 0.52205658 -0.49829549
2.3573604 0.58973664 -0.60316056
1.0240483 0.25202444 -0.27619541
2.3055134 0.47043592 -0.46530113
2.3199222 0.53012323 -0.56152385
2.463804 0.62395334 -0.69356513
1.0176002 0.25248012 -0.30007458
2.3363032 0.47951359 -0.5317359
2.4651952 0.57037985 -0.66254973
2.4159014 0.61697352 -0.73981029
0.21256503 0.011829576 -0.035265483
2.4945321 0.51875985 -0.63502347
2.4699924 0.57553345 -0.72756839
2.3749676 0.61200446 -0.78815007
0.1925865 0.0068660304 -0.032980442
2.5092194 0.52498585 -0.70620996
2.4051521 0.56454301 -0.76956749
-0.02611593 -0.059798401 0.050936799
-0.02611593 -0.059798401 0.050936799
2.4413157 0.51206082 -0.75118768
2.3184605 0.54746974 -0.80226427
0.18554157 -8.9568901e-05 -0.033974707
0.17251436 0.0019929227 -0.035693713
2.3824217 0.50210303 -0.79628038
-0.02611593 -0.059798401 0.050936799
-0.02611593 -0.059798401 0.050936799
-0.02611593 -0.059798401 0.050936799
-0.02611593 -0.059798401 0.050936799
0.17950037 -0.0060489266 -0.034969728
0.16945782 -0.0029592784 -0.037726756
0.15147984 -0.0029127668 -0.03638887
0.18746841 -0.0090590371 -0.036173772
-0.02611593 -0.059798401 0.050936799
-0.02611593 -0.059798401 0.050936799
-0.02611593 -0.059798401 0.050936799
-0.02611593 -0.059798401 0.050936799
0.15448138 -0.011958184 -0.034608074
0.14643845 -0.0088757137 -0.037402686
0.12751684 -0.0088798804 -0.03304702
0.16343443 -0.013953964 -0.036812559
-0.02611593 -0.059798401 0.050936799
-0.02611593 -0.059798401 0.050936799
-0.02611593 -0.059798401 0.050936799
-0.02611593 -0.059798401 0.050936799
0.13346951 -0.015882134 -0.034285549
0.12247939 -0.013842996 -0.034042813
0.11646961 -0.011803716 -0.034893699
0.13943791 -0.018885072 -0.035452012
-0.02611593 -0.059798401 0.050936799
-0.02611593 -0.059798401 0.050936799
-0.02611593 -0.059798401 0.050936799
-0.02611593 -0.059798401 0.050936799
0.12142248 -0.018802382 -0.036113448
0.11143216 -0.016766831 -0.035889506
0.10146057 -0.014749374 -0.034665897
0.11942586 -0.022812612 -0.035148274
-0.02611593 -0.059798401 0.050936799
-0.02611593 -0.059798401 0.050936799
-0.02611593 -0.059798401 0.050936799
-0.02611593 -0.059798401 0.050936799
0.1014666 -0.02278419 -0.032810725
0.10038888 -0.018690838 -0.037718166
0.087484874 -0.018734626 -0.032475583
0.1004698 -0.02679801 -0.031864341
-0.02611593 -0.059798401 0.050936799
-0.02611593 -0.059798401 0.050936799
-0.02611593 -0.059798401 0.050936799
-0.02611593 -0.059798401 0.050936799
0.08845719 -0.025737023 -0.032620508
0.089383036 -0.020651022 -0.03754751
0.080444783 -0.019673154 -0.034361389
0.088460207 -0.029754434 -0.031692915
-0.02611593 -0.059798401 0.050936799
-0.02611593 -0.059798401 0.050936799
-0.02611593 -0.059798401 0.050936799
-0.02611593 -0.059798401 0.050936799
0.075489163 -0.027726207 -0.030412938
0.076411083 -0.023640033 -0.035357967
0.068472639 -0.022665756 -0.03219064
0.081386596 -0.029656954 -0.03556003
-0.02611593 -0.059798401 0.050936799
-0.02611593 -0.059798401 0.050936799
-0.02611593 -0.059798401 0.050936799
-0.02611593 -0.059798401 0.050936799
0.070411257 -0.028635737 -0.034335651
0.072318196 -0.023535229 -0.04028111
0.062432375 -0.023607876 -0.034095231
0.07236167 -0.031606223 -0.036426611
-0.02611593 -0.059798401 0.050936799
-0.02611593 -0.059798401 0.050936799
-0.02611593 -0.059798401 0.050936799
-0.02611593 -0.059798401 0.050936799
0.059442859 -0.030632094 -0.032165673
0.058398668 -0.027574748 -0.03509181
0.053444881 -0.025593322 -0.03296249
0.06041218 -0.033617083 -0.033238169
-0.02611593 -0.059798401 0.050936799
-0.02611593 -0.059798401 0.050936799
-0.02611593 -0.059798401 0.050936799
-0.02611593 -0.059798401 0.050936799
0.053402591 -0.031574212 -0.034070265
0.054324508 -0.027488038 -0.039015293
0.047423329 -0.02655353 -0.03386743
0.052390989 -0.034570113 -0.034105532
-0.02611593 -0.059798401 0.050936799
-0.02611593 -0.059798401 0.050936799
-0.02611593 -0.059798401 0.050936799
-0.02611593 -0.059798401 0.050936799
0.045418847 -0.032563422 -0.032938294
0.047321863 -0.028462747 -0.03890178
0.039454378 -0.028560659 -0.031753823
0.047350537 -0.035515822 -0.036028925
-0.02611593 -0.059798401 0.050936799
-0.02611593 -0.059798401 0.050936799
-0.02611593 -0.059798401 0.050936799
-0.02611593 -0.059798401 0.050936799
0.038416203 -0.033538129 -0.032824777
0.042285331 -0.028408624 -0.040807143
0.035417672 -0.028510123 -0.03367798
0.039348066 -0.036486942 -0.035896614
-0.02611593 -0.059798401 0.050936799
-0.02611593 -0.059798401 0.050936799
-0.02611593 -0.059798401 0.050936799
-0.02611593 -0.059798401 0.050936799
0.029499678 -0.036595766 -0.027711421
0.03530141 -0.02940142 -0.03969397
0.028452467 -0.029521011 -0.031565148
0.035292637 -0.036418322 -0.038820438
-0.02611593 -0.059798401 0.050936799
-0.02611593 -0.059798401 0.050936799
-0.02611593 -0.059798401 0.050936799
-0.02611593 -0.059798401 0.050936799
0.025444243 -0.036527146 -0.030635238
0.028332274 -0.031412136 -0.037599146
0.024415756 -0.029470477 -0.033489302
0.027327614 -0.037425615 -0.036688808
-0.02611593 -0.059798401 0.050936799
-0.02611593 -0.059798401 0.050936799
-0.02611593 -0.059798401 0.050936799
-0.02611593 -0.059798401 0.050936799
0.021407528 -0.036476608 -0.032559391
0.022329446 -0.032390434 -0.03750442
0.01942753 -0.031470276 -0.032431718
0.021343505 -0.038422 -0.035594422
-0.02611593 -0.059798401 0.050936799
-0.02611593 -0.059798401 0.050936799
-0.02611593 -0.059798401 0.050936799
-0.02611593 -0.059798401 0.050936799
0.017352097 -0.036407989 -0.035483222
0.018292731 -0.032339897 -0.039428584
-0.02611593 -0.059798401 0.050936799
-0.02611593 -0.059798401 0.050936799
-0.02611593 -0.059798401 0.050936799
-0.02611593 -0.059798401 0.050936799
-0.02611593 -0.059798401 0.050936799
-0.02611593 -0.059798401 0.050936799
-0.02611593 -0.059798401 0.050936799
0.014256018 -0.032289363 -0.041352741
-0.02611593 -0.059798401 0.050936799
-0.02611593 -0.059798401 0.050936799
-0.02611593 -0.059798401 0.050936799
-0.02611593 -0.059798401 0.050936799
-0.02611593 -0.059798401 0.050936799
-0.02611593 -0.059798401 0.050936799
-0.02611593 -0.059798401 0.050936799
-0.02611593 -0.059798401 0.050936799
-0.02611593 -0.059798401 0.050936799
-0.02611593 -0.059798401 0.050936799
-0.02611593 -0.059798401 0.050936799
-0.02611593 -0.059798401 0.050936799
-0.02611593 -0.059798401 0.050936799
-0.02611593 -0.059798401 0.050936799
-0.02611593 -0.059798401 0.050936799
-0.02611593 -0.059798401 0.050936799
-0.02611593 -0.059798401 0.050936799
-0.02611593 -0.059798401 0.050936799
-0.02611593 -0.059798401 0.050936799
-0.02611593 -0.059798401 0.050936799
-0.02611593 -0.059798401 0.050936799
-0.02611593 -0.059798401 0.050936799
-0.02611593 -0.059798401 0.050936799
-0.02611593 -0.059798401 0.050936799
-0.02611593 -0.059798401 0.050936799
-0.02611593 -0.059798401 0.050936799
-0.02611593 -0.059798401 0.050936799
-0.02611593 -0.059798401 0.050936799
-0.02611593 -0.059798401 0.050936799
-0.02611593 -0.059798401 0.050936799
-0.02611593 -0.059798401 0.050936799
-0.02611593 -0.059798401 0.050936799
-0.02611593 -0.059798401 0.050936799
-0.02611593 -0.059798401 0.050936799
-0.02611593 -0.059798401 0.050936799
-0.02611593 -0.059798401 0.050936799
-0.02611593 -0.059798401 0.050936799
-0.02611593 -0.059798401 0.050936799
-0.02611593 -0.059798401 0.050936799
-0.02611593 -0.059798401 0.050936799
-0.02611593 -0.059798401 0.050936799
-0.02611593 -0.059798401 0.050936799
-0.02611593 -0.059798401 0.050936799
-0.02611593 -0.059798401 0.050936799
-0.02611593 -0.059798401 0.050936799
-0.02611593 -0.059798401 0.050936799
-0.02611593 -0.059798401 0.050936799
-0.02611593 -0.059798401 0.050936799
-0.02611593 -0.059798401 0.050936799
-0.02611593 -0.059798401 0.050936799
-0.02611593 -0.059798401 0.050936799
-0.02611593 -0.059798401 0.050936799
-0.02611593 -0.059798401 0.050936799
-0.02611593 -0.059798401 0.050936799
-0.02611593 -0.059798401 0.050936799
-0.02611593 -0.059798401 0.050936799
-0.02611593 -0.059798401 0.050936799
-0.02611593 -0.059798401 0.050936799
-0.02611593 -0.059798401 0.050936799
-0.02611593 -0.059798401 0.050936799
-0.02611593 -0.059798401 0.050936799
-0.02611593 -0.059798401 0.050936799
-0.02611593 -0.059798401 0.050936799
-0.02611593 -0.059798401 0.050936799
-0.02611593 -0.059798401 0.050936799
-0.02611593 -0.059798401 0.050936799
-0.02611593 -0.059798401 0.050936799
-0.02611593 -0.059798401 0.050936799
-0.02611593 -0.059798401 0.050936799
-0.02611593 -0.059798401 0.050936799
-0.02611593 -0.059798401 0.050936799
-0.02611593 -0.059798401 0.050936799
-0.02611593 -0.059798401 0.050936799
-0.02611593 -0.059798401 0.050936799
-0.02611593 -0.059798401 0.050936799
-0.02611593 -0.059798401 0.050936799
-0.02611593 -0.059798401 0.050936799
-0.02611593 -0.059798401 0.050936799
-0.02611593 -0.059798401 0.050936799
-0.02611593 -0.059798401 0.050936799
-0.02611593 -0.059798401 0.050936799
-0.02611593 -0.059798401 0.050936799
-0.02611593 -0.059798401 0.050936799
-0.02611593 -0.059798401 0.050936799
-0.02611593 -0.059798401 0.050936799
-0.02611593 -0.059798401 0.050936799
-0.02611593 -0.059798401 0.050936799
-0.02611593 -0.059798401 0.050936799
-0.02611593 -0.059798401 0.050936799
-0.02611593 -0.059798401 0.050936799
-0.02611593 -0.059798401 0.050936799
-0.02611593 -0.059798401 0.050936799
-0.02611593 -0.059798401 0.050936799
-0.02611593 -0.059798401 0.050936799
-0.02611593 -0.059798401 0.050936799
-0.02611593 -0.059798401 0.050936799
-0.02611593 -0.059798401 0.050936799
-0.02611593 -0.059798401 0.050936799
-0.02611593 -0.059798401 0.050936799
-0.02611593 -0.059798401 0.050936799
-0.02611593 -0.059798401 0.050936799
-0.02611593 -0.059798401 0.050936799
-0.02611593 -0.059798401 0.050936799
-0.02611593 -0.059798401 0.050936799
-0.02611593 -0.059798401 0.050936799
-0.02611593 -0.059798401 0.050936799
-0.02611593 -0.059798401 0.050936799
-0.02611593 -0.059798401 0.050936799
-0.02611593 -0.059798401 0.050936799
-0.02611593 -0.059798401 0.050936799
-0.02611593 -0.059798401 0.050936799
-0.02611593 -0.059798401 0.050936799
-0.02611593 -0.059798401 0.050936799
-0.02611593 -0.059798401 0.050936799
-0.02611593 -0.059798401 0.050936799
-0.02611593 -0.059798401 0.050936799
-0.02611593 -0.059798401 0.050936799
-0.02611593 -0.059798401 0.050936799
-0.02611593 -0.059798401 0.050936799
-0.02611593 -0.059798401 0.050936799
-0.02611593 -0.059798401 0.050936799
-0.02611593 -0.059798401 0.050936799
-0.02611593 -0.059798401 0.050936799
-0.02611593 -0.059798401 0.050936799
-0.02611593 -0.059798401 0.050936799
-0.02611593 -0.059798401 0.050936799
-0.02611593 -0.059798401 0.050936799
-0.054739214 -0.03404139 -0.040092234
-0.02611593 -0.059798401 0.050936799
-0.02611593 -0.059798401 0.050936799
-0.02611593 -0.059798401 0.050936799
-0.02611593 -0.059798401 0.050936799
-0.02611593 -0.059798401 0.050936799
-0.02611593 -0.059798401 0.050936799
-0.02611593 -0.059798401 0.050936799
-0.02611593 -0.059798401 0.050936799
-0.02611593 -0.059798401 0.050936799
-0.02611593 -0.059798401 0.050936799
-0.02611593 -0.059798401 0.050936799
-0.02611593 -0.059798401 0.050936799
-0.02611593 -0.059798401 0.050936799
-0.02611593 -0.059798401 0.050936799
-0.02611593 -0.059798401 0.050936799
-0.02611593 -0.059798401 0.050936799
-0.02611593 -0.059798401 0.050936799
-0.02611593 -0.059798401 0.050936799
-0.02611593 -0.059798401 0.050936799
-0.02611593 -0.059798401 0.050936799
-0.02611593 -0.059798401 0.050936799
-0.02611593 -0.059798401 0.050936799
-0.02611593 -0.059798401 0.050936799
-0.067699388 -0.034030911 -0.037848637
-0.02611593 -0.059798401 0.050936799
-0.072635368 -0.03708481 -0.033810094
-0.02611593 -0.059798401 0.050936799
-0.02611593 -0.059798401 0.050936799
-0.02611593 -0.059798401 0.050936799
-0.02611593 -0.059798401 0.050936799
-0.02611593 -0.059798401 0.050936799
-0.071661204 -0.034052737 -0.035774149
-0.02611593 -0.059798401 0.050936799
-0.077611804 -0.036085129 -0.032698464
-0.02611593 -0.059798401 0.050936799
-0.02611593 -0.059798401 0.050936799
-0.02611593 -0.059798401 0.050936799
-0.02611593 -0.059798401 0.050936799
-0.02611593 -0.059798401 0.050936799
-0.075623028 -0.034074556 -0.033699669
-0.02611593 -0.059798401 0.050936799
-0.083610706 -0.036063597 -0.032585718
-0.02611593 -0.059798401 0.050936799
-0.02611593 -0.059798401 0.050936799
-0.02611593 -0.059798401 0.050936799
-0.02611593 -0.059798401 0.050936799
-0.080551155 -0.035128798 -0.029625088
-0.079584859 -0.034096383 -0.031625181
-0.076581478 -0.033107318 -0.031663533
-0.090620287 -0.034020722 -0.03341781
-0.02611593 -0.059798401 0.050936799
-0.02611593 -0.059798401 0.050936799
-0.02611593 -0.059798401 0.050936799
-0.02611593 -0.059798401 0.050936799
-0.085512795 -0.035147034 -0.02753181
-0.089702301 -0.030934377 -0.038380846
-0.082595177 -0.032067861 -0.032532435
-0.094563387 -0.034060635 -0.030343655
-0.02611593 -0.059798401 0.050936799
-0.02611593 -0.059798401 0.050936799
-0.02611593 -0.059798401 0.050936799
-0.02611593 -0.059798401 0.050936799
-0.090489231 -0.034147345 -0.02642018
-0.093645401 -0.030974286 -0.0353067
-0.085538454 -0.032111362 -0.029477078
-0.10055836 -0.033039268 -0.030212894
-0.02611593 -0.059798401 0.050936799
-0.02611593 -0.059798401 0.050936799
-0.02611593 -0.059798401 0.050936799
-0.02611593 -0.059798401 0.050936799
-0.10057316 -0.032021351 -0.031194538
-0.098607041 -0.030992519 -0.033213429
-0.093589239 -0.031028554 -0.032307722
-0.10448274 -0.033097271 -0.026139092
-0.02611593 -0.059798401 0.050936799
-0.02611593 -0.059798401 0.050936799
-0.02611593 -0.059798401 0.050936799
-0.02611593 -0.059798401 0.050936799
-0.10551608 -0.032057673 -0.028101601
-0.10562056 -0.029949477 -0.034063537
-0.099584207 -0.030007191 -0.032176964
-0.12163241 -0.028874138 -0.034744531
-0.02611593 -0.059798401 0.050936799
-0.02611593 -0.059798401 0.050936799
-0.02611593 -0.059798401 0.050936799
-0.02611593 -0.059798401 0.050936799
-0.11454402 -0.029989533 -0.029895771
-0.11564831 -0.027877754 -0.035838921
-0.10454585 -0.030025423 -0.030083675
-0.12657142 -0.027910631 -0.031633578
-0.02611593 -0.059798401 0.050936799
-0.02611593 -0.059798401 0.050936799
-0.02611593 -0.059798401 0.050936799
-0.02611593 -0.059798401 0.050936799
-0.12355324 -0.027939487 -0.030690283
-0.12464274 -0.026845623 -0.035651784
-0.11255918 -0.028978795 -0.030915
-0.13656566 -0.026874911 -0.031427655
-0.02611593 -0.059798401 0.050936799
-0.02611593 -0.059798401 0.050936799
-0.02611593 -0.059798401 0.050936799
-0.02611593 -0.059798401 0.050936799
-0.13051058 -0.026950711 -0.028541412
-0.1316001 -0.025856847 -0.033502907
-0.12358675 -0.026903478 -0.032671589
-0.14655204 -0.02383953 -0.031185694
-0.02611593 -0.059798401 0.050936799
-0.02611593 -0.059798401 0.050936799
-0.02611593 -0.059798401 0.050936799
-0.02611593 -0.059798401 0.050936799
-0.14048217 -0.024933249 -0.027317807
-0.13855743 -0.024868071 -0.03135404
-0.12952949 -0.026936211 -0.029559854
-0.15449047 -0.022865258 -0.028018367
-0.02611593 -0.059798401 0.050936799
-0.02611593 -0.059798401 0.050936799
-0.02611593 -0.059798401 0.050936799
-0.02611593 -0.059798401 0.050936799
-0.1504577 -0.023915621 -0.026112221
-0.14852902 -0.022850614 -0.030130427
-0.13951981 -0.02490066 -0.029335916
-0.16847615 -0.019815525 -0.027701244
-0.02611593 -0.059798401 0.050936799
-0.02611593 -0.059798401 0.050936799
-0.02611593 -0.059798401 0.050936799
-0.02611593 -0.059798401 0.050936799
-0.16142911 -0.021894572 -0.024869829
-0.15547158 -0.022879761 -0.026999909
-0.14646235 -0.024929807 -0.026205402
-0.18040991 -0.017827064 -0.024440736
-0.02611593 -0.059798401 0.050936799
-0.02611593 -0.059798401 0.050936799
-0.02611593 -0.059798401 0.050936799
-0.02611593 -0.059798401 0.050936799
-0.18044344 -0.016791057 -0.026422035
-0.16945724 -0.019830026 -0.026682787
-0.14834966 -0.025031162 -0.020169858
-0.21048927 -0.010612052 -0.029748857
-0.02611593 -0.059798401 0.050936799
-0.02611593 -0.059798401 0.050936799
-0.02611593 -0.059798401 0.050936799
-0.02611593 -0.059798401 0.050936799
-0.20345704 -0.011673183 -0.027899079
-0.18845676 -0.015744425 -0.027253356
-0.16335778 -0.022959581 -0.02085162
-0.23646095 -0.0045197597 -0.029152196
-0.02611593 -0.059798401 0.050936799
-0.02611593 -0.059798401 0.050936799
-0.02611593 -0.059798401 0.050936799
-0.02611593 -0.059798401 0.050936799
-0.22845155 -0.0065662218 -0.028338887
-0.21448855 -0.010597697 -0.029673696
-0.19144143 -0.016751576 -0.026215337
-0.26742777 0.0025903035 -0.02844356
-0.02611593 -0.059798401 0.050936799
-0.02611593 -0.059798401 0.050936799
-0.02611593 -0.059798401 0.050936799
-0.02611593 -0.059798401 0.050936799
-0.26145548 0.00058719784 -0.029592
-0.24147876 -0.0044837263 -0.030057903
-0.21847302 -0.01160126 -0.028616887
-0.96739876 0.18271619 -0.21414286
-0.02611593 -0.059798401 0.050936799
-0.02611593 -0.059798401 0.050936799
-0.02611593 -0.059798401 0.050936799
-0.98102874 0.18542221 -0.19483218
-0.97561508 0.17994438 -0.22504288
-0.26440269 -0.00045612967 -0.026554652
-0.24544843 -0.00650521 -0.028019451
-0.99264818 0.18610334 -0.17459545
-0.97820657 0.17855735 -0.20301196
-0.02611593 -0.059798401 0.050936799
-0.02611593 -0.059798401 0.050936799
-1.0072592 0.18879487 -0.15426631
-0.98780763 0.17921321 -0.18181315
-0.97237009 0.17066382 -0.2102665
-0.02611593 -0.059798401 0.050936799
-1.0108466 0.18841128 -0.13219862
-1.0044409 0.18093018 -0.16246413
-0.98700774 0.17137378 -0.19097306
-0.9675827 0.15981053 -0.21955559
-1.0144151 0.18800958 -0.10913125
-1.0130422 0.18158244 -0.14128411
-1.0006268 0.17206207 -0.17069875
-0.97519207 0.15845953 -0.1984304
-1.0179987 0.18862581 -0.087045521
-1.023643 0.18224189 -0.12006652
-1.0022037 0.16965355 -0.147705
-1.0008572 0.16124482 -0.18089359
-1.0205861 0.18823861 -0.064996615
-1.0161881 0.17876503 -0.095260575
-1.0178185 0.17134885 -0.1273751
-1.0094663 0.15989743 -0.15974958
-1.0561886 0.19702259 -0.045164414
-1.030803 0.18045676 -0.074949466
-1.0224096 0.16996901 -0.10530663
-1.0170568 0.15852834 -0.13762473
-1.0787716 0.20172442 -0.023649268
-1.0343716 0.18005507 -0.051882096
-1.030996 0.16960335 -0.083144963
-1.0096059 0.15405169 -0.11283682
-1.0873313 0.20334032 -0.00045190752
-1.0729734 0.18884981 -0.031993538
-1.0355645 0.16920523 -0.060058795
-1.0232061 0.15472189 -0.091562852
-1.1018862 0.20597762 0.022876214
-1.0895278 0.19149427 -0.0086278319
-1.0701787 0.17498614 -0.04029946
-1.0347919 0.154367 -0.069344833
-1.1064321 0.20656124 0.046980046
-1.0940776 0.19107808 0.015457988
-1.087737 0.17663436 -0.016932979
-1.0543873 0.15605855 -0.047940083
-1.1259555 0.21219788 0.071455836
-1.1166232 0.19574371 0.03897246
-1.1032957 0.17827538 0.0063959062
-1.0839732 0.15978569 -0.02631142
-1.1364924 0.2148027 0.09570846
-1.1311632 0.19736305 0.063282222
-1.1048312 0.17683049 0.031406995
-1.0915262 0.15838042 -0.0021872371
-1.168968 0.22244947 0.12246387
-1.1407043 0.19896448 0.087498032
-1.1133763 0.1774285 0.055585995
-1.0960612 0.15694632 0.022880223
-0.02611593 -0.059798401 0.050936799
-1.1392176 0.19849057 0.11347043
-1.1239209 0.17803366 0.079802573
-1.113582 0.15855835 0.048246015
-1.1879485 0.22756149 0.17592983
-1.1656874 0.20309819 0.14105871
-1.1404192 0.18062384 0.10616726
-1.1251116 0.1581492 0.073463038
-0.02611593 -0.059798401 0.050936799
-1.1731914 0.20465627 0.16723627
-1.1549032 0.18218894 0.133476
-1.1506232 0.16178958 0.099015191
-1.23578 0.2406677 0.23608284
-1.1886485 0.20820653 0.1955995
-1.175378 0.18577522 0.16093352
-0.02611593 -0.059798401 0.050936799
-0.02611593 -0.059798401 0.050936799
-0.02611593 -0.059798401 0.050936799
-1.1868477 0.18631162 0.18916754
-1.1696045 0.1618844 0.15339071
-1.2596394 0.24768883 0.29567677
-1.2404497 0.21929127 0.25779095
-1.2172569 0.19187918 0.21984799
-0.02611593 -0.059798401 0.050936799
-1.2899431 0.25616544 0.33140957
-1.2488933 0.22179846 0.28700429
-0.02611593 -0.059798401 0.050936799
-1.2214439 0.16798808 0.21449241
-0.02611593 -0.059798401 0.050936799
-1.2981068 0.23327042 0.32714683
-1.2809393 0.20389828 0.28828093
-0.02611593 -0.059798401 0.050936799
-0.02611593 -0.059798401 0.050936799
-1.318428 0.23771183 0.36261964
-1.2554955 0.19835718 0.31271258
-1.2632143 0.17298366 0.27938682
-1.3508644 0.27547053 0.43893582
-1.3367496 0.24214603 0.3980549
-1.327562 0.21278453 0.36033899
-0.02611593 -0.059798401 0.050936799
-2.8810332 0.66523331 0.95581031
-1.3361652 0.24258508 0.42906243
-1.291188 0.20425873 0.38151091
-0.02611593 -0.059798401 0.050936799
-2.8578804 0.66303301 1.0173578
-3.0870848 0.64903831 1.011394
-0.02611593 -0.059798401 0.050936799
-0.02611593 -0.059798401 0.050936799
-2.8267891 0.65985847 1.0757381
-3.0985796 0.65365499 1.0907196
-3.096406 0.58113652 1.007339
-1.3255646 0.17970105 0.41972327
-2.7996597 0.65666211 1.1361928
-3.1348405 0.66416126 1.1816194
-3.1157913 0.58467352 1.0927948
-3.0938029 0.50422925 1.0008968
-2.7656102 0.65251309 1.1924994
-3.1105232 0.66079473 1.2521271
-3.1788256 0.59907699 1.1952702
-3.12113 0.50774062 1.0895021
-2.7365186 0.6493457 1.2509172
-3.0871832 0.65841347 1.3236713
-3.2507045 0.61436802 1.3059303
-3.1861238 0.51809782 1.194942
-2.7103999 0.64817065 1.3104272
-3.0698154 0.65803546 1.3963639
-3.3284433 0.63155353 1.4237363
-3.2440848 0.52739388 1.3022316
-2.6803231 0.64601749 1.3678445
-3.0137711 0.64879024 1.4531666
-3.3901932 0.64668208 1.541206
-3.3277409 0.54151094 1.4250948
-2.6571851 0.64483517 1.4284105
-2.9706376 0.64251882 1.5142664
-3.4459143 0.65975314 1.6605262
-3.424154 0.55945706 1.5602705
-2.6221507 0.64170045 1.4837166
-2.9482937 0.64114106 1.5858473
-3.3737724 0.64734244 1.7229722
-3.4986248 0.57336098 1.6929613
-2.5940511 0.64053631 1.5421892
-2.9180107 0.63878906 1.654261
-3.3442314 0.64374089 1.8053819
-3.9155638 0.64838469 2.0052304
-2.5629709 0.63937944 1.5996059
-2.8936443 0.63838577 1.7268221
-3.319644 0.64212078 1.8899208
-3.8935871 0.6453957 2.1108007
-2.5210204 0.63429242 1.6507457
-2.8742166 0.63894606 1.8024942
-3.2851267 0.6375196 1.9712188
-3.5412471 0.58243823 2.031038
-2.5027909 0.63705486 1.7154764
-2.8281176 0.63369989 1.8615562
-3.2585173 0.63687408 2.0567379
-3.8693287 0.64421713 2.3374019
-2.4569159 0.63202584 1.7625425
-2.7820177 0.62845379 1.9206181
-3.2674053 0.64290422 2.1680512
-3.8432922 0.64215928 2.445914
-2.4287899 0.6328432 1.8220508
-2.6511214 0.60296977 1.9187059
-3.1854525 0.6306386 2.2203126
-3.1310458 0.51349837 2.1041355
-2.3957095 0.63167918 1.8794298
-2.7253013 0.62863654 2.0646083
-2.6065924 0.50891471 1.9111682
-3.7653897 0.63409567 2.6543803
-2.3449106 0.62670457 1.9224033
-2.6830995 0.625314 2.1287801
-3.1399021 0.63206822 2.4085493
-2.6043916 0.42139775 1.9385532
-2.3118303 0.62554055 1.9797823
-2.6438708 0.62398374 2.1940436
-3.0678229 0.62272942 2.4670508
-2.797693 0.4607597 2.1829669
-2.2708869 0.62347454 2.0299954
-2.6085479 0.62257737 2.2643805
-3.0184166 0.61918277 2.5420871
-3.9190788 0.67794335 3.1962347
-1.8783504 0.51284117 1.7565522
-1.9128693 0.44622779 1.7419885
-2.9886503 0.6203813 2.6355834
-3.8177736 0.66526586 3.2671325
-1.8317795 0.50709802 1.7875869
-1.8573828 0.43852514 1.7688196
-1.8849779 0.371959 1.7501256
-1.9391406 0.30909112 1.7540039
-1.8803422 0.53203338 1.9129896
-1.8127513 0.43373474 1.8029087
-1.832412 0.36519453 1.7810296
-1.8619506 0.29858133 1.7653724
-2.0502234 0.59800071 2.1744521
-1.9700269 0.48598325 2.0458808
-1.8975716 0.38679349 1.9286903
-1.8221083 0.29460979 1.8105699
-2.0670221 0.6170212 2.2881496
-2.1700521 0.55324751 2.3529468
-2.0713279 0.43659693 2.1999364
-1.9901 0.33257464 2.0714903
-2.0103781 0.61116987 2.3229945
-2.3197558 0.6079278 2.6258311
-2.2740324 0.49452972 2.5258899
-2.2135658 0.38333073 2.4117079
-1.9654725 0.60912579 2.3711333
-2.2637479 0.60373598 2.6797249
-2.6552486 0.60100424 3.0831423
-3.2839956 0.61165202 3.7393293
-1.916684 0.60617602 2.4131808
-2.2028532 0.59963489 2.7275267
-2.5929198 0.59748322 3.1539357
-3.179889 0.60116231 3.7992108
-1.8717145 0.60607731 2.4643545
-2.1546407 0.59929019 2.7916396
-2.5266664 0.59402019 3.220655
-3.0787218 0.59162897 3.8621652
-1.8228848 0.60409117 2.5084193
-2.0966482 0.59610921 2.8445144
-2.4652545 0.59243006 3.2955019
-2.9873686 0.58596802 3.934377
-1.773059 0.6011017 2.5524473
-2.0425534 0.59485167 2.9024985
-2.8750799 0.71883178 4.0297103
-2.894038 0.57931823 4.0055332
-1.7241879 0.6000793 2.5985293
-1.97964 0.59072518 2.9512625
-2.3355334 0.58731556 3.4400296
-2.7929044 0.57082093 4.0665069
-1.671415 0.59813309 2.6395199
-1.9187003 0.58858746 3.0010996
-2.2603941 0.58392882 3.5005822
-2.6985891 0.56518543 4.136663
-1.6215665 0.59612525 2.6845658
-1.8567832 0.58546442 3.0499005
-2.5876331 0.69937825 4.2140388
-2.5984662 0.55870944 4.1966915
-1.5658543 0.59322274 2.7224829
-1.8006284 0.58514541 3.1108639
-2.4953699 0.69480401 4.2812519
-2.5041094 0.55403763 4.2688646
-1.5101569 0.59133816 2.7594182
-1.7337872 0.58207679 3.1555722
-2.0446024 0.57746005 3.701493
-2.4019825 0.54855424 4.3288741
-1.4554446 0.58843917 2.7973545
-1.6708062 0.58089554 3.2073891
-1.9625766 0.57415676 3.7559159
-2.3017581 0.54398751 4.3939366
-1.4054533 0.58930427 2.849452
-1.6068481 0.57872891 3.2581697
-1.8767279 0.56900215 3.8012307
-2.2063792 0.54029381 4.4671092
-1.3487185 0.58737993 2.8883681
-1.5312971 0.57389969 3.287678
-1.8033143 0.56836873 3.8758702
-2.1012902 0.53483588 4.5250621
-1.2948217 0.58832109 2.9353921
-1.4720789 0.57551527 3.35162
-1.7193599 0.56613046 3.9262748
-1.9972312 0.53141743 4.5810714
-1.2304224 0.58267611 2.9570916
-1.3994112 0.5715881 3.3872006
-1.0441734 0.33447245 2.5369723
-1.0345712 0.25754011 2.5303986
-0.97935081 0.47390282 2.5002685
-0.96583599 0.39402902 2.4895666
-0.95051587 0.31734654 2.4678855
-0.9398647 0.24337389 2.4633462
-0.89751959 0.45263982 2.4413316
-0.88106853 0.37582707 2.4266291
-0.86564291 0.30205357 2.4100001
-0.8501572 0.22922562 2.3963881
-0.82248414 0.43522027 2.3925948
-0.80118376 0.35853434 2.3698013
-0.78475046 0.28675687 2.3531897
-0.77015138 0.21884125 2.3446851
-0.75046682 0.41782966 2.3429155
-0.72821498 0.34319404 2.3171399
-0.70788693 0.2735104 2.2944911
-0.68845725 0.20573962 2.2768953
-0.67771971 0.39868903 2.2791855
-0.65630221 0.32791156 2.261498
-0.63688731 0.2611587 2.2429209
-0.6193105 0.19726774 2.2324324
-0.61450189 0.38414925 2.2397254
-0.5912118 0.31449109 2.2150207
-0.57076657 0.250716 2.1974788
-0.55122358 0.18785392 2.1849713
-0.55243748 0.36875799 2.1922688
-0.52996308 0.30293989 2.1766522
-0.50760782 0.24024794 2.1540921
-0.48607615 0.17939642 2.1405835
-0.49519181 0.35622132 2.1539574
-0.46984509 0.29151893 2.131305
-0.44748598 0.22982679 2.1087623
-0.42496535 0.17098942 2.0942717
-0.43990451 0.34465545 2.1177011
-0.41455385 0.28095293 2.0950661
-0.39197308 0.22306113 2.0835924
-0.3676213 0.1643794 2.0600669
-0.38662079 0.33209705 2.0814636
-0.36118343 0.27132162 2.0628817
-0.33863226 0.21546565 2.0494447
-0.31416026 0.158675 2.0319531
-0.33627245 0.3214947 2.0483179
-0.30978996 0.26267919 2.0317526
-0.28527263 0.20785204 2.0162966
-0.26690674 0.15825309 2.0450654
-0.28784493 0.31182703 2.0192266
-0.26561472 0.26134056 2.0409045
-0.2452265 0.21271618 2.0706532
-0.22282384 0.16306669 2.101346
-0.24904586 0.3159301 2.0605884
-0.22464359 0.26627341 2.0912435
-0.20210597 0.21749717 2.1289523
-0.17841874 0.16857257 2.174639
-0.20997295 0.32277936 2.1159992
-0.18332373 0.27388018 2.1596308
-0.15871154 0.22502442 2.2013004
-0.02611593 -0.059798401 0.050936799
-0.16872795 0.33045849 2.180388
-0.13898565 0.28145814 2.2289612
-0.19243211 0.51770651 4.448988
-0.14932863 0.49903542 5.309135
-0.17925057 0.55584008 3.440089
-0.13969788 0.53842753 3.8981886
-0.090768717 0.51869249 4.4831138
-0.020441584 0.50070727 5.3547673
-0.10608849 0.55239773 3.4486599
-0.052343294 0.53675365 3.9165292
0.013215259 0.51430184 4.4820871
-0.02611593 -0.059798401 0.050936799
-0.031600438 0.55064392 3.474242
0.034973867 0.53511602 3.9328701
0.11768302 0.51345825 4.5061245
0.23326372 0.49401382 5.3378906
0.042565383 0.54819781 3.4828122
0.12309577 0.53165597 3.9391599
0.22090757 0.51285344 4.5171847
0.36106393 0.49171752 5.3264523
0.11800101 0.54749453 3.5053947
0.21258892 0.53184795 3.9644964
0.32701138 0.51034671 4.5221543
0.48526859 0.4859935 5.284009
0.19541362 0.54580224 3.526922
0.30283064 0.53027189 3.9767826
0.43069577 0.50624549 4.5051332
0.61570591 0.48809227 5.3056121
0.27367625 0.54425114 3.5404334
0.39164495 0.52509809 3.9670227
0.54023057 0.50832927 4.5321293
0.76534826 0.50204742 5.4421091
0.35056761 0.53904796 3.5348978
0.48621991 0.52719951 3.9963
-0.02611593 -0.059798401 0.050936799
-0.02611593 -0.059798401 0.050936799
0.42996508 0.53836656 3.5554056
-0.02611593 -0.059798401 0.050936799
0.17176493 0.082992889 1.1861997
-0.02611593 -0.059798401 0.050936799
-0.02611593 -0.059798401 0.050936799
-0.02611593 -0.059798401 0.050936799
-0.02611593 -0.059798401 0.050936799
0.27612862 0.083418392 1.4173317
-0.02611593 -0.059798401 0.050936799
-0.02611593 -0.059798401 0.050936799
0.27824217 0.11240628 1.4178166
1.2164687 0.46883184 5.077939
-0.02611593 -0.059798401 0.050936799
0.27938944 0.14036176 1.4203018
-0.02611593 -0.059798401 0.050936799
1.3121192 0.45868897 4.9539218
0.27544394 0.16842565 1.4178826
-0.02611593 -0.059798401 0.050936799
-0.02611593 -0.059798401 0.050936799
1.3995391 0.4467923 4.8180242
-0.02611593 -0.059798401 0.050936799
-0.02611593 -0.059798401 0.050936799
1.324186 0.51248664 4.5745411
1.4809037 0.43497142 4.6792402
-0.02611593 -0.059798401 0.050936799
1.1465249 0.51839763 4.007782
1.4381127 0.51313168 4.5694175
1.5678862 0.42755294 4.5724406
1.0131644 0.5289945 3.6153374
1.242331 0.51621622 3.9969451
1.5370786 0.50773245 4.5144486
-0.02611593 -0.059798401 0.050936799
1.0981222 0.52670783 3.6127048
1.338201 0.51598024 3.9891431
-0.02611593 -0.059798401 0.050936799
0.45987138 0.070806876 1.2446049
1.1893342 0.52716404 3.6230087
1.4328161 0.51298344 3.9683106
0.38773075 0.0720938 1.0779223
1.7953601 0.40286851 4.2276187
1.2815046 0.52665299 3.6312766
-0.02611593 -0.059798401 0.050936799
0.50782311 0.099819079 1.289247
1.863196 0.3956629 4.1131792
