# .PCD v0.7 - Point Cloud Data file format
VERSION 0.7
FIELDS x y z
SIZE 4 4 4
TYPE F F F
COUNT 1 1 1
WIDTH 1390
HEIGHT 1
VIEWPOINT 0 0 0 1 0 0 0
POINTS 1390
DATA ascii
-0.21242857 0.61429226 0.75885862
-0.20504326 0.61794943 0.83181125
-0.1958809 0.6127817 0.89456749
-0.18468542 0.6065709 0.95926744
-0.20015596 0.62201267 0.77177286
-0.18802072 0.61485273 0.83343709
-0.17770785 0.61455399 0.90326226
-0.1635129 0.6083324 0.96790588
-0.18511038 0.61990488 0.774454
-0.17186601 0.61665022 0.84116971
-0.15768193 0.61244637 0.90484971
-0.143355 0.6111154 0.97558141
-0.17008746 0.61681539 0.77611738
-0.1547755 0.61649871 0.84584862
-0.13952759 0.61423671 0.91254485
-0.12124276 0.61192775 0.98118401
-0.1559511 0.61863822 0.782888
-0.1376397 0.61831075 0.85256284
-0.12036949 0.61702329 0.92023915
-0.099390537 0.60395873 0.97462851
-0.14083758 0.61947566 0.78862208
-0.12065853 0.61425048 0.8521713
-0.10036229 0.61493379 0.92082697
-0.078146137 0.60966522 0.98633796
-0.12574279 0.62033129 0.7933566
-0.10349614 0.61804402 0.85992128
-0.081249505 0.61575693 0.92648596
-0.056135371 0.60856837 0.98690617
-0.11062534 0.62216848 0.79910874
-0.085533872 0.61399823 0.85851133
-0.061215714 0.61564893 0.92810947
-0.034124605 0.60747153 0.98747444
-0.09462133 0.61909348 0.79975373
-0.068458162 0.61486471 0.86220849
-0.041181929 0.61554098 0.92973298
-0.012091184 0.60735637 0.98906034
-0.078636043 0.61603659 0.79939902
-0.05042794 0.61376411 0.86385161
-0.021170793 0.61445123 0.93033874
0.0089650694 0.60822654 0.99168277
-0.063473299 0.61983734 0.80718642
-0.032352418 0.61462694 0.86752999
-0.0022234954 0.61141974 0.92792845
0.029851902 0.60424227 0.9862178
-0.047465358 0.61776221 0.80784953
-0.014295616 0.61550784 0.87020874
0.016897144 0.61424249 0.93362337
0.052975744 0.60805053 0.99185562
-0.031476144 0.61570513 0.80751282
0.0026973467 0.61444706 0.86987132
0.037870657 0.61318541 0.9322111
0.073907867 0.60602975 0.98842597
-0.015464274 0.61462975 0.8081938
0.019645009 0.61142272 0.86749852
0.057866994 0.61311364 0.93183529
0.096884936 0.60596532 0.98699421
-0.0002976004 0.61943042 0.81599927
0.037660435 0.61134005 0.86815995
0.076840863 0.61206371 0.93046063
0.11777963 0.60398072 0.98156524
0.015650243 0.61640966 0.81364524
0.055653218 0.61027563 0.86780369
0.096750535 0.60906482 0.92603213
0.13863294 0.6010325 0.97411889
0.03171134 0.61829758 0.81637967
0.073627271 0.60922933 0.86644781
0.11670943 0.60902923 0.92365694
0.16065548 0.60293514 0.97474122
0.0487496 0.61920029 0.8180775
0.092714399 0.61308807 0.87016153
0.13664567 0.6080119 0.92026412
0.1825953 0.60291046 0.97132885
0.064693525 0.61517966 0.81570554
0.11175622 0.61498332 0.87183982
0.15775508 0.61284518 0.92495799
0.20349784 0.60292548 0.96593601
0.0817357 0.61708218 0.81742138
0.12964752 0.6120097 0.86644924
0.17658611 0.60892242 0.91653156
0.22540019 0.60293698 0.96052426
0.098732598 0.61702114 0.81710196
0.14656168 0.61002141 0.86209512
0.19650364 0.60792321 0.91213906
0.24523501 0.60001045 0.95209712
0.11462035 0.61305487 0.81173092
0.16556212 0.61095303 0.86175609
0.21753421 0.61182904 0.91281617
0.26828784 0.60489082 0.95375437
0.13170391 0.61592096 0.8154642
0.18352139 0.6109246 0.85941857
0.23530534 0.60696423 0.90139163
0.28704402 0.60104042 0.94132936
0.14868209 0.61587805 0.81414515
0.20034885 0.60600919 0.85101175
0.25633591 0.61087012 0.90206873
0.30897298 0.60303348 0.93695331
0.16457374 0.61291152 0.80879211
0.21935716 0.60894054 0.85070878
0.27417505 0.60895056 0.89369726
0.32877418 0.60114294 0.92654485
0.18151055 0.61190504 0.80545563
0.23727898 0.60894829 0.84637189
0.2930139 0.60702741 0.88530684
0.35072973 0.6051175 0.92320454
0.19851136 0.61284381 0.8051542
0.25515941 0.60799235 0.84001774
0.31396565 0.61000586 0.88196731
0.3684673 0.6012888 0.90979862
0.21542943 0.61185533 0.80081815
0.27412242 0.60896015 0.83767933
0.33178207 0.60710454 0.87257808
0.389359 0.60332167 0.90344208
0.23341134 0.61280859 0.79949826
0.29202554 0.60898602 0.8323428
0.35062882 0.60718107 0.86422384
0.4102093 0.60439074 0.89506823
0.25035205 0.61280191 0.79617983
0.30888346 0.60705191 0.82498974
0.36951301 0.60722142 0.85786879
0.42692834 0.60058373 0.88068146
0.26622501 0.60985357 0.78982717
0.32783565 0.61003757 0.82168776
0.38736388 0.6083014 0.84955132
0.44676405 0.60267448 0.87134475
0.28314704 0.60986495 0.78550911
0.34467882 0.60912144 0.81335306
0.40723309 0.60935605 0.84219587
0.46659583 0.60376525 0.86199009
0.30215925 0.61379606 0.78522414
0.36254054 0.60818356 0.80599916
0.4219712 0.60553801 0.82884634
0.48336411 0.60292155 0.84965664
0.31695357 0.60992378 0.77487355
0.38042882 0.60922736 0.79968101
0.43977678 0.60465449 0.81849349
0.50213593 0.60307044 0.83730364
0.33594313 0.61287314 0.77357095
0.3962456 0.6063332 0.79032934
0.45967257 0.60769075 0.81217378
0.5240432 0.60909891 0.83100039
0.35180131 0.61094266 0.76623666
0.41409647 0.60741311 0.78201181
0.47748598 0.60880691 0.80185699
0.53562033 0.6024369 0.80965596
0.36762202 0.60904843 0.75690299
0.43198475 0.60845691 0.77569366
0.49633667 0.60988325 0.79352063
0.55339241 0.60258937 0.7973218
0.38761929 0.61399388 0.75561762
0.45088071 0.61149675 0.76939273
0.51004148 0.60710478 0.77820867
0.56912726 0.60278517 0.78302592
0.40345871 0.61208147 0.74728364
0.46459642 0.6067006 0.75504428
0.52683234 0.6072427 0.76689285
0.58692586 0.60491925 0.77172744
0.42032063 0.61114728 0.73994857
0.48349237 0.6097405 0.74874336
0.54360461 0.60739881 0.75457752
0.60161573 0.60315514 0.7554149
0.43719038 0.61221272 0.73264951
0.50030202 0.60986036 0.73842734
0.55833578 0.60659838 0.74028242
0.61630946 0.60239094 0.73912048
0.45299235 0.6103366 0.72231627
0.51711565 0.61098003 0.72812933
0.57613051 0.60773259 0.72896594
0.63207102 0.60456836 0.7258603
0.47088459 0.61238015 0.71601611
0.5329029 0.61012185 0.71681428
0.5918842 0.60791034 0.71566963
0.64369738 0.6008696 0.70656919
0.48361918 0.60756946 0.70268613
0.54769021 0.60926706 0.70551819
0.60664195 0.60909152 0.70241022
0.66046268 0.6040433 0.69330817
0.50249642 0.61062741 0.69538558
0.5614177 0.60747045 0.69122386
0.62341815 0.61024743 0.69011289
0.675183 0.60526061 0.67804945
0.51934749 0.61171091 0.68708682
0.57721275 0.60861176 0.67994493
0.6371308 0.60946864 0.67483687
0.68788105 0.60550344 0.66181052
0.53413486 0.61085624 0.67579073
0.5939889 0.60976774 0.66764754
0.65084738 0.60968971 0.65957892
0.70460498 0.60771334 0.64653224
0.55196702 0.61195427 0.66647357
0.60876149 0.60993093 0.65536976
0.66458273 0.60989273 0.64532059
0.71628445 0.60797775 0.62931252
0.56673563 0.61111772 0.65417767
0.62351525 0.61011225 0.64209241
0.67830324 0.61111373 0.63008058
0.72694153 0.6072641 0.61109388
0.58252674 0.61125928 0.6428808
0.64131784 0.61324608 0.63081187
0.68794864 0.60740405 0.61182666
0.74064332 0.6085031 0.59485424
0.60034406 0.61337519 0.63258189
0.65404946 0.61245292 0.61655438
0.70878512 0.61450839 0.60156161
0.75030452 0.60879278 0.57667249
0.6140942 0.61256027 0.61930531
0.66776603 0.612674 0.60129637
0.71841973 0.61281657 0.58234411
0.75994301 0.60810083 0.557473
0.63089299 0.61469781 0.60802561
0.68047887 0.6118989 0.58603913
0.73011404 0.61206311 0.56610608
0.77264893 0.61034316 0.5412702
0.64462048 0.61290127 0.59373128
0.69521797 0.61309808 0.57178009
0.74179745 0.61332738 0.54890436
0.78228742 0.60965121 0.52207071
0.65837449 0.61308616 0.58047253
0.7028411 0.60841393 0.55254608
0.75449944 0.61456996 0.53268349
0.79193383 0.61095881 0.50290728
0.67310965 0.61328554 0.56619543
0.71862924 0.61257291 0.54032153
0.76417929 0.61484158 0.51550138
0.79754651 0.60829961 0.4827472
0.68480003 0.61153227 0.54993939
0.7293011 0.61084121 0.52308464
0.77383655 0.61413151 0.49730155
0.80621177 0.60959274 0.46460223
0.69955784 0.61271346 0.53667992
0.74098057 0.61110568 0.50586486
0.78247523 0.61344308 0.47812086
0.80980605 0.60695875 0.44348013
0.71022576 0.60998195 0.51942497
0.75065649 0.61037749 0.48866469
0.7860617 0.60880941 0.45696273
0.82352352 0.61219704 0.42731255
0.72596854 0.61217743 0.5051651
0.76133233 0.60964566 0.47144577
0.79674536 0.61007726 0.43977979
0.82409585 0.60859215 0.40522918
0.73664427 0.61144567 0.48794615
0.77301574 0.61090994 0.45424405
0.80540669 0.61037058 0.42161679
0.83276105 0.60988528 0.38708419
0.74934232 0.61168838 0.47170728
0.78774798 0.61512685 0.43903938
0.81304944 0.61068553 0.40247291
0.83738178 0.60922927 0.36697897
0.76406664 0.61390567 0.45646653
0.7933566 0.61146766 0.4188613
0.81868869 0.61000788 0.38334858
0.84403259 0.61154747 0.3478899
0.77776849 0.61514461 0.44022691
0.80201799 0.61176097 0.4006983
0.82735401 0.611301 0.36520359
0.84763086 0.60991329 0.32678583
0.78844821 0.61541259 0.423026
0.81370533 0.61402512 0.38351461
0.83399695 0.61161953 0.34607849
0.85227424 0.61023909 0.30769831
0.79707903 0.61272448 0.40380928
0.82034045 0.61234403 0.36435348
0.84062129 0.61195624 0.32595375
0.85790646 0.61257899 0.28762838
0.80874372 0.61400688 0.38560787
0.82898313 0.6126554 0.34519082
0.84826797 0.613271 0.30682784
0.86154997 0.61290836 0.26855966
0.81637865 0.61232221 0.36642796
0.83762574 0.61296684 0.32602814
0.8549149 0.61458939 0.2877208
0.86317128 0.61226314 0.24851085
0.82904321 0.61360091 0.3482078
0.84527254 0.61428159 0.30690223
0.86356932 0.61790037 0.26861218
0.78627557 0.55319732 0.21287
0.83363342 0.60996354 0.3270489
0.85291523 0.61459655 0.28775838
0.86619037 0.61725152 0.24854457
0.59271449 0.40588853 0.15981135
0.84430224 0.61224937 0.30888435
0.85552847 0.61194813 0.26765472
0.76512682 0.5383656 0.20799603
0.59144467 0.40414572 0.14579883
0.85092258 0.61158627 0.28874156
0.8651827 0.61525536 0.24852732
0.57458782 0.39202785 0.15589868
0.56102276 0.38158289 0.12795423
0.86257249 0.61388648 0.26955855
0.74699241 0.52250528 0.20404732
0.55320662 0.37541366 0.13899273
-0.02611593 -0.059798401 0.050936799
0.87422633 0.61718661 0.25039354
0.5836246 0.39697662 0.15681931
0.54290706 0.36570445 0.12500519
0.55752474 0.3790645 0.10196536
0.71373087 0.49277362 0.19612958
0.571284 0.38631096 0.14085202
0.54266363 0.36593962 0.1120096
0.54422581 0.36936608 0.088034198
0.60775006 0.41081578 0.16061924
0.56296933 0.37761259 0.12584525
0.53639787 0.36019737 0.099018633
0.57410461 0.39245349 0.076888636
-0.02611593 -0.059798401 0.050936799
0.55465847 0.36991397 0.11085652
0.54016155 0.36241782 0.08598391
0.57286143 0.39269227 0.063911833
-0.02611593 -0.059798401 0.050936799
0.55240369 0.36715683 0.097844452
0.54896277 0.3696014 0.073944993
0.60272157 0.41579771 0.051766608
0.55559725 0.3639476 0.10873029
0.54712278 0.36242887 0.083853051
0.56578207 0.38175541 0.061845843
0.63056338 0.43892848 0.038659308
0.55131626 0.35921603 0.094720103
0.55289412 0.36664179 0.070816785
0.57857555 0.39194217 0.048786156
0.64331943 0.44915143 0.023600297
0.55106503 0.3574515 0.081688479
0.55063921 0.36388463 0.057804722
0.60540974 0.41307691 0.035661604
0.62602121 0.43946743 0.0097442977
0.54478043 0.35172737 0.067697853
0.56846231 0.37703493 0.045704801
0.62217295 0.42528516 0.020563468
0.62877029 0.44270939 -0.0042532757
0.54852152 0.35296604 0.053645458
0.56518894 0.37429941 0.031711861
0.62289977 0.42755258 0.0055858009
0.6175015 0.43598521 -0.017168298
0.56231087 0.36214945 0.040548962
0.56795287 0.37652349 0.01869593
0.59760892 0.4098624 -0.0062647015
0.5972333 0.42427614 -0.029004645
-0.02611593 -0.059798401 0.050936799
0.57569414 0.38276511 0.0036588013
0.58134401 0.39913881 -0.01815819
0.57699472 0.4105311 -0.038877707
0.58281904 0.37659627 0.011416446
0.57043993 0.38001871 -0.0092968941
0.57908231 0.39939919 -0.032115862
0.58175522 0.41676542 -0.052858811
0.55552077 0.35691366 -0.00043250993
0.56917799 0.38027558 -0.02327336
0.57184708 0.39664188 -0.044034321
0.60249299 0.43701226 -0.07088694
0.57426888 0.37013268 -0.016549874
0.56991959 0.38152501 -0.037269395
0.55459702 0.38490397 -0.054927375
0.58625066 0.42727035 -0.081762731
0.55998874 0.36041981 -0.029462576
0.57166493 0.38377076 -0.05126619
0.58233052 0.40914309 -0.074014619
0.58901161 0.43351182 -0.095706254
0.58072549 0.37564936 -0.046581138
0.58539122 0.39602599 -0.068307266
0.58807212 0.41539186 -0.089014165
0.82732952 0.6289776 -0.17165817
0.57643753 0.3739354 -0.061536934
0.59011042 0.40129662 -0.084305711
0.82339662 0.60283357 -0.16305454
0.81999379 0.62932831 -0.18952054
0.58915615 0.38419458 -0.078595266
0.83442938 0.58770615 -0.15853322
0.84797692 0.62622833 -0.19010073
0.81167305 0.62866467 -0.2063825
0.92730033 0.63063639 -0.17450085
0.87794882 0.62513894 -0.19168213
0.83961868 0.62560093 -0.20896201
0.19820668 0.12668295 -0.02291489
0.91688943 0.62605309 -0.19539592
0.87953734 0.63054693 -0.21462184
0.84124869 0.63197255 -0.22988436
0.20407936 0.13280512 -0.03091681
0.91944045 0.63149363 -0.22035372
0.87216032 0.62993401 -0.23450151
0.21007042 0.13078393 -0.031065591
0.18905765 0.12184273 -0.029833496
0.9130069 0.63093138 -0.2432512
0.21106146 0.12376344 -0.030210853
0.19003387 0.11584017 -0.029960398
-0.02611593 -0.059798401 0.050936799
0.20705642 0.11274349 -0.028334573
0.19799104 0.11484779 -0.03212807
-0.02611593 -0.059798401 0.050936799
0.15801433 0.099921539 -0.02764808
0.20197068 0.1098343 -0.032293323
-0.02611593 -0.059798401 0.050936799
0.16595279 0.098947294 -0.0308154
-0.02611593 -0.059798401 0.050936799
-0.02611593 -0.059798401 0.050936799
0.16494027 0.090934142 -0.029941097
-0.02611593 -0.059798401 0.050936799
0.13896675 0.086991951 -0.027525298
0.16890901 0.087938383 -0.031069972
-0.02611593 -0.059798401 0.050936799
0.14490165 0.085025027 -0.030673057
-0.02611593 -0.059798401 0.050936799
-0.02611593 -0.059798401 0.050936799
0.14389306 0.078011721 -0.029780734
-0.02611593 -0.059798401 0.050936799
0.12290777 0.07606934 -0.028422512
0.14782043 0.074052304 -0.032926951
-0.02611593 -0.059798401 0.050936799
0.12784283 0.074106 -0.031551488
-0.02611593 -0.059798401 0.050936799
-0.02611593 -0.059798401 0.050936799
0.12683423 0.067092694 -0.030659158
-0.02611593 -0.059798401 0.050936799
0.11186355 0.069128096 -0.029341608
-0.02611593 -0.059798401 0.050936799
-0.02611593 -0.059798401 0.050936799
0.1098325 0.061136633 -0.029448174
-0.02611593 -0.059798401 0.050936799
-0.02611593 -0.059798401 0.050936799
0.11477149 0.060173132 -0.032559123
-0.02611593 -0.059798401 0.050936799
0.095860727 0.058151215 -0.02723984
0.10876684 0.049160358 -0.030645266
-0.02611593 -0.059798401 0.050936799
0.097788483 0.05419898 -0.030348476
-0.02611593 -0.059798401 0.050936799
-0.02611593 -0.059798401 0.050936799
0.099734955 0.050228659 -0.032457449
-0.02611593 -0.059798401 0.050936799
0.085820265 0.052206218 -0.028159704
0.10069641 0.045244016 -0.033565998
-0.02611593 -0.059798401 0.050936799
0.086762995 0.04723965 -0.030267909
-0.02611593 -0.059798401 0.050936799
-0.02611593 -0.059798401 0.050936799
0.081766009 0.03822295 -0.028336801
-0.02611593 -0.059798401 0.050936799
0.074813507 0.04522879 -0.027079482
0.082727462 0.033238299 -0.029445343
-0.02611593 -0.059798401 0.050936799
0.076745197 0.042276394 -0.030170094
-0.02611593 -0.059798401 0.050936799
-0.02611593 -0.059798401 0.050936799
0.071763001 0.032241765 -0.027257349
-0.02611593 -0.059798401 0.050936799
0.066795327 0.040258348 -0.027019247
0.073690757 0.028289534 -0.030365981
-0.02611593 -0.059798401 0.050936799
0.067723274 0.036309712 -0.030109093
-0.02611593 -0.059798401 0.050936799
-0.02611593 -0.059798401 0.050936799
0.06569615 0.029318076 -0.030197639
-0.02611593 -0.059798401 0.050936799
0.057792138 0.034273583 -0.025958579
0.064657964 0.024340607 -0.031268608
-0.02611593 -0.059798401 0.050936799
0.057735052 0.029310608 -0.028047998
-0.02611593 -0.059798401 0.050936799
-0.02611593 -0.059798401 0.050936799
0.056696877 0.02433314 -0.029118959
-0.02611593 -0.059798401 0.050936799
0.0507925 0.029281463 -0.02491748
0.054658882 0.019359261 -0.03017113
-0.02611593 -0.059798401 0.050936799
0.048754506 0.024307584 -0.025969651
-0.02611593 -0.059798401 0.050936799
-0.02611593 -0.059798401 0.050936799
0.047697611 0.019348206 -0.028040279
-0.02611593 -0.059798401 0.050936799
0.044767022 0.027321434 -0.025840428
0.046644639 0.01538865 -0.03009288
-0.02611593 -0.059798401 0.050936799
0.044699073 0.024376208 -0.028893471
-0.02611593 -0.059798401 0.050936799
-0.02611593 -0.059798401 0.050936799
0.041686922 0.016370248 -0.027981587
-0.02611593 -0.059798401 0.050936799
0.036801092 0.021296892 -0.022799239
0.043589018 0.015453684 -0.033035491
-0.02611593 -0.059798401 0.050936799
0.03671442 0.018369764 -0.026851937
-0.02611593 -0.059798401 0.050936799
-0.02611593 -0.059798401 0.050936799
0.035676241 0.013392288 -0.027922899
-0.02611593 -0.059798401 0.050936799
0.031775426 0.019333273 -0.023740984
0.034604542 0.0094508296 -0.03097517
-0.02611593 -0.059798401 0.050936799
0.032692499 0.017402371 -0.027794454
-0.02611593 -0.059798401 0.050936799
-0.02611593 -0.059798401 0.050936799
0.027699435 0.0093855066 -0.025845326
-0.02611593 -0.059798401 0.050936799
0.025798261 0.015319305 -0.021700989
0.02861651 0.0074546123 -0.029898796
-0.02611593 -0.059798401 0.050936799
0.025715515 0.013392 -0.025735669
-0.02611593 -0.059798401 0.050936799
-0.02611593 -0.059798401 0.050936799
0.02367359 0.0074182898 -0.026805863
-0.02611593 -0.059798401 0.050936799
0.02079132 0.013337588 -0.021643069
0.021639524 0.0034442344 -0.027840015
-0.02611593 -0.059798401 0.050936799
0.021674871 0.012442702 -0.027677849
-0.02611593 -0.059798401 0.050936799
-0.02611593 -0.059798401 0.050936799
0.018651856 0.0064544855 -0.027729589
-0.02611593 -0.059798401 0.050936799
0.017754426 0.013384532 -0.023586024
0.017602816 0.0034947679 -0.029764172
-0.02611593 -0.059798401 0.050936799
0.016686656 0.010442897 -0.026620276
-0.02611593 -0.059798401 0.050936799
-0.02611593 -0.059798401 0.050936799
0.012693411 0.0024224366 -0.024689935
-0.02611593 -0.059798401 0.050936799
0.013751228 0.012399058 -0.023528881
0.012577146 0.0015311403 -0.030705925
-0.02611593 -0.059798401 0.050936799
0.01364976 0.010489842 -0.028563224
-0.02611593 -0.059798401 0.050936799
-0.02611593 -0.059798401 0.050936799
0.010611945 0.0055195517 -0.029596604
-0.02611593 -0.059798401 0.050936799
0.010714328 0.012446002 -0.025471829
0.0095254593 0.0025960049 -0.03363052
-0.02611593 -0.059798401 0.050936799
0.0076765204 0.0074757123 -0.026505217
-0.02611593 -0.059798401 0.050936799
-0.02611593 -0.059798401 0.050936799
0.0056385244 0.0025018263 -0.027557388
-0.02611593 -0.059798401 0.050936799
0.005740908 0.0094282841 -0.023432616
0.0026007132 -0.002468464 -0.028590765
-0.02611593 -0.059798401 0.050936799
0.0036881196 0.0054723178 -0.025466423
-0.02611593 -0.059798401 0.050936799
-0.02611593 -0.059798401 0.050936799
0.0016205333 0.0025342708 -0.028481882
-0.02611593 -0.059798401 0.050936799
0.0027227341 0.0094571402 -0.024375901
-0.0014172764 -0.0024360192 -0.029515263
-0.02611593 -0.059798401 0.050936799
0.00062163267 0.007555102 -0.029372659
-0.02611593 -0.059798401 0.050936799
-0.02611593 -0.059798401 0.050936799
-0.0023678658 0.00053087989 -0.0274431
-0.02611593 -0.059798401 0.050936799
-0.00029543764 0.0094859963 -0.025319189
-0.0044650426 -0.00037133135 -0.032421842
-0.02611593 -0.059798401 0.050936799
-0.0033815624 0.0065696198 -0.029315516
-0.02611593 -0.059798401 0.050936799
-0.02611593 -0.059798401 0.050936799
-0.02611593 -0.059798401 0.050936799
-0.02611593 -0.059798401 0.050936799
-0.005272788 0.0054684402 -0.023297992
-0.0084830336 -0.00033888663 -0.033346348
-0.02611593 -0.059798401 0.050936799
-0.0063849417 0.0055805631 -0.029277164
-0.02611593 -0.059798401 0.050936799
-0.02611593 -0.059798401 0.050936799
-0.02611593 -0.059798401 0.050936799
-0.02611593 -0.059798401 0.050936799
-0.007350327 0.009565386 -0.028186642
-0.013437732 -0.0033746976 -0.030307464
-0.02611593 -0.059798401 0.050936799
-0.02611593 -0.059798401 0.050936799
-0.02611593 -0.059798401 0.050936799
-0.02611593 -0.059798401 0.050936799
-0.014388321 -0.00040779856 -0.028235294
-0.02611593 -0.059798401 0.050936799
-0.010338908 0.0075584021 -0.027166646
-0.017455725 -0.0033422527 -0.031231951
-0.02611593 -0.059798401 0.050936799
-0.02611593 -0.059798401 0.050936799
-0.02611593 -0.059798401 0.050936799
-0.02611593 -0.059798401 0.050936799
-0.017406497 -0.0003789427 -0.029178578
-0.02611593 -0.059798401 0.050936799
-0.02611593 -0.059798401 0.050936799
-0.021469785 -0.0023099738 -0.032138437
-0.02611593 -0.059798401 0.050936799
-0.02611593 -0.059798401 0.050936799
-0.02611593 -0.059798401 0.050936799
-0.02611593 -0.059798401 0.050936799
-0.02611593 -0.059798401 0.050936799
-0.02611593 -0.059798401 0.050936799
-0.02611593 -0.059798401 0.050936799
-0.02611593 -0.059798401 0.050936799
-0.02611593 -0.059798401 0.050936799
-0.02611593 -0.059798401 0.050936799
-0.02611593 -0.059798401 0.050936799
-0.02611593 -0.059798401 0.050936799
-0.02611593 -0.059798401 0.050936799
-0.02611593 -0.059798401 0.050936799
-0.02611593 -0.059798401 0.050936799
-0.028516818 -0.00023093028 -0.034969855
-0.02611593 -0.059798401 0.050936799
-0.02611593 -0.059798401 0.050936799
-0.02611593 -0.059798401 0.050936799
-0.02611593 -0.059798401 0.050936799
-0.02611593 -0.059798401 0.050936799
-0.02611593 -0.059798401 0.050936799
-0.024355071 0.0076267361 -0.027903236
-0.032467771 -0.0022704958 -0.031931743
-0.02611593 -0.059798401 0.050936799
-0.02611593 -0.059798401 0.050936799
-0.02611593 -0.059798401 0.050936799
-0.02611593 -0.059798401 0.050936799
-0.031403933 -0.00032869796 -0.028915513
-0.02611593 -0.059798401 0.050936799
-0.02611593 -0.059798401 0.050936799
-0.035448499 -0.002277818 -0.030875705
-0.02611593 -0.059798401 0.050936799
-0.02611593 -0.059798401 0.050936799
-0.02611593 -0.059798401 0.050936799
-0.02611593 -0.059798401 0.050936799
-0.02611593 -0.059798401 0.050936799
-0.02611593 -0.059798401 0.050936799
-0.02611593 -0.059798401 0.050936799
-0.040495899 -0.00020595232 -0.033744708
-0.02611593 -0.059798401 0.050936799
-0.02611593 -0.059798401 0.050936799
-0.02611593 -0.059798401 0.050936799
-0.02611593 -0.059798401 0.050936799
-0.02611593 -0.059798401 0.050936799
-0.02611593 -0.059798401 0.050936799
-0.02611593 -0.059798401 0.050936799
-0.044476446 -0.00020968576 -0.032669887
-0.02611593 -0.059798401 0.050936799
-0.02611593 -0.059798401 0.050936799
-0.02611593 -0.059798401 0.050936799
-0.02611593 -0.059798401 0.050936799
-0.02611593 -0.059798401 0.050936799
-0.02611593 -0.059798401 0.050936799
-0.037352692 0.0076733916 -0.027658962
-0.048456989 -0.0002134192 -0.031595059
-0.02611593 -0.059798401 0.050936799
-0.042411868 0.0067457655 -0.030582003
-0.02611593 -0.059798401 0.050936799
-0.02611593 -0.059798401 0.050936799
-0.04744146 0.0037823145 -0.031541772
-0.02611593 -0.059798401 0.050936799
-0.040303826 0.0056302301 -0.02463964
-0.053500462 0.0028582844 -0.034446035
-0.02611593 -0.059798401 0.050936799
-0.046396345 0.005742209 -0.029525209
-0.02611593 -0.059798401 0.050936799
-0.02611593 -0.059798401 0.050936799
-0.051422004 0.0037785813 -0.030466944
-0.02611593 -0.059798401 0.050936799
-0.043332871 0.0076768361 -0.026546557
-0.05644767 0.0018149535 -0.031408697
-0.02611593 -0.059798401 0.050936799
-0.02611593 -0.059798401 0.050936799
-0.02611593 -0.059798401 0.050936799
-0.02611593 -0.059798401 0.050936799
-0.055402555 0.0037748478 -0.029392131
-0.02611593 -0.059798401 0.050936799
-0.047313415 0.0076731029 -0.025471736
-0.06144283 0.0028327289 -0.031296723
-0.02611593 -0.059798401 0.050936799
-0.054405749 0.0077886707 -0.0303385
-0.02611593 -0.059798401 0.050936799
-0.02611593 -0.059798401 0.050936799
-0.058368489 0.0027496056 -0.027354453
-0.02611593 -0.059798401 0.050936799
-0.051327478 0.0087053785 -0.026378214
-0.065438166 0.003846915 -0.031203542
-0.02611593 -0.059798401 0.050936799
-0.057367757 0.0077632591 -0.02828281
-0.02611593 -0.059798401 0.050936799
-0.02611593 -0.059798401 0.050936799
-0.062345102 0.003745703 -0.026261609
-0.02611593 -0.059798401 0.050936799
-0.056389671 0.011795163 -0.030228846
-0.070429407 0.005864521 -0.031073555
-0.02611593 -0.059798401 0.050936799
-0.061348304 0.0077595259 -0.027207986
-0.02611593 -0.059798401 0.050936799
-0.02611593 -0.059798401 0.050936799
-0.065307103 0.0037202914 -0.024205912
-0.02611593 -0.059798401 0.050936799
-0.059351679 0.011769752 -0.028173152
-0.074391223 0.0058426983 -0.028999075
-0.02611593 -0.059798401 0.050936799
-0.067406379 0.011852731 -0.031021815
-0.02611593 -0.059798401 0.050936799
-0.02611593 -0.059798401 0.050936799
-0.071346469 0.0077954149 -0.027020082
-0.02611593 -0.059798401 0.050936799
-0.063347019 0.012783938 -0.028079972
-0.079378523 0.0088601355 -0.028851062
-0.02611593 -0.059798401 0.050936799
-0.070368387 0.011827319 -0.028966125
-0.02611593 -0.059798401 0.050936799
-0.02611593 -0.059798401 0.050936799
-0.076341622 0.0088131903 -0.026908111
-0.02611593 -0.059798401 0.050936799
-0.066279434 0.010722687 -0.024060994
-0.086402908 0.011920921 -0.030664794
-0.02611593 -0.059798401 0.050936799
-0.075344823 0.012827005 -0.027854487
-0.02611593 -0.059798401 0.050936799
-0.02611593 -0.059798401 0.050936799
-0.079284906 0.0087696901 -0.023852751
-0.02611593 -0.059798401 0.050936799
-0.07130418 0.013776302 -0.025912311
-0.090360805 0.012898928 -0.028572295
-0.02611593 -0.059798401 0.050936799
-0.079306647 0.012805183 -0.025780007
-0.02611593 -0.059798401 0.050936799
-0.02611593 -0.059798401 0.050936799
-0.089367926 0.01591292 -0.029536683
-0.02611593 -0.059798401 0.050936799
-0.075284727 0.013772569 -0.02483749
-0.098377146 0.017962964 -0.030331198
-0.02611593 -0.059798401 0.050936799
-0.085327283 0.016862217 -0.027594507
-0.02611593 -0.059798401 0.050936799
-0.02611593 -0.059798401 0.050936799
-0.091296598 0.014847911 -0.025518484
-0.02611593 -0.059798401 0.050936799
-0.08027596 0.015790176 -0.0247075
-0.10536408 0.020987585 -0.030145608
-0.02611593 -0.059798401 0.050936799
-0.090299793 0.018861733 -0.026464857
-0.02611593 -0.059798401 0.050936799
-0.02611593 -0.059798401 0.050936799
-0.099298142 0.018894034 -0.026295744
-0.02611593 -0.059798401 0.050936799
-0.087296411 0.019850798 -0.026503213
-0.11133248 0.023990516 -0.028979141
-0.02611593 -0.059798401 0.050936799
-0.095276229 0.019861421 -0.025353231
-0.02611593 -0.059798401 0.050936799
-0.02611593 -0.059798401 0.050936799
-0.10731056 0.024957901 -0.028036635
-0.02611593 -0.059798401 0.050936799
-0.090224899 0.018789377 -0.022466213
-0.1203112 0.02902196 -0.028719936
-0.02611593 -0.059798401 0.050936799
-0.10225923 0.023885859 -0.025149617
-0.02611593 -0.059798401 0.050936799
-0.02611593 -0.059798401 0.050936799
-0.11226827 0.025939498 -0.025925338
-0.02611593 -0.059798401 0.050936799
-0.099255852 0.024874922 -0.025187977
-0.1272794 0.032028493 -0.027534693
-0.02611593 -0.059798401 0.050936799
-0.10926097 0.027928391 -0.025945671
-0.02611593 -0.059798401 0.050936799
-0.02611593 -0.059798401 0.050936799
-0.1222616 0.031992458 -0.026628979
-0.02611593 -0.059798401 0.050936799
-0.10321767 0.024853101 -0.023113485
-0.13625811 0.03705994 -0.027275488
-0.02611593 -0.059798401 0.050936799
-0.11623311 0.029935081 -0.024778444
-0.02611593 -0.059798401 0.050936799
-0.02611593 -0.059798401 0.050936799
-0.12819648 0.033959381 -0.02348122
-0.02611593 -0.059798401 0.050936799
-0.11221511 0.029902635 -0.023853946
-0.15025373 0.047144651 -0.028831553
-0.02611593 -0.059798401 0.050936799
-0.12520789 0.035966363 -0.024501216
-0.02611593 -0.059798401 0.050936799
-0.02611593 -0.059798401 0.050936799
-0.14322542 0.045083698 -0.026999805
-0.02611593 -0.059798401 0.050936799
-0.12121254 0.034952179 -0.024594396
-0.15919499 0.05213993 -0.026573028
-0.02611593 -0.059798401 0.050936799
-0.13620102 0.042022914 -0.025186069
-0.02611593 -0.059798401 0.050936799
-0.02611593 -0.059798401 0.050936799
-0.15318523 0.050100651 -0.025722142
-0.02611593 -0.059798401 0.050936799
-0.12818077 0.037958704 -0.023409147
-0.17515279 0.062195651 -0.026092194
-0.02611593 -0.059798401 0.050936799
-0.14717545 0.048061371 -0.02487126
-0.02611593 -0.059798401 0.050936799
-0.02611593 -0.059798401 0.050936799
-0.16714732 0.059149366 -0.025296904
-0.02611593 -0.059798401 0.050936799
-0.14319491 0.0480651 -0.025946081
-0.19313981 0.074294396 -0.027537059
-0.02611593 -0.059798401 0.050936799
-0.15611672 0.053056646 -0.022612736
-0.02611593 -0.059798401 0.050936799
-0.02611593 -0.059798401 0.050936799
-0.18312383 0.069223188 -0.02581574
-0.02611593 -0.059798401 0.050936799
-0.15315473 0.053082056 -0.024668425
-0.20906016 0.084313937 -0.025056906
-0.02611593 -0.059798401 0.050936799
-0.17611818 0.066180475 -0.025001664
-0.02611593 -0.059798401 0.050936799
-0.02611593 -0.059798401 0.050936799
-0.2000588 0.080264218 -0.024298433
-0.02611593 -0.059798401 0.050936799
-0.16409171 0.059084333 -0.022354297
-0.23699914 0.10342928 -0.025188074
-0.02611593 -0.059798401 0.050936799
-0.19408646 0.07826113 -0.025446877
-0.02611593 -0.059798401 0.050936799
-0.02611593 -0.059798401 0.050936799
-0.22301438 0.095362306 -0.024595641
-0.02611593 -0.059798401 0.050936799
-0.18509297 0.072211742 -0.024724435
-0.26290497 0.12150145 -0.023375537
-0.02611593 -0.059798401 0.050936799
-0.21503155 0.091334291 -0.024818037
-0.02611593 -0.059798401 0.050936799
-0.02611593 -0.059798401 0.050936799
-0.25494087 0.1174915 -0.024597585
-0.02611593 -0.059798401 0.050936799
-0.20302774 0.083256394 -0.023188345
-0.96745884 0.6525529 -0.20063829
-0.02611593 -0.059798401 0.050936799
-0.23894955 0.10639977 -0.02309712
-0.02611593 -0.059798401 0.050936799
-0.97006905 0.65118402 -0.17960706
-0.9617182 0.65378451 -0.21472828
-0.02611593 -0.059798401 0.050936799
-0.23098937 0.10138999 -0.024337202
-0.97567087 0.65182549 -0.1584834
-0.96732384 0.65342617 -0.19362266
-0.02611593 -0.059798401 0.050936799
-0.02611593 -0.059798401 0.050936799
-0.9762854 0.64944959 -0.13750777
-0.97093391 0.65206081 -0.17257264
-0.96759295 0.65669698 -0.20856349
-0.253874 0.11541589 -0.020653777
-0.98088342 0.65108728 -0.11638491
-0.97653967 0.65170246 -0.151467
-0.97318393 0.65532076 -0.18647623
-0.02611593 -0.059798401 0.050936799
-0.98349363 0.6497184 -0.095353663
-0.98214531 0.65134412 -0.13036136
-0.97981203 0.65398425 -0.1663695
-0.97546828 0.65459943 -0.2014516
-0.9891063 0.65237761 -0.075193651
-0.98776591 0.65200377 -0.11023738
-0.985403 0.65260798 -0.14428222
-0.98507327 0.65425545 -0.18027082
-0.98371494 0.64696252 -0.053385161
-0.99336761 0.65264523 -0.08911375
-0.99300438 0.65325665 -0.123121
-0.99667001 0.6559183 -0.1590164
-0.98833174 0.6486184 -0.03326194
-0.99196774 0.64924419 -0.067194045
-0.99960995 0.65290189 -0.10199659
-1.0002692 0.6525352 -0.13700274
-0.98794252 0.64723867 -0.012287073
-0.99455917 0.64785713 -0.045163162
-1.0051969 0.65252548 -0.079891294
-1.0128431 0.65518337 -0.11471186
-0.98854518 0.6478622 0.008742623
-0.9971655 0.64748806 -0.024113894
-1.0097842 0.6521455 -0.057804808
-1.0194339 0.6538108 -0.092605814
-0.99016643 0.64850748 0.028791439
-0.99777609 0.64611191 -0.0031202435
-1.0163671 0.65277249 -0.035662711
-1.0279977 0.65442681 -0.06942647
-0.98877734 0.64712417 0.049747512
-1.0043511 0.64873856 0.019057892
-1.02195 0.65339583 -0.013539404
-1.0315742 0.6520254 -0.046395138
-0.98539263 0.64473385 0.070647985
-1.0019661 0.64635187 0.039977163
-1.0205314 0.64997673 0.0093799606
-1.0401341 0.65364134 -0.023197785
-0.98602885 0.64639342 0.089696378
-1.0045497 0.64696455 0.062044092
-1.0260919 0.65158188 0.032520935
-1.0397044 0.64820808 0.00070398301
-0.98463982 0.64501017 0.11065245
-1.006171 0.64760971 0.082092911
-1.024696 0.64718103 0.054422617
-1.0412585 0.64678133 0.024715412
-0.98326159 0.64564461 0.1306449
-1.0017716 0.64419794 0.10395624
-1.0302523 0.64978594 0.077581622
-1.0537872 0.65139294 0.049041647
-0.97889179 0.64426869 0.15054494
-1.0013824 0.64281827 0.12493111
-1.0288486 0.64738476 0.099519335
-1.0503582 0.64594895 0.072887048
-0.97450328 0.64287454 0.17144465
-1.0039581 0.64543056 0.14703408
-1.0314134 0.64797938 0.12258594
-1.0579141 0.64856106 0.096083641
-0.9761166 0.64551944 0.1915295
-0.99758184 0.64102983 0.16784215
-1.0339783 0.64857394 0.14565253
-1.0574579 0.64510936 0.12102111
-0.97174287 0.64514333 0.21144755
-1.0001349 0.64462388 0.19096279
-1.0295603 0.64514399 0.16851552
-1.0570163 0.64267552 0.14497694
-0.96836907 0.64477074 0.23138441
-0.99874192 0.64424038 0.21193688
-1.0340983 0.64772731 0.19265538
-1.0635128 0.64622962 0.17117172
-0.9619996 0.64338768 0.25124687
-0.999322 0.64584571 0.23398426
-1.0366365 0.65030336 0.21675768
-1.0620526 0.64377421 0.19610843
-0.95564884 0.64202261 0.27010965
-0.99194187 0.64244121 0.25479153
-1.0202894 0.63886803 0.23725173
-1.0606073 0.64233661 0.22006348
-0.94928342 0.63963962 0.28995413
-0.98555374 0.64103997 0.27565369
-1.0198549 0.6394518 0.26026195
-1.0611204 0.6418699 0.24607348
-0.94492447 0.64028138 0.30889052
-0.98513395 0.64264166 0.29768226
-1.0144331 0.63701814 0.28312415
-1.0586566 0.64041066 0.27100939
-0.93657809 0.63790935 0.32769772
-0.97478098 0.63724494 0.31739748
-1.011003 0.63659132 0.30605999
-1.0532013 0.63694102 0.29585293
-0.93419224 0.64053988 0.34770742
-0.9733575 0.63984275 0.33942527
-1.0085502 0.63714987 0.33003229
-1.0547062 0.63847756 0.32191771
-0.92584181 0.63916761 0.36653268
-0.96399647 0.63644928 0.35919535
-1.0080929 0.63871533 0.35406023
-1.0512387 0.63801455 0.3468529
-0.91452253 0.63480324 0.38424778
-0.95958138 0.6370368 0.38113075
-1.0016673 0.63727796 0.37692162
-1.0428027 0.63455218 0.37064034
-0.91213274 0.63843358 0.40427548
-0.95418906 0.636639 0.40202969
-0.99623752 0.63684398 0.39981988
-1.0422893 0.63606352 0.39766726
-0.90280527 0.63607603 0.42206424
-0.94679725 0.63623393 0.42289102
-0.98683912 0.63341415 0.42158929
-1.0378033 0.63557881 0.42358327
-0.8954469 0.63670701 0.44094428
-0.93940532 0.63582897 0.44375238
-0.9824053 0.63398361 0.44452432
-1.0303631 0.63311982 0.44740757
-0.89008427 0.63834506 0.45987993
-0.9340052 0.63743079 0.46468735
-0.97300291 0.63155371 0.46631172
-1.0229001 0.63164264 0.47224954
-0.87777996 0.63499504 0.47659463
-0.92561746 0.63602239 0.48551187
-0.96952361 0.63409024 0.49130091
-1.0223601 0.63513553 0.50031215
-0.86944437 0.63464069 0.4944382
-0.91427159 0.63363963 0.50426269
-0.96011728 0.63266009 0.51310635
-1.0089517 0.62967372 0.52296996
-0.863078 0.63727498 0.51337308
-0.90589857 0.6332491 0.52410561
-0.95268792 0.63221896 0.53596699
-1.0014621 0.63017803 0.54884768
-0.84879673 0.632936 0.52903253
-0.89947993 0.63482922 0.54602146
-0.94425881 0.63177419 0.55880886
-0.99594975 0.63167137 0.57578057
-0.83750302 0.63160717 0.54480237
-0.88813019 0.63344622 0.56479031
-0.94175273 0.63629586 0.58485258
-0.98550612 0.63020146 0.59956652
-0.82719052 0.63026392 0.56159067
-0.87678039 0.63206327 0.58355916
-0.92443842 0.63091004 0.60243696
-0.97602099 0.62969887 0.62538862
-0.81882846 0.63189131 0.58046997
-0.86345351 0.62969124 0.6012727
-0.91205138 0.62948728 0.62318635
-0.9675504 0.63021779 0.65024781
-0.80653489 0.63055891 0.59622103
-0.85605383 0.63128603 0.62217009
-0.90261847 0.6300388 0.64602745
-0.95313025 0.62775177 0.67294091
-0.79033685 0.62428546 0.60780817
-0.84567732 0.63188815 0.64199346
-0.88725859 0.62662363 0.66568476
-0.93871003 0.62528592 0.69563401
-0.78392506 0.62888312 0.62877846
-0.83235049 0.62951624 0.65970695
-0.87487155 0.62520093 0.68643415
-0.92919832 0.62676483 0.72249186
-0.76771903 0.62460935 0.64040166
-0.81704283 0.62715524 0.67638338
-0.86641186 0.62773752 0.71032971
-0.91182005 0.62332445 0.74311113
-0.7603302 0.62822181 0.66033542
-0.80766213 0.62876081 0.69624346
-0.85302109 0.62731099 0.73107839
-0.90134597 0.62483603 0.76795083
-0.74805146 0.6279074 0.67510486
-0.79137331 0.62641424 0.71190143
-0.8406074 0.62786984 0.75286347
-0.88592201 0.62336636 0.79064316
-0.7347582 0.62657148 0.69083714
-0.77706546 0.62405688 0.72859651
-0.82130831 0.62349486 0.76942855
-0.87342566 0.62585235 0.81646287
-0.72541112 0.62921309 0.70871598
-0.76568127 0.62665504 0.74843717
-0.81184494 0.62702769 0.7933234
-0.85309321 0.6204378 0.8349905
-0.71017826 0.6269244 0.72139364
-0.75036967 0.62529391 0.76513147
-0.7935378 0.6246559 0.80994338
-0.83863854 0.62195307 0.85875541
-0.69297242 0.62264705 0.73299807
-0.73703504 0.62492162 0.78288108
-0.77814734 0.62422222 0.83065438
-0.82318801 0.62246495 0.88248342
-0.68164438 0.62529951 0.74983972
-0.7226966 0.62554562 0.80062991
-0.75888574 0.61988336 0.84522021
-0.80089337 0.61707932 0.89897418
-0.66836196 0.62598133 0.76460832
-0.70933545 0.62715495 0.81941521
-0.74839592 0.62539423 0.87013191
-0.78348076 0.61762017 0.92066532
-0.65117484 0.62172204 0.77521306
-0.69012994 0.62287039 0.83098209
-0.73200172 0.62595677 0.8908422
-0.76507211 0.61715758 0.94231963
-0.6398468 0.62437457 0.79205471
-0.67772335 0.62644678 0.8518216
-0.7156263 0.62653738 0.91055274
-0.74863654 0.61868376 0.96504724
-0.62751895 0.62702352 0.80887747
-0.65851384 0.62316203 0.86340642
-0.69048989 0.61928606 0.91895384
-0.72730738 0.61728299 0.98262846
-0.60837352 0.62179333 0.81742728
-0.64124006 0.62182981 0.87806386
-0.67700452 0.62378633 0.94379115
-0.70693648 0.61684948 1.0022459
-0.59411007 0.62248969 0.83117759
-0.62298518 0.62051219 0.89170289
-0.65090573 0.61656761 0.95017415
-0.68363035 0.61445975 1.0187719
-0.57689637 0.6202119 0.84281796
-0.60862023 0.62311763 0.91048753
-0.63646197 0.62010062 0.97297531
-0.6613239 0.61207354 1.0353167
-0.56069726 0.61895567 0.8534956
-0.5874486 0.61986202 0.92003542
-0.6151889 0.61875409 0.98755765
-0.6409452 0.61363971 1.0549703
-0.54638845 0.62161553 0.86928117
-0.57210648 0.62148219 0.93778348
-0.59200293 0.61447322 0.99804968
-0.62054789 0.61518776 1.0756233
-0.53016675 0.62134105 0.8809765
-0.55191207 0.61921179 0.94836795
-0.57459706 0.61803174 1.0187951
-0.59721506 0.61477959 1.0931851
-0.51392233 0.62204826 0.89368939
-0.53265345 0.6188904 0.96200615
-0.55429727 0.61867028 1.0344319
-0.57292384 0.61340415 1.1087105
-0.49576893 0.61882132 0.9022941
-0.51341355 0.61858696 0.97464472
-0.52821326 0.61246949 1.0398333
-0.5496285 0.61303216 1.1242729
-0.48047903 0.62149566 0.91706121
-0.49513206 0.61925089 0.98931944
-0.5078721 0.61407173 1.0574874
-0.52435225 0.61267108 1.1387981
-0.46134454 0.61828327 0.92464739
-0.47588819 0.61994737 1.001976
-0.48371968 0.61082333 1.0659792
-0.49818155 0.60939741 1.1482521
-0.44510016 0.6189906 0.93736041
-0.45662564 0.62062573 1.0156323
-0.461503 0.60952747 1.0775439
-0.47481823 0.61197066 1.1668676
-0.42402607 0.61482537 0.94189197
-0.43355587 0.61545366 1.0201083
-0.43922225 0.61017698 1.0921433
-0.44764772 0.60869336 1.1763028
-0.40777776 0.6165325 0.95462298
-0.41237637 0.61419749 1.0296923
-0.41602051 0.60989547 1.1027074
-0.42330331 0.6112811 1.1938998
-0.38861668 0.61530167 0.96324486
-0.39119694 0.61294144 1.0392762
-0.3918229 0.60861051 1.1132348
-0.39423072 0.60708731 1.198281
-0.37045145 0.61507422 0.97190362
-0.37094936 0.61463422 1.0519321
-0.36957958 0.60929626 1.1258349
-0.36890918 0.60868979 1.2148416
-0.35130906 0.61386156 0.97952592
-0.34974334 0.6153596 1.0625517
-0.34537804 0.60901117 1.1363803
-0.34085116 0.60551745 1.21826
-0.33212531 0.61361247 0.98916548
-0.32760152 0.6141361 1.0701177
-0.31930098 0.60582793 1.1408359
-0.31454456 0.60813415 1.2338201
-0.31489199 0.6163339 1.000896
-0.30543703 0.6138944 1.0787013
-0.29607266 0.60752791 1.1524357
-0.28546804 0.60494018 1.2382195
-0.29381397 0.6131686 1.0054456
-0.28329521 0.61267084 1.0862671
-0.27095005 0.6063118 1.1589456
-0.25918019 0.607575 1.2527798
-0.27371317 0.61098862 1.0110317
-0.26021364 0.61049825 1.0907972
-0.24485034 0.60411024 1.1644189
-0.2301411 0.6044172 1.2551799
-0.25637048 0.61761886 1.0278326
-0.23896229 0.61318725 1.1034523
-0.22147134 0.61068279 1.1831065
-0.20195118 0.60613543 1.2646863
-0.23443948 0.61057729 1.0252938
-0.21494496 0.60906559 1.1049285
-0.19551447 0.60560846 1.1815282
-0.17288944 0.60395932 1.2681041
-0.21518382 0.61427331 1.0380045
-0.19272731 0.61278695 1.1155835
-0.16940688 0.60540658 1.1870376
-0.14478222 0.60375035 1.2735759
-0.194098 0.61310762 1.0425901
-0.16964577 0.6106143 1.1201135
-0.14332196 0.60422307 1.1915294
-0.11569391 0.6035558 1.2780293
-0.17397061 0.6129092 1.049212
-0.14555655 0.61043769 1.1246608
-0.11716908 0.60598463 1.199074
-0.086646982 0.60239762 1.2804652
-0.15283945 0.61370707 1.0558331
-0.12244841 0.61024666 1.1302267
-0.091144241 0.60385555 1.2005488
-0.057577386 0.60222125 1.2839191
-0.13174967 0.61354125 1.0604367
-0.098528616 0.60521567 1.1266867
-0.065074109 0.60368985 1.2040589
-0.02852653 0.60206288 1.2863731
-0.11061855 0.61433905 1.0670577
-0.074333996 0.60794806 1.1362863
-0.039003972 0.60352421 1.2075691
0.00048295781 0.60094088 1.2868098
-0.089528769 0.61417329 1.0716615
-0.050259575 0.60878944 1.139852
-0.011994118 0.60240936 1.2080433
0.029560398 0.60276413 1.2902997
-0.067461841 0.61302215 1.0752288
-0.026211724 0.60764921 1.1423819
0.013020029 0.60230154 1.2085732
0.058551162 0.60166019 1.2897366
-0.045409694 0.61288893 1.0778143
-0.0032651611 0.60460341 1.1398964
0.040029883 0.60118669 1.2090474
0.087357715 0.59671974 1.2801046
-0.023274804 0.61468303 1.0844346
0.020809265 0.60544473 1.1434622
0.067254454 0.60688984 1.2196445
0.11389375 0.58502287 1.2573886
-0.0023091547 0.61162621 1.0829862
0.045887433 0.60728228 1.147027
0.091681525 0.59129125 1.1918957
0.14643753 0.60043496 1.2830667
0.019724265 0.61151105 1.0845721
0.069856465 0.6052146 1.1455404
0.12118056 0.60475063 1.2155948
0.17537212 0.59938526 1.2795049
0.04277622 0.61137426 1.087139
0.094851881 0.60512483 1.1450706
0.14807415 0.60274452 1.2100531
0.20425056 0.59838992 1.272944
0.064809635 0.6112591 1.0887249
0.11884357 0.60403889 1.1446016
0.17399058 0.60172373 1.2055479
0.23317035 0.59835815 1.2684003
0.08667364 0.60628963 1.0822235
0.1449255 0.60687268 1.1481658
0.2020534 0.60456848 1.2080748
0.26209015 0.59832644 1.2638566
0.10972953 0.60715258 1.0848083
0.16886102 0.60584104 1.1446978
0.22788708 0.60162038 1.1995349
0.28993133 0.59737086 1.2553153
0.13270268 0.60608834 1.0833585
0.19377369 0.60382402 1.1401933
0.25480723 0.60159588 1.1950289
0.31776854 0.59541541 1.246756
0.15465727 0.60504574 1.0809277
0.21770918 0.60279226 1.1367253
0.28174615 0.6015532 1.1915225
0.34667748 0.59740144 1.2412486
0.17871691 0.60690492 1.0835118
0.24262974 0.60277492 1.132257
0.30867022 0.60252851 1.1870346
0.37554115 0.59742403 1.2337061
0.20164868 0.60487705 1.0800445
0.26761037 0.6037032 1.1308055
0.33138424 0.59770006 1.1725171
0.40238643 0.59747183 1.2252015
0.22462575 0.60481256 1.0786127
0.29148576 0.60172582 1.1243206
0.3582857 0.59769356 1.1670114
0.43019408 0.59755224 1.2146786
0.2486105 0.60674417 1.0771981
0.3163462 0.6007629 1.1168351
0.3851724 0.59870505 1.1605241
0.45068684 0.58893067 1.1891304
0.2715649 0.60569799 1.0747486
0.34131205 0.60270905 1.1144021
0.4099727 0.59679651 1.1500218
0.41978705 0.51455855 1.0493163
0.29448581 0.60568786 1.0703177
0.36512735 0.59978622 1.1049002
0.42954838 0.59010583 1.1285269
0.50842977 0.59297502 1.1741174
0.31736141 0.60371417 1.0638516
0.3921608 0.60467041 1.1054826
0.42810726 0.55336046 1.0588657
0.53628665 0.59601873 1.1656481
0.34130478 0.60468215 1.0604197
0.41389763 0.60082722 1.0920014
0.48959932 0.60087049 1.1285974
0.56309837 0.59710258 1.1551621
0.36418036 0.6027084 1.0539534
0.41463646 0.5669114 1.0313536
0.51128393 0.59808153 1.1121353
0.58780915 0.59628433 1.1396794
0.38810503 0.6036945 1.0495219
0.46467152 0.60286099 1.0790832
0.53607339 0.59819084 1.1006693
0.61254239 0.59644783 1.1252145
0.40257922 0.59009528 1.0239962
0.48849469 0.60193771 1.0696174
0.56084025 0.59731829 1.0881857
0.63827556 0.5966078 1.1107304
0.43591294 0.60470301 1.0386413
0.50713068 0.59619617 1.0511583
0.58563364 0.59842741 1.0767375
0.66301268 0.59777123 1.0962836
0.45875502 0.60376531 1.0301938
0.53613019 0.60210913 1.0497218
0.60732222 0.5966382 1.0602934
0.68668616 0.59699273 1.0788205
0.48161975 0.60380936 1.022764
0.55891609 0.60122579 1.0382754
0.63313806 0.59872544 1.0498444
0.71349096 0.60109407 1.0673888
0.50337929 0.60094798 1.0103006
0.58270574 0.60133862 1.0268282
0.65584916 0.5979144 1.0343993
0.73408216 0.5983991 1.0459472
0.52622527 0.60101014 1.0018712
0.60443175 0.59951335 1.0123835
0.6765191 0.59614682 1.0169744
0.7567597 0.59862411 1.0285208
0.55007499 0.60206854 0.99344087
0.62824404 0.60060793 1.0019538
0.7002753 0.5972957 1.0035459
0.78046358 0.60082698 1.0121113
0.57285696 0.60018533 0.98197645
0.64997399 0.59978235 0.98752713
0.72401273 0.59846264 0.98911762
0.79799527 0.59719729 0.98770911
0.5967294 0.60222542 0.97456384
0.67581248 0.60285127 0.97809571
0.74466789 0.59771311 0.97071117
0.82068056 0.59942192 0.97031873
0.6236279 0.6062364 0.96813065
0.69446021 0.60010928 0.95969081
0.76840925 0.59987992 0.95630091
0.83823496 0.5967738 0.94693428
0.64230913 0.6024583 0.95170701
0.71928024 0.60319984 0.94927847
0.7911281 0.6010685 0.94089186
0.86194664 0.60097647 0.93056083
0.66097164 0.59869832 0.93428367
0.74097276 0.6024105 0.93285251
0.81382829 0.60227519 0.92448306
0.88052344 0.59930658 0.90817523
0.6827203 0.59785467 0.9208566
0.76266909 0.60262102 0.91644448
0.8324464 0.60156894 0.90411484
0.89912683 0.59961826 0.88682532
0.70345044 0.59703273 0.90644872
0.78440297 0.6027953 0.90203583
0.84799719 0.59792823 0.88074994
0.91364413 0.59701717 0.86149782
0.73131514 0.60207611 0.89801544
0.80610335 0.60400552 0.88564587
0.86661929 0.59822178 0.86039972
0.93734109 0.60223764 0.84414274
0.75406754 0.6022287 0.88458771
0.8216728 0.6003468 0.86328059
0.88832742 0.60143185 0.84404576
0.9518851 0.60161817 0.81985092
0.77375644 0.6004467 0.86818117
0.84441423 0.60251719 0.84888923
0.90694952 0.6017254 0.82369554
0.96948856 0.60193342 0.79851991
0.79343063 0.59968263 0.85079312
0.8630324 0.60181099 0.82852101
0.92454916 0.60104084 0.80234647
0.98096919 0.59937924 0.77124947
0.81412721 0.59989673 0.83440399
0.8837142 0.60304296 0.81115013
0.9462198 0.60428691 0.78399318
0.9975394 0.60073411 0.74795586
0.83482379 0.60011077 0.8180148
0.90335482 0.60331482 0.79178077
0.96077865 0.60264951 0.76068312
1.0141283 0.60207093 0.72566187
0.85650146 0.60033929 0.8006072
0.92404062 0.60554659 0.77442795
0.97736359 0.60298651 0.73837107
1.0286989 0.60343301 0.70240581
0.87513834 0.59961492 0.78123862
0.9385767 0.60292751 0.75010014
0.99599349 0.60527974 0.71805692
1.0462728 0.60578406 0.67911142
0.90499187 0.60666895 0.77180403
0.95924371 0.60517728 0.73174775
1.0085151 0.60368568 0.69278502
1.0547539 0.60324067 0.65189743
0.92259145 0.60598433 0.75045484
0.97685117 0.60649246 0.71043462
1.0200372 0.60209513 0.66753203
1.0693096 0.60562068 0.62765974
0.9412322 0.60625982 0.73110425
0.99343216 0.60582954 0.68810463
1.0396521 0.60540271 0.64621735
1.0808394 0.60602981 0.60244274
0.9588092 0.60459358 0.70873743
1.0120623 0.60812283 0.66779041
1.0522004 0.6057902 0.6219812
1.089347 0.60546803 0.57626438
0.97947621 0.60684341 0.6903851
1.0266249 0.60748518 0.64449835
1.0677708 0.60714865 0.59870636
1.1008619 0.60689509 0.55006582
0.99907935 0.60715151 0.66901636
1.0432099 0.60782212 0.62218636
1.0752519 0.60460883 0.57151115
1.1134182 0.6092822 0.52586561
1.0177053 0.60844499 0.64868414
1.0557356 0.60722786 0.59693253
1.0898265 0.60697073 0.54827309
1.1209072 0.60874206 0.49870643
1.0342678 0.60780013 0.62535447
1.073328 0.60956097 0.57463783
1.1013563 0.60737985 0.52305609
1.1274152 0.60818744 0.47256571
1.0508341 0.60815513 0.60204285
1.0848314 0.60798848 0.54838508
1.1088414 0.60583991 0.49587888
1.135908 0.60864353 0.44540578
1.0673964 0.60751045 0.57871318
1.0983795 0.60837239 0.52413017
1.1193713 0.60625261 0.47068065
1.1444236 0.61008137 0.41926342
1.0839479 0.60888332 0.55441988
1.1099092 0.60878158 0.49891314
1.1298865 0.60768336 0.4445008
1.1509354 0.61052656 0.39314073
1.1045663 0.61318719 0.53310442
1.1194128 0.6072163 0.47269803
1.1353719 0.60615057 0.41736117
1.1574286 0.61098987 0.36601835
1.1120211 0.60866582 0.50487351
1.1289201 0.60665089 0.4465009
1.1449059 0.60756671 0.39219975
1.1619222 0.61146033 0.33893356
1.1295762 0.61103505 0.4805795
1.1454607 0.61004162 0.421244
1.1534177 0.60800475 0.36603945
1.1614088 0.60994911 0.31190667
1.1390572 0.60848808 0.45334667
1.1519462 0.60850525 0.39408556
