# .PCD v0.7 - Point Cloud Data file format
VERSION 0.7
FIELDS x y z
SIZE 4 4 4
TYPE F F F
COUNT 1 1 1
WIDTH 1382
HEIGHT 1
VIEWPOINT 0 0 0 1 0 0 0
POINTS 1382
DATA ascii
-0.53340161 0.62839836 0.60106981
-0.56275654 0.62387371 0.63654959
-0.59798628 0.6222614 0.67819411
-0.48799831 0.6267944 0.56917989
-0.52120179 0.62715656 0.61182255
-0.55147374 0.62456268 0.6513558
-0.58468908 0.62192529 0.69394445
-0.4778316 0.62659574 0.57798892
-0.50802481 0.62492937 0.62153888
-0.54216403 0.62724042 0.66723537
-0.56943762 0.61961854 0.70762181
-0.46762353 0.6273607 0.58881533
-0.49779803 0.62567621 0.63336492
-0.52599549 0.62300283 0.6768592
-0.55518198 0.61831522 0.72133595
-0.45938858 0.6301145 0.60071498
-0.48462105 0.62344903 0.64308119
-0.51470882 0.62469167 0.69168347
-0.54283535 0.62094611 0.73915845
-0.44433999 0.62398922 0.60432363
-0.47532219 0.6281445 0.65799713
-0.50341821 0.62738031 0.70652574
-0.5256443 0.61768657 0.74978119
-0.43317741 0.62278718 0.61309588
-0.45923635 0.62197959 0.66358632
-0.48724568 0.62414253 0.71616763
-0.51233923 0.61935014 0.7655676
-0.42298418 0.62457007 0.6229406
-0.44800189 0.62472254 0.67542958
-0.47207299 0.62090832 0.72582835
-0.49610272 0.61805773 0.77824444
-0.41374937 0.62732011 0.63482153
-0.43482101 0.62349522 0.68516397
-0.45686981 0.62065554 0.73654282
-0.48084331 0.6177507 0.79195786
-0.40160182 0.6271323 0.64259338
-0.42359045 0.62523824 0.69698918
-0.44362482 0.62137353 0.7493121
-0.4645763 0.61943966 0.8056885
-0.38945812 0.62594473 0.65034711
-0.41038299 0.62599248 0.70775926
-0.4293988 0.62210608 0.76106304
-0.44642681 0.61521292 0.81427509
-0.38021547 0.63069451 0.66226405
-0.39526644 0.62281251 0.71442091
-0.41321844 0.62086785 0.77074093
-0.43209538 0.61885452 0.83107841
-0.36516297 0.62556922 0.66589069
-0.380146 0.62063241 0.72110063
-0.39798868 0.62259662 0.78249109
-0.41389269 0.61859095 0.84173644
-0.35301536 0.62538141 0.67366254
-0.36696115 0.62040484 0.73085302
-0.38280809 0.62136215 0.79218781
-0.39569396 0.61732751 0.85237652
-0.34184104 0.62717879 0.68248874
-0.35279128 0.62119168 0.73960489
-0.36662379 0.62112385 0.80188376
-0.3794269 0.61901653 0.86610711
-0.32967076 0.62797278 0.69127828
-0.33862534 0.62097859 0.74833876
-0.34948105 0.61991823 0.80954355
-0.36028847 0.61680394 0.87371135
-0.31463701 0.62286556 0.69390529
-0.32347828 0.62077999 0.75605416
-0.33424738 0.62264681 0.82131171
-0.34019157 0.6136241 0.87927943
-0.30346265 0.62466288 0.70273161
-0.30933109 0.62058508 0.7637884
-0.31517681 0.61748904 0.82586294
-0.32007203 0.61142612 0.88586521
-0.2874704 0.61858845 0.70332247
-0.29418012 0.62138641 0.77152193
-0.29996186 0.62023574 0.83663136
-0.30186546 0.61216229 0.8965413
-0.27720138 0.62531608 0.71625632
-0.27905571 0.62020606 0.77821958
-0.28181538 0.62002641 0.84429049
-0.28270042 0.61193132 0.90518123
-0.26218238 0.62122679 0.71790171
-0.26295027 0.61904031 0.78389895
-0.26375556 0.61688989 0.84789675
-0.26255429 0.61171484 0.9128027
-0.24998556 0.6240024 0.72772694
-0.24779537 0.62084144 0.79165035
-0.24658623 0.61766595 0.8565923
-0.24340408 0.61250174 0.92046094
-0.23589845 0.62286186 0.73244417
-0.23268971 0.61967921 0.7973485
-0.22848111 0.61649299 0.86223406
-0.22328061 0.61130357 0.92706478
-0.22369769 0.62663722 0.74228734
-0.21564841 0.61656445 0.79997396
-0.21034943 0.61730164 0.86891145
-0.20314927 0.61210495 0.93370456
-0.2096293 0.62551475 0.74600488
-0.19862586 0.61346775 0.8015998
-0.19321756 0.61811376 0.87560767
-0.1821501 0.6080122 0.9342376
-0.19371983 0.617513 0.7425611
-0.18440677 0.61721784 0.81240505
-0.17419538 0.6150099 0.87719589
-0.16289054 0.61270803 0.94696629
-0.18053798 0.62130284 0.75138587
-0.16829342 0.61805177 0.81812036
-0.15519585 0.61092436 0.87776649
-0.14088763 0.60961145 0.9474985
-0.16644692 0.62116218 0.7561211
-0.15213481 0.62084907 0.82587111
-0.13703756 0.61371452 0.88547957
-0.11994857 0.60457313 0.94501442
-0.15140137 0.61905444 0.75880224
-0.13515362 0.61678874 0.82547963
-0.11792477 0.6145376 0.89113849
-0.099703982 0.61028326 0.9567427
-0.13726501 0.62087721 0.76557279
-0.1171687 0.61372465 0.82508731
-0.098940037 0.61146992 0.8907274
-0.078651652 0.61015362 0.95934707
-0.12221552 0.61976928 0.76827192
-0.10194194 0.61947089 0.83590984
-0.079800673 0.61427462 0.89742219
-0.056663536 0.60807508 0.95889759
-0.10809788 0.62161016 0.77404284
-0.084892794 0.61835569 0.83857131
-0.060812004 0.61220676 0.8970291
-0.036524348 0.61087602 0.96557349
-0.092980444 0.62344742 0.77979493
-0.067881115 0.61727685 0.83923352
-0.041781969 0.61110258 0.89865333
-0.014554957 0.60881561 0.96412444
-0.077972323 0.6213758 0.78047675
-0.050850708 0.61617976 0.84089541
-0.022638675 0.61490703 0.90536606
0.0054374561 0.60774398 0.96373063
-0.062054984 0.61537373 0.77706897
-0.032775182 0.61704266 0.84457386
-0.0047325697 0.61091548 0.90095711
0.026365662 0.60472333 0.96028298
-0.047884192 0.62117773 0.78491127
-0.0158088 0.6140002 0.84320068
0.014278751 0.60982943 0.9015817
0.04842566 0.60658979 0.96290463
-0.031898908 0.61812085 0.78455663
0.00025229622 0.61588818 0.84593511
0.034343041 0.61270285 0.90425897
0.069361717 0.60556883 0.95949298
-0.016932158 0.6150856 0.78322107
0.018267727 0.61580551 0.84659648
0.053403586 0.61458004 0.90693694
0.090339161 0.60551155 0.95809877
-0.0018295059 0.61794078 0.78799158
0.035215389 0.61278123 0.84422374
0.072313435 0.61158472 0.90252721
0.11235778 0.60641438 0.95870304
0.01316382 0.61688709 0.78769171
0.053298768 0.61564374 0.84793818
0.092287123 0.61053121 0.90113372
0.13329777 0.60639328 0.95530939
0.029175688 0.61581182 0.78837264
0.070273012 0.61460096 0.84660101
0.1112009 0.60853577 0.89674211
0.15423383 0.60537231 0.95189786
0.045259431 0.61868149 0.79212469
0.088205695 0.61259097 0.8432278
0.13126519 0.61140919 0.89941925
0.17515509 0.60536927 0.94750458
0.061252579 0.61762428 0.79180604
0.1062477 0.61448991 0.84492487
0.14911906 0.60847175 0.89202935
0.19503124 0.60340643 0.94109482
0.077291027 0.61853051 0.79352272
0.12320321 0.61346525 0.84258819
0.16912325 0.61039954 0.8916896
0.21597518 0.6043852 0.93771923
0.093201421 0.61554593 0.78916937
0.14224896 0.61636037 0.84428447
0.18806361 0.61038566 0.88833356
0.23583652 0.60344017 0.93032771
0.10921722 0.61547041 0.78986835
0.15805395 0.61046678 0.83487874
0.20698525 0.61038983 0.88397789
0.2567617 0.60443699 0.92595249
0.12626334 0.61837268 0.79160237
0.17608118 0.61338353 0.8355943
0.22588421 0.60941225 0.87860453
0.27873203 0.60739374 0.92359388
0.14224167 0.6183334 0.79030204
0.19404043 0.6133551 0.83325672
0.24584705 0.61037648 0.87624747
0.29755217 0.6054886 0.91420382
0.15921985 0.61829042 0.78898287
0.21202627 0.61530823 0.8319549
0.26368615 0.60845697 0.86787587
0.31637236 0.60358363 0.90481383
0.17304395 0.61238593 0.78061444
0.22783521 0.61041451 0.82256716
0.28157046 0.60850096 0.86153972
0.3372601 0.60461658 0.89843929
0.19004869 0.61432463 0.78033102
0.24577966 0.611404 0.81924796
0.30254096 0.61146116 0.85919982
0.35710666 0.60468954 0.89006621
0.20702684 0.61428171 0.77901196
0.26372021 0.61139363 0.81591076
0.31831637 0.60760343 0.84783083
0.3749122 0.60380602 0.87971336
0.22396757 0.61427492 0.77569354
0.28060472 0.6114412 0.80959332
0.33617812 0.60666561 0.84047693
0.39478141 0.60486072 0.8723579
0.24097624 0.61721343 0.77542818
0.29748541 0.61048889 0.80325794
0.35611138 0.60966569 0.83615655
0.41254562 0.60301352 0.85998774
0.25685313 0.61526483 0.76909351
0.31641093 0.61149287 0.79892027
0.37291318 0.60778588 0.82580447
0.43135488 0.60312623 0.84963411
0.27274871 0.61329818 0.76375848
0.33227307 0.61056221 0.79160404
0.38973761 0.60688782 0.81647003
0.44916832 0.60424232 0.83931726
0.28967074 0.6133095 0.75944042
0.34913889 0.61062789 0.78428692
0.40758455 0.60696799 0.80813456
0.46797761 0.60435504 0.82896358
0.30557421 0.61334258 0.75414151
0.36600074 0.60969365 0.77695185
0.4264805 0.61000782 0.80183363
0.48472717 0.60352933 0.81563056
0.32251883 0.61433566 0.75084108
0.38393435 0.61270082 0.77266902
0.44119993 0.60620785 0.78748441
0.501522 0.60466719 0.80433285
0.33626801 0.60850346 0.73847389
0.39973244 0.6098249 0.76231772
0.45905077 0.60728782 0.779167
0.51724917 0.60286325 0.79000092
0.35426173 0.61245632 0.73720813
0.41660219 0.61089027 0.75501865
0.47584173 0.60742575 0.76785117
0.53504777 0.60499734 0.7787025
0.37011993 0.61052591 0.7298739
0.43242684 0.6099959 0.74570304
0.494719 0.61048377 0.76055062
0.54977894 0.60419691 0.7644074
0.38703102 0.61255497 0.72459215
0.44823274 0.60911947 0.7353878
0.50946498 0.60866541 0.74723715
0.56859607 0.60630924 0.75408971
0.40389684 0.61262059 0.71727502
0.46510646 0.61118478 0.7281068
0.52526003 0.60980678 0.73595822
0.58435374 0.60748684 0.74081153
0.41874042 0.61171162 0.70897782
0.48296121 0.6132645 0.71980727
0.54207361 0.61092651 0.72566015
0.59904748 0.60672259 0.72451705
0.4387002 0.61669326 0.70569319
0.49569979 0.60945374 0.70649529
0.55577838 0.6081481 0.71034819
0.61276013 0.60594392 0.70924109
0.45145354 0.61186457 0.69336289
0.51355845 0.61253333 0.69821388
0.57157743 0.61028934 0.69908726
0.62647671 0.60616499 0.69398308
0.4662596 0.61099184 0.68306643
0.52834582 0.61167866 0.68691772
0.58735371 0.61144882 0.68680871
0.64019334 0.60638607 0.67872512
0.48519695 0.61499524 0.67878276
0.54106951 0.60888571 0.67262411
0.60211158 0.61262995 0.67354923
0.65902621 0.61249775 0.66847956
0.50100291 0.61411881 0.66846752
0.55890954 0.61198342 0.66334301
0.61174911 0.60692072 0.65525937
0.67272413 0.61273694 0.65222192
0.51479048 0.61326778 0.65719014
0.57370085 0.61212862 0.65206486
0.62957829 0.61203617 0.64501464
0.68542218 0.61297965 0.63598311
0.53059638 0.61239147 0.6468749
0.59154469 0.61622608 0.64280182
0.63922369 0.60832649 0.62676072
0.69812417 0.61422223 0.61976224
0.54538769 0.61253661 0.63559675
0.60222751 0.61247677 0.62652844
0.65194046 0.60855114 0.61152154
0.70775485 0.6115306 0.60052669
0.56019771 0.61266369 0.62531829
0.61595887 0.61167991 0.61225206
0.66872448 0.61170673 0.59926021
0.71843451 0.6117987 0.5833258
0.57597011 0.61282325 0.61302167
0.62869042 0.61088663 0.59799451
0.67941898 0.61095685 0.58304089
0.73114043 0.61404103 0.567123
0.58976161 0.61297202 0.60176241
0.64244843 0.61207145 0.58475387
0.6941846 0.61413765 0.56981748
0.73674911 0.61038196 0.54694492
0.60348904 0.61117536 0.58746803
0.6582287 0.61423069 0.57249331
0.70383793 0.61242777 0.55159968
0.74741018 0.61066806 0.52874428
0.6193068 0.61329848 0.57720679
0.66894192 0.61346275 0.55727369
0.71553618 0.61267412 0.53537965
0.75809377 0.61193597 0.51156145
0.63508314 0.61445791 0.56492817
0.68165863 0.6136874 0.54203451
0.72418964 0.61096764 0.51718056
0.76168412 0.60830218 0.49042132
0.64578849 0.61169028 0.54967254
0.69539392 0.61389041 0.52777618
0.73388833 0.61122119 0.50099808
0.77034545 0.60859549 0.47225827
0.65952379 0.6118933 0.53541428
0.70202124 0.61020964 0.50857902
0.74356818 0.61149281 0.48381597
0.77901071 0.60988855 0.45411327
0.67428553 0.61407435 0.52217281
0.71678692 0.61339051 0.49535561
0.75527036 0.61273909 0.46761391
0.78566849 0.60918927 0.43596986
0.68802083 0.6142773 0.50791448
0.7274853 0.61364043 0.47915435
0.76090568 0.61106151 0.44847158
0.7953375 0.61147863 0.41782406
0.69873405 0.61350942 0.49269485
0.73613876 0.61193407 0.46095529
0.77158928 0.61232942 0.43128866
0.7979508 0.60883015 0.39772043
0.71145082 0.61373407 0.47745568
0.74684119 0.6131838 0.44477203
0.781277 0.61460078 0.41414255
0.8056162 0.61012691 0.37959418
0.7211228 0.61200595 0.4602375
0.75753957 0.61343378 0.42857078
0.78388232 0.60995263 0.39400285
0.81226313 0.61144531 0.36048716
0.73181736 0.61125606 0.44401819
0.76519322 0.61173099 0.41039047
0.79457384 0.6132201 0.376856
0.81590277 0.61077482 0.34140041
0.7455231 0.61349493 0.4277966
0.77182835 0.61004996 0.39122933
0.80325788 0.61449516 0.35971066
0.82357603 0.61407107 0.3233102
0.75621754 0.61274499 0.41157728
0.7815122 0.61132139 0.37406525
0.81092334 0.61579192 0.34158444
0.82619715 0.61342233 0.30324262
0.7668972 0.61301309 0.39437634
0.79321826 0.61356735 0.35788122
0.81756628 0.6161105 0.32245937
0.82883298 0.61175561 0.28415665
0.78261054 0.61724436 0.3781532
0.80086112 0.6138823 0.33873734
0.82320946 0.61643261 0.30335307
0.83348024 0.61308116 0.26508716
0.78924167 0.61456347 0.35897404
0.80751884 0.61318302 0.32059386
0.83087885 0.61872917 0.28524485
0.83510154 0.612436 0.24503833
0.80192894 0.61682403 0.3417716
0.8141619 0.61350155 0.30146879
0.83550352 0.61907297 0.26515767
0.73002297 0.52956516 0.2044929
0.8065604 0.61415023 0.32263002
0.8238309 0.61579096 0.28332302
0.8401469 0.61939877 0.24607018
0.56563962 0.40004069 0.1572116
0.81722534 0.61543626 0.30444741
0.82947409 0.61611313 0.26421672
0.70384079 0.5107702 0.19864112
0.56539625 0.40027586 0.144216
0.82587194 0.6167475 0.28530279
0.83008367 0.61247206 0.24413261
0.55961025 0.39708084 0.15627062
-0.02611593 -0.059798401 0.050936799
0.83048475 0.61409175 0.26516154
0.67967302 0.49095026 0.19373342
0.54022473 0.37945959 0.13930908
-0.02611593 -0.059798401 0.050936799
0.84215736 0.61737382 0.24699621
0.57871401 0.40995619 0.15914683
0.54099989 0.37967309 0.12729435
0.55260628 0.39004439 0.10425684
0.64440399 0.45922598 0.18581721
0.55830991 0.39235663 0.14120442
0.55583042 0.38981655 0.11619641
-0.02611593 -0.059798401 0.050936799
-0.02611593 -0.059798401 0.050936799
0.54899544 0.38366175 0.12621644
0.54150897 0.37913999 0.10126635
0.57420105 0.40741473 0.079158232
-0.02611593 -0.059798401 0.050936799
0.55878854 0.38884211 0.11412269
0.53925425 0.37638283 0.08825428
0.62715423 0.45041621 0.067940861
-0.02611593 -0.059798401 0.050936799
0.54648542 0.37814033 0.10015472
0.57013673 0.40046647 0.077107951
0.62889963 0.45266193 0.053944062
0.57077539 0.39081678 0.11293358
0.5502491 0.38036075 0.087119997
0.60902286 0.43053851 0.06491974
0.62965995 0.45389333 0.040947698
-0.02611593 -0.059798401 0.050936799
0.56303877 0.38954774 0.07404229
0.62981963 0.44671366 0.050818175
0.62840199 0.45515001 0.026989251
-0.02611593 -0.059798401 0.050936799
0.5818429 0.40271249 0.060923919
0.63258755 0.44993752 0.037820268
0.63314378 0.46140239 0.012008492
0.56495076 0.38159621 0.070861578
0.61870271 0.43081009 0.047737595
0.63331044 0.45120507 0.022824578
0.62887448 0.45967036 -0.0019476376
0.55866617 0.37587199 0.056870956
0.62644005 0.43605188 0.032682449
0.62402648 0.44549173 0.0088903271
0.63963491 0.4709003 -0.016951043
0.55741513 0.37411106 0.043858118
0.62916648 0.43831211 0.017667197
0.62474936 0.44675925 -0.0061053596
0.62736225 0.46317989 -0.029865306
0.56617105 0.37933117 0.029783843
0.62388963 0.43458399 0.003693819
0.62449503 0.44901213 -0.020064585
0.60209024 0.44547161 -0.040716149
0.56189781 0.37659928 0.015809689
0.60557967 0.42190403 -0.010197442
0.5821898 0.41734922 -0.029848583
0.5778445 0.42974141 -0.050550081
0.57264245 0.38382992 0.00073421001
0.58630353 0.40819171 -0.022088621
0.5819543 0.41958401 -0.042808138
0.5816052 0.43597925 -0.064512387
0.56437302 0.37709501 -0.012237187
0.5820303 0.40545976 -0.036062766
0.57868886 0.41884822 -0.056765039
-0.02611593 -0.059798401 0.050936799
0.58310622 0.39133197 -0.029336188
0.56877667 0.3977249 -0.047958571
0.56645751 0.41209146 -0.067661949
0.59611154 0.45446506 -0.094459757
0.57083362 0.38361156 -0.042250451
0.57951045 0.40697327 -0.063997678
0.5732069 0.42033631 -0.082644261
0.77058268 0.6048606 -0.15302566
0.5825485 0.39287448 -0.059308004
0.58724082 0.41523266 -0.079998441
0.63584185 0.47364384 -0.11286291
0.7932086 0.63022602 -0.1779989
0.59027499 0.40013397 -0.075326778
0.60592967 0.43252337 -0.10004237
0.82119566 0.62812585 -0.17856108
0.78289908 0.62755185 -0.19385964
0.58998322 0.40242308 -0.091285318
0.85018253 0.62602216 -0.17914203
0.81485581 0.62747318 -0.19646025
0.78057814 0.63188392 -0.21174386
0.88812727 0.6279397 -0.18281904
0.84978634 0.63041943 -0.2010625
0.81249744 0.63184148 -0.21634382
0.20014803 0.1357647 -0.027788617
0.8827123 0.62735575 -0.20473564
0.84041655 0.62679613 -0.21995902
0.20513533 0.13274726 -0.027936623
0.1920737 0.13084853 -0.030727364
0.88526332 0.63279641 -0.22969343
0.21708092 0.13375829 -0.031143073
0.19507225 0.12582052 -0.029874168
-0.02611593 -0.059798401 0.050936799
0.20810246 0.11972062 -0.027227569
-0.02611593 -0.059798401 0.050936799
-0.02611593 -0.059798401 0.050936799
0.1620263 0.10792392 -0.028578751
0.20100921 0.11481894 -0.031184774
-0.02611593 -0.059798401 0.050936799
0.17197616 0.10994196 -0.031729609
-0.02611593 -0.059798401 0.050936799
-0.02611593 -0.059798401 0.050936799
0.1659863 0.097911276 -0.028834097
-0.02611593 -0.059798401 0.050936799
0.14197499 0.093998082 -0.028455202
0.172921 0.095940761 -0.032000657
-0.02611593 -0.059798401 0.050936799
0.14395498 0.088991761 -0.028582875
-0.02611593 -0.059798401 0.050936799
-0.02611593 -0.059798401 0.050936799
0.14689733 0.084018029 -0.030728657
-0.02611593 -0.059798401 0.050936799
0.12591991 0.084075309 -0.029334396
0.14787751 0.079015277 -0.03083754
-0.02611593 -0.059798401 0.050936799
0.12888099 0.079083465 -0.030480519
-0.02611593 -0.059798401 0.050936799
-0.02611593 -0.059798401 0.050936799
0.12984246 0.074098825 -0.031589072
-0.02611593 -0.059798401 0.050936799
0.11089423 0.072113082 -0.028269101
0.12981497 0.067100018 -0.031715199
-0.02611593 -0.059798401 0.050936799
0.11284073 0.068142779 -0.030378073
-0.02611593 -0.059798401 0.050936799
-0.02611593 -0.059798401 0.050936799
0.11380219 0.063158117 -0.031486623
-0.02611593 -0.059798401 0.050936799
0.094891414 0.061136197 -0.026167329
0.11178984 0.055148568 -0.030593526
-0.02611593 -0.059798401 0.050936799
0.096837893 0.057165876 -0.028276309
-0.02611593 -0.059798401 0.050936799
-0.02611593 -0.059798401 0.050936799
0.097799346 0.052181236 -0.029384851
-0.02611593 -0.059798401 0.050936799
0.083862007 0.053177044 -0.026104778
0.098742083 0.047214676 -0.03149306
-0.02611593 -0.059798401 0.050936799
0.085808486 0.049206726 -0.028213762
-0.02611593 -0.059798401 0.050936799
-0.02611593 -0.059798401 0.050936799
0.087740168 0.046254314 -0.031304382
-0.02611593 -0.059798401 0.050936799
0.074844018 0.048210192 -0.026025757
0.085713036 0.039262686 -0.031392932
-0.02611593 -0.059798401 0.050936799
0.075786747 0.043243632 -0.028133966
-0.02611593 -0.059798401 0.050936799
-0.02611593 -0.059798401 0.050936799
0.075729661 0.038280662 -0.030223377
-0.02611593 -0.059798401 0.050936799
0.065822095 0.042243518 -0.025964752
0.075691298 0.033299599 -0.031313136
-0.02611593 -0.059798401 0.050936799
0.066768751 0.038276784 -0.028054945
-0.02611593 -0.059798401 0.050936799
-0.02611593 -0.059798401 0.050936799
0.065726653 0.032299478 -0.029143922
-0.02611593 -0.059798401 0.050936799
0.060777709 0.040297974 -0.027906165
0.06565477 0.028354421 -0.032214973
-0.02611593 -0.059798401 0.050936799
0.059739526 0.035320505 -0.028977126
-0.02611593 -0.059798401 0.050936799
-0.02611593 -0.059798401 0.050936799
0.058678705 0.029361287 -0.031065773
-0.02611593 -0.059798401 0.050936799
0.05080821 0.033280786 -0.024845403
0.05765532 0.023365898 -0.031155091
-0.02611593 -0.059798401 0.050936799
0.050755057 0.029317642 -0.026916806
-0.02611593 -0.059798401 0.050936799
-0.02611593 -0.059798401 0.050936799
0.050697975 0.024354674 -0.029006217
-0.02611593 -0.059798401 0.050936799
0.043793783 0.029306585 -0.024785943
0.050626095 0.020409625 -0.032077268
-0.02611593 -0.059798401 0.050936799
0.048665736 0.030415103 -0.031859502
-0.02611593 -0.059798401 0.050936799
-0.02611593 -0.059798401 0.050936799
0.043668751 0.021398392 -0.029928394
-0.02611593 -0.059798401 0.050936799
0.035827857 0.023282055 -0.021744743
0.042611856 0.016439013 -0.031999014
-0.02611593 -0.059798401 0.050936799
0.039681263 0.024412241 -0.029799178
-0.02611593 -0.059798401 0.050936799
-0.02611593 -0.059798401 0.050936799
0.034703001 0.01537745 -0.026868414
-0.02611593 -0.059798401 0.050936799
0.031802006 0.021314837 -0.022705287
0.034649845 0.011414305 -0.028939806
-0.02611593 -0.059798401 0.050936799
0.028775061 0.014326796 -0.022775047
-0.02611593 -0.059798401 0.050936799
-0.02611593 -0.059798401 0.050936799
0.030681081 0.014410064 -0.027810931
-0.02611593 -0.059798401 0.050936799
0.024839818 0.016286546 -0.019664861
0.030594407 0.011482928 -0.031863622
-0.02611593 -0.059798401 0.050936799
0.029648662 0.020466903 -0.030683015
-0.02611593 -0.059798401 0.050936799
-0.02611593 -0.059798401 0.050936799
0.023704097 0.010399685 -0.025752142
-0.02611593 -0.059798401 0.050936799
0.0169074 0.0092260046 -0.014642362
0.022632403 0.0064582187 -0.02880441
-0.02611593 -0.059798401 0.050936799
0.021705376 0.015424105 -0.026624136
-0.02611593 -0.059798401 0.050936799
-0.02611593 -0.059798401 0.050936799
0.019663453 0.0094503956 -0.027694326
-0.02611593 -0.059798401 0.050936799
0.017799728 0.015348015 -0.021550663
0.016659163 0.0034440896 -0.026746403
-0.02611593 -0.059798401 0.050936799
0.017698258 0.013438799 -0.026585009
-0.02611593 -0.059798401 0.050936799
-0.02611593 -0.059798401 0.050936799
0.01273871 0.0043859198 -0.022654582
-0.02611593 -0.059798401 0.050936799
0.013759083 0.014398719 -0.023492847
0.014558976 0.0065592863 -0.032652732
-0.02611593 -0.059798401 0.050936799
0.013661543 0.013489334 -0.028509166
-0.02611593 -0.059798401 0.050936799
-0.02611593 -0.059798401 0.050936799
0.0087019987 0.0044364533 -0.024578739
-0.02611593 -0.059798401 0.050936799
0.010726111 0.015445494 -0.025417775
0.0086005302 0.0025272374 -0.029613078
-0.02611593 -0.059798401 0.050936799
0.0076991711 0.0084574539 -0.025487531
-0.02611593 -0.059798401 0.050936799
-0.02611593 -0.059798401 0.050936799
0.005665102 0.0044833985 -0.026521694
-0.02611593 -0.059798401 0.050936799
0.0077188089 0.0134566 -0.025397439
0.0036123139 0.00052743533 -0.028555501
-0.02611593 -0.059798401 0.050936799
0.0046809977 0.00848631 -0.026430827
-0.02611593 -0.059798401 0.050936799
-0.02611593 -0.059798401 0.050936799
0.00067688548 0.0024835926 -0.025464106
-0.02611593 -0.059798401 0.050936799
0.002745385 0.010438874 -0.023358222
-0.0013906989 -0.00045445445 -0.028479569
-0.02611593 -0.059798401 0.050936799
0.00064428372 0.0085368436 -0.02835498
-0.02611593 -0.059798401 0.050936799
-0.02611593 -0.059798401 0.050936799
-0.0033263115 0.0014981176 -0.025406964
-0.02611593 -0.059798401 0.050936799
-0.00027278671 0.01046773 -0.02430151
-0.0044423915 0.0006104139 -0.031404156
-0.02611593 -0.059798401 0.050936799
-0.0033401907 0.0075332797 -0.027298179
-0.02611593 -0.059798401 0.050936799
-0.02611593 -0.059798401 0.050936799
-0.006378002 0.002562982 -0.028331559
-0.02611593 -0.059798401 0.050936799
-0.0032909622 0.010496586 -0.025244799
-0.0074901558 0.0026751054 -0.034310739
-0.02611593 -0.059798401 0.050936799
-0.0063583641 0.0075621353 -0.028241467
-0.02611593 -0.059798401 0.050936799
-0.02611593 -0.059798401 0.050936799
-0.010362474 0.0015594182 -0.027274758
-0.02611593 -0.059798401 0.050936799
-0.0063535208 0.013579201 -0.029133014
-0.012444856 -0.00036070915 -0.031271853
-0.02611593 -0.059798401 0.050936799
-0.02611593 -0.059798401 0.050936799
-0.02611593 -0.059798401 0.050936799
-0.02611593 -0.059798401 0.050936799
-0.013361927 0.0015701848 -0.027218387
-0.02611593 -0.059798401 0.050936799
-0.010327125 0.010557886 -0.027112592
-0.016477641 0.00068965903 -0.033178005
-0.02611593 -0.059798401 0.050936799
-0.02611593 -0.059798401 0.050936799
-0.02611593 -0.059798401 0.050936799
-0.02611593 -0.059798401 0.050936799
-0.017379917 0.0016026294 -0.028142881
-0.02611593 -0.059798401 0.050936799
-0.0143116 0.0095543303 -0.02605579
-0.020495631 0.00072210375 -0.034102499
-0.02611593 -0.059798401 0.050936799
-0.02611593 -0.059798401 0.050936799
-0.02611593 -0.059798401 0.050936799
-0.02611593 -0.059798401 0.050936799
-0.021379186 0.0016169852 -0.028067719
-0.02611593 -0.059798401 0.050936799
-0.02611593 -0.059798401 0.050936799
-0.024494899 0.00073645945 -0.034027338
-0.02611593 -0.059798401 0.050936799
-0.021378268 0.00663422 -0.028977286
-0.02611593 -0.059798401 0.050936799
-0.02611593 -0.059798401 0.050936799
-0.024397358 0.0016458409 -0.029011007
-0.02611593 -0.059798401 0.050936799
-0.020329224 0.0095939524 -0.026942704
-0.02749435 0.00074722618 -0.033970967
-0.02611593 -0.059798401 0.050936799
-0.02611593 -0.059798401 0.050936799
-0.02611593 -0.059798401 0.050936799
-0.02611593 -0.059798401 0.050936799
-0.027396809 0.0016566077 -0.028954636
-0.02611593 -0.059798401 0.050936799
-0.024298903 0.0075724688 -0.024904251
-0.031493619 0.00076158182 -0.033895805
-0.02611593 -0.059798401 0.050936799
-0.02611593 -0.059798401 0.050936799
-0.02611593 -0.059798401 0.050936799
-0.02611593 -0.059798401 0.050936799
-0.02611593 -0.059798401 0.050936799
-0.02611593 -0.059798401 0.050936799
-0.027327944 0.0096190749 -0.026811171
-0.035474163 0.00075784844 -0.032820985
-0.02611593 -0.059798401 0.050936799
-0.02611593 -0.059798401 0.050936799
-0.02611593 -0.059798401 0.050936799
-0.02611593 -0.059798401 0.050936799
-0.034395531 0.0016817302 -0.028823104
-0.02611593 -0.059798401 0.050936799
-0.029297987 0.0075904131 -0.024810299
-0.039473433 0.00077220408 -0.03274582
-0.02611593 -0.059798401 0.050936799
-0.02611593 -0.059798401 0.050936799
-0.02611593 -0.059798401 0.050936799
-0.02611593 -0.059798401 0.050936799
-0.02611593 -0.059798401 0.050936799
-0.02611593 -0.059798401 0.050936799
-0.02611593 -0.059798401 0.050936799
-0.043453977 0.00076847064 -0.031670991
-0.02611593 -0.059798401 0.050936799
-0.02611593 -0.059798401 0.050936799
-0.02611593 -0.059798401 0.050936799
-0.02611593 -0.059798401 0.050936799
-0.042386211 0.0037101028 -0.028636739
-0.02611593 -0.059798401 0.050936799
-0.036326297 0.009651375 -0.026642058
-0.047430594 0.0017645642 -0.030578144
-0.02611593 -0.059798401 0.050936799
-0.02611593 -0.059798401 0.050936799
-0.02611593 -0.059798401 0.050936799
-0.02611593 -0.059798401 0.050936799
-0.046385475 0.0037244584 -0.028561577
-0.02611593 -0.059798401 0.050936799
-0.039329674 0.0086623114 -0.026603699
-0.051411144 0.0017608309 -0.029503331
-0.02611593 -0.059798401 0.050936799
-0.045369953 0.007720192 -0.028508294
-0.02611593 -0.059798401 0.050936799
-0.02611593 -0.059798401 0.050936799
-0.050399542 0.0047567338 -0.029468067
-0.02611593 -0.059798401 0.050936799
-0.043310218 0.0086585777 -0.025528878
-0.05645461 0.0048325346 -0.03235431
-0.02611593 -0.059798401 0.050936799
-0.049398806 0.0097703869 -0.030396417
-0.02611593 -0.059798401 0.050936799
-0.02611593 -0.059798401 0.050936799
-0.054380089 0.0047530001 -0.028393239
-0.02611593 -0.059798401 0.050936799
-0.046320535 0.010687088 -0.026436131
-0.060416434 0.0048107123 -0.030279811
-0.02611593 -0.059798401 0.050936799
-0.053379357 0.0097666541 -0.029321603
-0.02611593 -0.059798401 0.050936799
-0.02611593 -0.059798401 0.050936799
-0.059400905 0.0088064456 -0.030226525
-0.02611593 -0.059798401 0.050936799
-0.050334603 0.011719363 -0.02734261
-0.064411774 0.0058248984 -0.030186631
-0.02611593 -0.059798401 0.050936799
-0.056341358 0.009741242 -0.027265906
-0.02611593 -0.059798401 0.050936799
-0.02611593 -0.059798401 0.050936799
-0.06131871 0.0057236864 -0.025244705
-0.02611593 -0.059798401 0.050936799
-0.05328574 0.0096762087 -0.024323292
-0.069403008 0.0078425044 -0.030056641
-0.02611593 -0.059798401 0.050936799
-0.059307292 0.0087160002 -0.025228228
-0.02611593 -0.059798401 0.050936799
-0.02611593 -0.059798401 0.050936799
-0.064280711 0.0056982748 -0.023189008
-0.02611593 -0.059798401 0.050936799
-0.058310486 0.012729816 -0.026174609
-0.073364824 0.0078206817 -0.02798216
-0.02611593 -0.059798401 0.050936799
-0.065331854 0.011773197 -0.027060751
-0.02611593 -0.059798401 0.050936799
-0.02611593 -0.059798401 0.050936799
-0.070338801 0.0097914869 -0.027002838
-0.02611593 -0.059798401 0.050936799
-0.060247015 0.009665153 -0.022192437
-0.076326832 0.0077952705 -0.025926471
-0.02611593 -0.059798401 0.050936799
-0.069327198 0.012787383 -0.02696757
-0.02611593 -0.059798401 0.050936799
-0.02611593 -0.059798401 0.050936799
-0.076329842 0.011812675 -0.026854057
-0.02611593 -0.059798401 0.050936799
-0.065256961 0.011700841 -0.023062106
-0.083347291 0.011855886 -0.02772218
-0.02611593 -0.059798401 0.050936799
-0.072289206 0.012761972 -0.02491188
-0.02611593 -0.059798401 0.050936799
-0.02611593 -0.059798401 0.050936799
-0.078277238 0.010765755 -0.02383551
-0.02611593 -0.059798401 0.050936799
-0.070281714 0.014754455 -0.024913426
-0.088319793 0.013855403 -0.02659253
-0.02611593 -0.059798401 0.050936799
-0.077280432 0.014779577 -0.024781894
-0.02611593 -0.059798401 0.050936799
-0.02611593 -0.059798401 0.050936799
-0.085293762 0.015826209 -0.025613207
-0.02611593 -0.059798401 0.050936799
-0.07222911 0.013707535 -0.021894876
-0.097365551 0.020958874 -0.030295935
-0.02611593 -0.059798401 0.050936799
-0.083286278 0.017818686 -0.02561475
-0.02611593 -0.059798401 0.050936799
-0.02611593 -0.059798401 0.050936799
-0.091284811 0.017847396 -0.025464427
-0.02611593 -0.059798401 0.050936799
-0.077220336 0.015725141 -0.021764889
-0.10130865 0.020918962 -0.027221784
-0.02611593 -0.059798401 0.050936799
-0.089292116 0.020857807 -0.026447613
-0.02611593 -0.059798401 0.050936799
-0.02611593 -0.059798401 0.050936799
-0.096272111 0.020864841 -0.025316421
-0.02611593 -0.059798401 0.050936799
-0.085255399 0.020807272 -0.024523456
-0.11032481 0.025986586 -0.028961897
-0.02611593 -0.059798401 0.050936799
-0.092235401 0.020814307 -0.023392256
-0.02611593 -0.059798401 0.050936799
-0.02611593 -0.059798401 0.050936799
-0.10731357 0.028975304 -0.02896421
-0.02611593 -0.059798401 0.050936799
-0.088217407 0.020781862 -0.022467759
-0.1172891 0.029992936 -0.027758639
-0.02611593 -0.059798401 0.050936799
-0.10025174 0.025878342 -0.025151163
-0.02611593 -0.059798401 0.050936799
-0.02611593 -0.059798401 0.050936799
-0.11123794 0.028917305 -0.024890412
-0.02611593 -0.059798401 0.050936799
-0.092160515 0.020741951 -0.019393612
-0.12323876 0.032977782 -0.02559251
-0.02611593 -0.059798401 0.050936799
-0.10520945 0.026859939 -0.023039866
-0.02611593 -0.059798401 0.050936799
-0.02611593 -0.059798401 0.050936799
-0.11822488 0.031941924 -0.024704825
-0.02611593 -0.059798401 0.050936799
-0.10119147 0.026827494 -0.022115368
-0.13321337 0.039012656 -0.025296494
-0.02611593 -0.059798401 0.050936799
-0.11826141 0.03699534 -0.027613718
-0.02611593 -0.059798401 0.050936799
-0.02611593 -0.059798401 0.050936799
-0.13022478 0.04101963 -0.02631649
-0.02611593 -0.059798401 0.050936799
-0.11020762 0.031895127 -0.023855489
-0.14117354 0.044022426 -0.02405642
-0.02611593 -0.059798401 0.050936799
-0.1252109 0.039983764 -0.025428802
-0.02611593 -0.059798401 0.050936799
-0.02611593 -0.059798401 0.050936799
-0.14322843 0.049101111 -0.02792738
-0.02611593 -0.059798401 0.050936799
-0.11719064 0.035919562 -0.023651883
-0.16019391 0.057160761 -0.027463797
-0.02611593 -0.059798401 0.050936799
-0.13418961 0.045015223 -0.025169596
-0.02611593 -0.059798401 0.050936799
-0.02611593 -0.059798401 0.050936799
-0.15419893 0.056139398 -0.027594559
-0.02611593 -0.059798401 0.050936799
-0.12716524 0.041954435 -0.023355864
-0.17114566 0.064180963 -0.026131317
-0.02611593 -0.059798401 0.050936799
-0.14314961 0.050028585 -0.023910727
-0.02611593 -0.059798401 0.050936799
-0.02611593 -0.059798401 0.050936799
-0.16413608 0.062138084 -0.025299221
-0.02611593 -0.059798401 0.050936799
-0.13512935 0.045964371 -0.022133801
-0.18911397 0.07626161 -0.026576519
-0.02611593 -0.059798401 0.050936799
-0.15511993 0.05707046 -0.023559112
-0.02611593 -0.059798401 0.050936799
-0.02611593 -0.059798401 0.050936799
-0.18011259 0.072211884 -0.025818057
-0.02611593 -0.059798401 0.050936799
-0.14912888 0.055049267 -0.023707893
-0.21106973 0.091356106 -0.026892517
-0.02611593 -0.059798401 0.050936799
-0.16908202 0.066119172 -0.023133878
-0.02611593 -0.059798401 0.050936799
-0.02611593 -0.059798401 0.050936799
-0.19704756 0.083252952 -0.024300747
-0.02611593 -0.059798401 0.050936799
-0.16108046 0.062073052 -0.022356618
-0.23298416 0.10741425 -0.025191162
-0.02611593 -0.059798401 0.050936799
-0.19208594 0.083271183 -0.026394017
-0.02611593 -0.059798401 0.050936799
-0.02611593 -0.059798401 0.050936799
-0.22099513 0.10035429 -0.024543129
-0.02611593 -0.059798401 0.050936799
-0.177057 0.072146848 -0.022875443
-0.25488377 0.12245449 -0.022508174
-0.02611593 -0.059798401 0.050936799
-0.21000199 0.094297722 -0.023858264
-0.02611593 -0.059798401 0.050936799
-0.02611593 -0.059798401 0.050936799
-0.24993001 0.12047305 -0.024637483
-0.02611593 -0.059798401 0.050936799
-0.1990315 0.087259442 -0.024191093
-0.92739916 0.65033746 -0.19742732
-0.02611593 -0.059798401 0.050936799
-0.24196589 0.11646309 -0.02585955
-0.02611593 -0.059798401 0.050936799
-0.92699903 0.64693999 -0.17548884
-0.92163181 0.65355051 -0.2104816
-0.02611593 -0.059798401 0.050936799
-0.22495997 0.10434987 -0.023396224
-0.93464881 0.64964253 -0.15729055
-0.92927074 0.65423536 -0.1913197
-0.26685712 0.13351376 -0.023084149
-0.02611593 -0.059798401 0.050936799
-0.93725902 0.64827359 -0.1362593
-0.93088901 0.65086311 -0.17034328
-0.02611593 -0.059798401 0.050936799
-0.25589055 0.12547565 -0.023434997
-0.9378922 0.64591575 -0.11628332
-0.93551356 0.65051931 -0.1502561
-0.92912883 0.65209097 -0.18335843
-0.02611593 -0.059798401 0.050936799
-0.94151312 0.64656818 -0.09619692
-0.94313377 0.65118605 -0.13009453
-0.93575305 0.65175426 -0.16323367
-0.93339717 0.6553762 -0.19822414
-0.94513404 0.64722055 -0.076110527
-0.94877297 0.65186375 -0.11097021
-0.94538766 0.6534462 -0.14401618
-0.93901855 0.6510185 -0.17719057
-0.95076537 0.64989787 -0.056950159
-0.94839156 0.64848441 -0.0900314
-0.9529891 0.65409487 -0.12285495
-0.94863445 0.65269226 -0.15697342
-0.94539279 0.64450097 -0.036141329
-0.95099789 0.64811534 -0.068982139
-0.95560718 0.65072626 -0.10185976
-0.96025002 0.65437329 -0.13671868
-0.95102018 0.64817804 -0.016962945
-0.96062464 0.65180677 -0.049728602
-0.96023184 0.6503824 -0.081772581
-0.96985102 0.65502906 -0.11551985
-0.95064968 0.64681649 0.0030122474
-0.95623308 0.64639533 -0.027901307
-0.96382308 0.64899898 -0.059722885
-0.96945876 0.64963198 -0.093617409
-0.94529194 0.64243746 0.022839453
-0.9618457 0.64905459 -0.0077412874
-0.9714393 0.65066564 -0.039543301
-0.98205137 0.65229827 -0.072326191
-0.94890487 0.64508945 0.042961888
-0.96546662 0.64970696 0.01234512
-0.97704107 0.65130705 -0.018419661
-0.98664254 0.65091842 -0.05025772
-0.94553882 0.6427173 0.062862702
-0.96408147 0.64732385 0.033283178
-0.98363882 0.65295196 0.0027407929
-0.9952212 0.65255243 -0.028060026
-0.94519788 0.64339149 0.080874622
-0.96568793 0.6469512 0.054313641
-0.9832347 0.65055436 0.0246973
-0.99281442 0.64613014 -0.005213514
-0.94282782 0.64202273 0.10081224
-0.96232587 0.64357913 0.074196428
-0.98183876 0.64615351 0.046598975
-1.0043768 0.65177429 0.017112635
-0.94244546 0.6436606 0.1208415
-0.96394318 0.64522421 0.094263263
-0.98840976 0.64977998 0.06879513
-1.0049616 0.64736247 0.04005155
-0.94607323 0.64733058 0.1399823
-0.96155822 0.64283752 0.11518253
-0.98802054 0.64840031 0.089769997
-1.0105221 0.64896762 0.063192546
-0.93773472 0.64295882 0.15875345
-0.96317554 0.64448255 0.13524938
-0.99060816 0.64801306 0.11181891
-1.0160865 0.64957297 0.086315505
-0.93536061 0.64258993 0.17870909
-0.9637782 0.64510614 0.15627907
-0.98920035 0.64661169 0.13377464
-1.0166634 0.64716083 0.10929047
-0.93001366 0.64022863 0.19757268
-0.95542496 0.63971651 0.17603189
-0.99078417 0.64722073 0.15582278
-1.0182137 0.64673382 0.13331991
-0.92765045 0.64187735 0.2165647
-0.95701957 0.64234322 0.19711637
-0.99037617 0.64582294 0.17779732
-1.0197642 0.64630693 0.15734935
-0.91933054 0.63752377 0.23433618
-0.95662242 0.64296323 0.21812728
-0.98996037 0.64642483 0.19980788
-1.0153499 0.64187723 0.18019432
-0.91198403 0.63515526 0.25316218
-0.95223397 0.6415692 0.23902699
-0.99052566 0.64701223 0.22283688
-1.0228608 0.64645278 0.20542628
-0.91558528 0.64080685 0.27333868
-0.94886011 0.64119661 0.25896385
-0.98909515 0.64659256 0.2458103
-1.0204197 0.64401186 0.22934452
-0.90229291 0.63445365 0.28998053
-0.94449025 0.63982064 0.27886391
-0.98568779 0.64518404 0.26772848
-1.0169826 0.64056742 0.25322598
-0.90289867 0.63909465 0.31008264
-0.9381209 0.63843751 0.29872635
-0.98128057 0.64377183 0.28962782
-1.0244669 0.64712471 0.27949357
-0.89359379 0.63575536 0.32685369
-0.93769723 0.64103907 0.32077295
-0.97190869 0.63836056 0.3103615
-1.0110928 0.6376816 0.30107969
-0.8892349 0.63639718 0.34579012
-0.93035054 0.63867056 0.33959895
-0.97443908 0.64293635 0.33449984
-1.0066479 0.63623321 0.32497838
-0.88487202 0.63803875 0.36474454
-0.92595416 0.63927609 0.36053467
-0.96703643 0.6405136 0.35632482
-1.0121405 0.64078367 0.35117239
-0.88050914 0.63968039 0.38369897
-0.91661191 0.63590074 0.37930506
-0.96559811 0.6420936 0.37933427
-1.0037043 0.63732129 0.37495992
-0.87022322 0.63635558 0.39945161
-0.91221553 0.63650632 0.40024078
-0.95721817 0.63868552 0.40012276
-1.0002329 0.63785809 0.39991307
-0.86188769 0.63600123 0.41729516
-0.90781522 0.63811171 0.42119455
-0.94783449 0.63627368 0.42091051
-0.9928115 0.63541734 0.42273769
-0.85160172 0.63267642 0.43304777
-0.90144187 0.63772839 0.44107506
-0.94834656 0.6408242 0.44601089
-0.98537117 0.63295829 0.44656199
-0.84426206 0.63332558 0.45092821
-0.89209175 0.6363526 0.45988148
-0.93896288 0.63841242 0.4667986
-0.98682308 0.63845807 0.47469822
-0.83791834 0.63497806 0.46884537
-0.88076848 0.63298798 0.47761461
-0.93747538 0.64295572 0.49186146
-0.97740203 0.63601005 0.49748525
-0.82760578 0.63363487 0.4856337
-0.87438732 0.63460439 0.49753118
-0.92216867 0.63557744 0.50944734
-0.96500796 0.63156962 0.51918024
-0.82225794 0.63629073 0.50358772
-0.86404121 0.6322251 0.51630074
-0.91770428 0.63912827 0.53343612
-0.95656395 0.63010699 0.5430038
-0.80899125 0.63297331 0.51828426
-0.85863721 0.63482678 0.53725374
-0.90632105 0.63670933 0.55418634
-0.95106632 0.63261831 0.56895506
-0.80362856 0.63461131 0.53721988
-0.85125619 0.63643956 0.55715144
-0.89200234 0.63233417 0.57184505
-0.94162256 0.63115197 0.59275985
-0.79135388 0.63329715 0.55197132
-0.83302093 0.63012272 0.57070041
-0.87864196 0.62892616 0.59153998
-0.9311977 0.62970018 0.61554611
-0.77710998 0.62899429 0.56563145
-0.8256399 0.6317355 0.59059811
-0.87515092 0.63446218 0.61658323
-0.91877717 0.62724143 0.63827676
-0.76386207 0.62569487 0.57932836
-0.81331295 0.62936711 0.60833043
-0.86376363 0.63304299 0.63735139
-0.9103027 0.6287601 0.66315401
-0.75453752 0.62735474 0.5961895
-0.80100077 0.62801671 0.62508124
-0.84746397 0.62867874 0.65397292
-0.89787424 0.62830102 0.68592072
-0.74228543 0.62505877 0.60992324
-0.79457426 0.63159662 0.6470331
-0.83902311 0.63123351 0.67686886
-0.88840002 0.62981623 0.71077913
-0.73295707 0.62771845 0.62680244
-0.77832681 0.62828636 0.66067362
-0.82860905 0.63179946 0.69869149
-0.87792587 0.63132769 0.73561883
-0.72168213 0.6264078 0.64157259
-0.76306051 0.62496179 0.67533267
-0.80935133 0.62646079 0.71323925
-0.85663503 0.62494582 0.7521103
-0.71038067 0.62707871 0.65737849
-0.75365716 0.62754899 0.69621044
-0.80088782 0.62999725 0.73715287
-0.84613824 0.62743914 0.77796763
-0.69517446 0.62280852 0.66902053
-0.73838699 0.62522423 0.71088749
-0.7826072 0.62564391 0.75273722
-0.83172894 0.62699091 0.79969716
-0.6858421 0.626468 0.68591779
-0.72607088 0.6248737 0.72765625
-0.77020836 0.62722063 0.77354062
-0.8124072 0.62359762 0.81727999
-0.67258632 0.62516826 0.6996507
-0.71177781 0.6235342 0.7433697
-0.75390089 0.62485605 0.79019821
-0.79599822 0.6231423 0.83897185
-0.65834939 0.62388307 0.71236521
-0.6974808 0.62319452 0.75910121
-0.7375707 0.62347317 0.80787343
-0.78254342 0.62466109 0.86275548
-0.6431393 0.62061262 0.72402525
-0.68218398 0.62285125 0.77481395
-0.72614515 0.62703514 0.82973135
-0.76515335 0.62422019 0.88342893
-0.62989831 0.62033081 0.73677653
-0.66788697 0.62251157 0.79054546
-0.70490646 0.62170738 0.84324193
-0.74680483 0.62281215 0.90206623
-0.61759305 0.62199801 0.75258166
-0.65163571 0.62020123 0.80420399
-0.68761396 0.62035704 0.858899
-0.73230493 0.62629092 0.92786646
-0.60337085 0.62173069 0.76431453
-0.6363349 0.62085778 0.81993479
-0.67223436 0.62194109 0.87864637
-0.70710838 0.6199851 0.9392845
-0.58717972 0.61847478 0.77495605
-0.62103415 0.62151444 0.83566546
-0.65296489 0.61960191 0.89324826
-0.68582052 0.61762071 0.95484847
-0.57198042 0.61722213 0.78565252
-0.6067332 0.62217456 0.85141504
-0.63660425 0.62120044 0.91197723
-0.67133927 0.62111747 0.97964895
-0.55965251 0.61987108 0.80247527
-0.58847833 0.62085688 0.86505401
-0.61830795 0.62084645 0.92763352
-0.64807051 0.61876398 0.99417573
-0.5434761 0.61763304 0.81213522
-0.57124203 0.61956084 0.87771219
-0.60096616 0.62245941 0.94534403
-0.62480575 0.61541057 1.0086844
-0.53018588 0.62031454 0.82693994
-0.55593735 0.62121725 0.89346087
-0.57975715 0.61916757 0.95689136
-0.60349125 0.61502773 1.0252841
-0.51303226 0.6170913 0.83556342
-0.53869706 0.62092113 0.90613711
-0.56043839 0.61979163 0.97354656
-0.58119571 0.61465931 1.0408652
-0.49780634 0.6178202 0.8472954
-0.52043819 0.62060326 0.91979414
-0.53729379 0.61454719 0.98202121
-0.55794561 0.61232388 1.0543922
-0.48353896 0.61951637 0.86106366
-0.50126231 0.6183545 0.92939764
-0.51992542 0.61814183 1.0007674
-0.53565013 0.61195552 1.0699733
-0.46638143 0.61729288 0.8697052
-0.48302224 0.61805475 0.94205505
-0.49966696 0.61781681 1.0143869
-0.51332796 0.61356866 1.0865903
-0.44824275 0.61508393 0.87732816
-0.46286523 0.61582053 0.95064014
-0.47842741 0.61750627 1.0269879
-0.48720261 0.6083315 1.0940088
-0.43397143 0.61777991 0.89111441
-0.44557574 0.61848766 0.9653697
-0.45525226 0.61524314 1.0365162
-0.46488047 0.6099447 1.1106259
-0.41678736 0.61753803 0.90079165
-0.42541873 0.61625344 0.9739548
-0.43592566 0.61786693 1.0532075
-0.4396643 0.60863805 1.122134
-0.39864868 0.61532903 0.9084146
-0.40426192 0.61401558 0.98252106
-0.41276923 0.61562186 1.0617362
-0.41447079 0.60634977 1.1326245
-0.38148332 0.61510521 0.91709214
-0.38507819 0.61376649 0.99216068
-0.39054859 0.61532593 1.0733187
-0.38926941 0.6060611 1.1431508
-0.36332202 0.61387801 0.92573285
-0.36489463 0.61351383 1.0017815
-0.36549395 0.61116457 1.0767756
-0.36402664 0.606736 1.1556948
-0.34613398 0.61463594 0.93542802
-0.34660527 0.61617738 1.0164922
-0.34325066 0.6118502 1.0893759
-0.33976111 0.60839623 1.1692752
-0.32703295 0.61245954 0.94103295
-0.32450482 0.61399025 1.0220407
-0.32193923 0.61548477 1.1050479
-0.31266549 0.60519141 1.1747117
-0.30984887 0.61221761 0.95071012
-0.30244574 0.61083943 1.0255719
-0.29596758 0.60939246 1.1044513
-0.28743753 0.60688418 1.1862739
-0.29169843 0.61300814 0.95838714
-0.28317532 0.61351746 1.0392643
-0.27276188 0.61011076 1.1150334
-0.2602326 0.60758817 1.1967807
-0.27351058 0.6137625 0.96806359
-0.26202938 0.61329734 1.0468669
-0.24769945 0.60794902 1.1185262
-0.23404619 0.6083138 1.2063069
-0.2544283 0.61160421 0.97266877
-0.23900793 0.61017919 1.04838
-0.22544438 0.61163419 1.1311804
-0.20604829 0.60419589 1.2067083
-0.23432355 0.61042404 0.97827297
-0.21779796 0.6119045 1.0590177
-0.20034446 0.60943633 1.1366727
-0.17896356 0.60300875 1.2111813
-0.21519595 0.61022925 0.98491353
-0.19571231 0.61073524 1.0635846
-0.17621388 0.61022341 1.1432374
-0.15185617 0.60280329 1.2166719
-0.19606838 0.61003441 0.9915542
-0.17360795 0.60954797 1.0691512
-0.15025306 0.60614884 1.141677
-0.12468475 0.60454327 1.2251976
-0.17691422 0.61182117 0.9992305
-0.15151834 0.60937852 1.0737361
-0.1259757 0.61080855 1.1553113
-0.097490676 0.60726494 1.2347409
-0.15782407 0.61166257 1.0038718
-0.12936866 0.61015475 1.081338
-0.10099205 0.60771936 1.1547875
-0.068545215 0.60419756 1.2321426
-0.13676089 0.60951519 1.0074397
-0.106362 0.60805446 1.0818695
-0.075008593 0.6046266 1.154245
-0.041516632 0.60306466 1.2336166
-0.11756536 0.61226559 1.0171335
-0.084140435 0.61277562 1.0925424
-0.049938269 0.60446453 1.1577739
-0.013529614 0.60096449 1.2330544
-0.097426176 0.61506671 1.0238093
-0.061069757 0.61262077 1.0961088
-0.024694618 0.61015671 1.1694081
0.013506819 0.60183126 1.2345644
-0.076381713 0.61293733 1.0263777
-0.038191147 0.60662967 1.0905702
0.00033825636 0.61003077 1.1709378
0.041621886 0.6036219 1.2400723
-0.055355966 0.61082619 1.0279464
-0.015011141 0.61038363 1.0992072
0.025389848 0.60988677 1.1734668
0.069556668 0.60257584 1.236529
-0.035280801 0.61168182 1.0315871
0.0069356067 0.60734141 1.0967404
0.05142647 0.61075717 1.1749958
0.093584806 0.57632285 1.1895883
-0.014273779 0.60958874 1.0321562
0.031051407 0.60914642 1.1023233
0.076316506 0.6077584 1.1694736
0.12659155 0.60433471 1.2374935
0.0058201021 0.61042643 1.0367967
0.054001894 0.60710037 1.0998558
0.10211966 0.60182887 1.1598799
0.15446229 0.60134327 1.2309153
0.027812149 0.60934758 1.0363653
0.078016229 0.60699612 1.1004045
0.12709637 0.60175723 1.1584105
0.18135983 0.60033697 1.2253915
0.048973799 0.61312687 1.0440401
0.10097064 0.60594994 1.097955
0.15313692 0.6036275 1.1599574
0.21148628 0.60511994 1.2309159
0.069883287 0.61012435 1.0395927
0.12396644 0.60586739 1.0975227
0.17907205 0.60258853 1.1564517
0.23615466 0.59832084 1.2143254
0.09183003 0.60708207 1.0371259
0.14792067 0.60481763 1.0950544
0.20616165 0.60741848 1.1600331
0.26520252 0.60217994 1.2158519
0.1138861 0.60794866 1.0397296
0.17085636 0.60378951 1.0916053
0.22997305 0.60349584 1.1505131
0.29308507 0.60218793 1.2093278
0.13588601 0.60886949 1.0393342
0.1948106 0.60273969 1.089137
0.25482953 0.601533 1.1430097
0.31890395 0.60025775 1.1998062
0.15681422 0.60584903 1.0358865
0.21885544 0.60561693 1.0907394
0.28079522 0.60347563 1.1405578
0.3457492 0.60030556 1.1913016
0.17883283 0.60675174 1.0364909
0.24170838 0.60266143 1.0832555
0.30562904 0.60053104 1.1320368
0.37259451 0.60035336 1.182797
0.2018099 0.60668731 1.035059
0.26669294 0.60458952 1.0818223
0.33049339 0.60056794 1.1245694
0.39943978 0.60040116 1.1742923
0.22487365 0.60954994 1.0376798
0.28959513 0.60459745 1.0763917
0.35433537 0.59962672 1.1161031
0.42522514 0.59950703 1.1627896
0.24574961 0.60758346 1.0312513
0.31136161 0.5987184 1.0648739
0.38234594 0.60352558 1.115649
0.41423997 0.54826683 1.0670359
0.26762146 0.60461354 1.0247859
0.33743659 0.60456985 1.0674925
0.40619177 0.60358417 1.1072009
0.47056746 0.59194028 1.1287923
0.29060641 0.60654873 1.0233901
0.36029738 0.60361409 1.0600446
0.40895283 0.57064277 1.047533
0.50263047 0.59978789 1.1303344
0.31361002 0.60846579 1.0229939
0.38522574 0.60559636 1.0556122
0.45375538 0.59981048 1.0842342
0.52637869 0.59893709 1.1168698
0.33546317 0.60551411 1.0155288
0.40385386 0.59785515 1.0371171
0.47652256 0.5989452 1.0717881
0.55113077 0.59908247 1.1034044
0.35732809 0.60556173 1.0081179
0.42984608 0.60177922 1.035701
0.50452226 0.6048618 1.0703704
0.57484156 0.59826791 1.0879406
0.38024899 0.60555154 1.003687
0.45269209 0.60184139 1.0272716
0.5272668 0.60301471 1.0569066
0.5965302 0.5964787 1.0714965
0.40108749 0.60362118 0.99525905
0.47660196 0.60384536 1.0218583
0.55001527 0.60216743 1.0434607
0.62234598 0.59856594 1.0610474
0.42503482 0.60558903 0.99184513
0.50147033 0.60488218 1.0144089
0.56967765 0.59840393 1.0260186
0.64708328 0.5997293 1.0466003
0.44898602 0.60855663 0.98844928
0.52017021 0.6010859 0.99898493
0.59553486 0.60145479 1.0175868
0.66875708 0.59895802 1.0291747
0.46872327 0.60472065 0.97500575
0.54297882 0.60118431 0.98855615
0.62347847 0.60742563 1.0131702
0.69045341 0.59916848 1.0127667
0.49056551 0.60378659 0.96657705
0.56785494 0.60422063 0.98114282
0.6400438 0.60276341 0.99076813
0.71317625 0.60135692 0.99737573
0.51553917 0.60773236 0.96418005
0.58862251 0.6033625 0.96873426
0.66486377 0.60585415 0.98035586
0.73587245 0.60156381 0.98094893
0.53628016 0.60489267 0.95073581
0.6093713 0.60252243 0.95532602
0.68555641 0.60506839 0.96394861
0.75755411 0.60279214 0.96355933
0.5570665 0.60401642 0.939327
0.62907887 0.60072243 0.93991923
0.70727152 0.60526079 0.94854027
0.77310485 0.59915149 0.94019443
0.57680762 0.60118037 0.92590147
0.65287256 0.60183507 0.9284901
0.72488201 0.60255843 0.92815483
0.79478645 0.60037994 0.92280483
0.60172516 0.60518038 0.92050552
0.67364794 0.60297662 0.91611755
0.73944384 0.59690356 0.90577227
