# .PCD v0.7 - Point Cloud Data file format
VERSION 0.7
FIELDS x y z
SIZE 4 4 4
TYPE F F F
COUNT 1 1 1
WIDTH 1375
HEIGHT 1
VIEWPOINT 0 0 0 1 0 0 0
POINTS 1375
DATA ascii
0.68788189 0.61240429 0.50088084
0.56356096 0.61723697 0.53730822
0.60821873 0.61338371 0.51939631
0.65492934 0.61348641 0.50351822
0.69553947 0.61170125 0.48271859
0.56308627 0.60163766 0.5150274
0.61794698 0.61160135 0.50517714
0.66464663 0.61372185 0.48833543
0.7062645 0.61393291 0.46755302
0.5758819 0.60278982 0.50380486
0.63375378 0.61574227 0.49395227
0.67639017 0.61593163 0.47415072
0.71394479 0.61421168 0.45040843
0.58662856 0.60098588 0.49056652
0.64246345 0.61398172 0.47875223
0.68611151 0.61716688 0.45898592
0.72264749 0.61546862 0.43426275
0.59840173 0.60115987 0.47834507
0.6521768 0.61321723 0.46355134
0.69176155 0.61447155 0.44082522
0.72525674 0.61182028 0.41414112
0.6233772 0.61514014 0.47412896
0.66493893 0.61540544 0.45034754
0.7014789 0.61470699 0.42564237
0.73598963 0.6160515 0.39901155
0.639184 0.61928099 0.4629041
0.67465627 0.61564094 0.43516472
0.70918179 0.61596751 0.40951553
0.74469632 0.61830819 0.38288391
0.65091968 0.61949116 0.44868335
0.68235129 0.61490178 0.41900179
0.7168808 0.61622822 0.39337063
0.74935442 0.61761606 0.36477804
0.65962553 0.61673075 0.43346527
0.69309103 0.61611533 0.40481785
0.72355723 0.61551082 0.37622681
0.75301278 0.61692756 0.34669095
0.66832036 0.61598802 0.41728356
0.70279372 0.6173687 0.3886534
0.73326761 0.61876374 0.36009836
0.75867468 0.61723155 0.32858431
0.68007869 0.61717993 0.40408048
0.71454108 0.62057841 0.37448668
0.73894048 0.61705017 0.34295541
0.76436311 0.61951721 0.31151336
0.69382185 0.61938256 0.38985825
0.71918744 0.61688673 0.35632682
0.7446211 0.61733609 0.3258484
0.76702166 0.61883217 0.29344508
0.70151693 0.61864346 0.37369528
0.72991639 0.62011808 0.34117922
0.7533316 0.62059271 0.30973879
0.77068394 0.61914349 0.27537602
0.7091893 0.61692262 0.35651472
0.7345854 0.61740816 0.32403702
0.75899744 0.62189656 0.29165015
0.77234262 0.61846209 0.25732654
0.72294027 0.62112492 0.34232846
0.74329215 0.61966491 0.30790934
0.76165205 0.62021172 0.27356383
0.77700859 0.61976957 0.23925668
0.7295903 0.61842591 0.32414895
0.74794626 0.61797291 0.28978544
0.76330286 0.61753076 0.25547829
0.7111975 0.56359136 0.20746186
0.73726654 0.61770493 0.30698636
0.75463068 0.61925519 0.27267769
0.76999122 0.61981279 0.23838857
0.58199465 0.4528296 0.16586322
0.74293935 0.61599118 0.28984335
0.76129234 0.61955559 0.25455225
0.70114219 0.55866432 0.20556036
-0.02611593 -0.059798401 0.050936799
0.75364566 0.61824083 0.27367812
0.76596928 0.6188454 0.23744604
0.55783468 0.43500924 0.16099155
0.56136203 0.43444723 0.13590685
0.76030731 0.61854136 0.25555268
0.68401939 0.54579991 0.20164689
0.54450518 0.42232943 0.14600667
0.5440253 0.41978216 0.12096108
0.76798761 0.61882013 0.23840812
0.56487578 0.44096497 0.16196778
0.55330247 0.4285132 0.13394974
0.56187898 0.43591383 0.10991488
0.64673889 0.5110833 0.19371422
0.55051982 0.4263072 0.14596601
0.54801768 0.42278537 0.11994033
0.59579557 0.46396792 0.099783912
0.55680048 0.43103161 0.1599386
0.55730957 0.43049845 0.13391061
0.56385988 0.43592474 0.10887764
0.62566745 0.49007285 0.087692738
0.56658965 0.43521208 0.14782685
0.5479911 0.42080379 0.11890462
0.59073544 0.45802313 0.097770423
0.62540931 0.49132597 0.073715508
0.53815567 0.40964258 0.12989059
0.56784052 0.43592846 0.10780282
0.62764442 0.48908395 0.086637482
0.63116562 0.49655682 0.059697598
0.5710606 0.43470076 0.11972436
0.60173428 0.46300083 0.096654162
0.62936717 0.49034792 0.071622998
0.61387438 0.48385519 0.046787202
0.56173819 0.42400628 0.10470036
0.61550891 0.47320214 0.082576029
0.63411981 0.49458256 0.057605863
0.61662734 0.48809701 0.032807648
0.60365021 0.45604905 0.093491472
0.63530201 0.48838106 0.068475239
0.61680186 0.47989941 0.043659773
0.62540293 0.4983162 0.018823467
0.6023578 0.45332453 0.078461289
0.61596185 0.47272334 0.053549044
0.62256229 0.48613009 0.029659886
0.6672262 0.53646654 0.0017247275
0.64122516 0.48341462 0.065273419
0.61772203 0.47395113 0.040533889
0.62330782 0.48837942 0.015681878
0.62989038 0.50682151 -0.010116506
0.61483997 0.46080127 0.049352974
0.61944467 0.47521508 0.025519408
0.63805658 0.50161278 -0.0003603138
0.61663282 0.49808681 -0.022030335
0.61055905 0.45606974 0.03534279
0.63820064 0.49043375 0.0094380863
0.6357801 0.50289112 -0.015299641
0.61236745 0.49735457 -0.035968449
0.62629968 0.46729985 0.019245764
0.63591623 0.48971245 -0.005537264
0.61248493 0.48419398 -0.027205735
0.61711717 0.50560653 -0.050913166
0.65005165 0.48651803 0.0021428987
0.62662822 0.48299924 -0.019489538
0.61022317 0.48445439 -0.041163415
0.58487505 0.48087046 -0.058759619
0.63873744 0.47783029 -0.012807485
0.62334013 0.48128164 -0.03446411
0.594962 0.47472706 -0.053057667
0.5896247 0.48912248 -0.073704347
0.63344181 0.47412038 -0.027780518
0.60604876 0.46858001 -0.047374509
0.57871187 0.46298543 -0.063969508
0.57940102 0.48435819 -0.084602803
0.60513192 0.45144176 -0.039664742
0.59379488 0.46084157 -0.059289105
0.58245379 0.46924141 -0.078931496
0.71798348 0.61370558 -0.13287404
0.59285146 0.44172171 -0.052615047
0.58552933 0.45510641 -0.072242483
0.58621454 0.4754793 -0.092893787
0.72966969 0.63002163 -0.15280446
0.58456725 0.43600467 -0.066568077
0.58325279 0.45638472 -0.087181807
0.75369096 0.62689978 -0.15131015
0.72537476 0.63132519 -0.16870584
0.58429426 0.43827567 -0.08152695
0.68184227 0.54272026 -0.12647927
0.75435466 0.63223904 -0.17023242
0.72108775 0.63462847 -0.18457121
0.60298312 0.45556638 -0.10157089
0.77835721 0.62913537 -0.16973777
0.74904126 0.63356429 -0.18711467
0.20523353 0.15774301 -0.02748616
0.80930626 0.62706059 -0.17235564
0.77199477 0.62750089 -0.18865463
0.2132242 0.15571463 -0.027672522
0.18920021 0.14378472 -0.026438106
0.80890214 0.62945825 -0.19431216
0.76766241 0.62884063 -0.20655534
0.20115755 0.14779526 -0.029590502
-0.02611593 -0.059798401 0.050936799
0.79855132 0.62582046 -0.21219021
0.20214467 0.13977493 -0.028753784
-0.02611593 -0.059798401 0.050936799
0.16710395 0.12790258 -0.028312333
0.20213197 0.1317582 -0.027898271
0.18609653 0.12683456 -0.028687373
0.1740761 0.12589589 -0.029479567
-0.02611593 -0.059798401 0.050936799
0.19206494 0.12383164 -0.029853836
-0.02611593 -0.059798401 0.050936799
-0.02611593 -0.059798401 0.050936799
0.14305241 0.10897386 -0.027204055
-0.02611593 -0.059798401 0.050936799
0.16299653 0.10995618 -0.030560825
0.15099087 0.10799958 -0.030371375
-0.02611593 -0.059798401 0.050936799
0.15800256 0.09692207 -0.027702134
-0.02611593 -0.059798401 0.050936799
-0.02611593 -0.059798401 0.050936799
0.12798932 0.097047828 -0.028138075
-0.02611593 -0.059798401 0.050936799
0.13796002 0.090013131 -0.028452113
0.13692065 0.099087544 -0.032269794
-0.02611593 -0.059798401 0.050936799
0.13992128 0.085024886 -0.029579446
-0.02611593 -0.059798401 0.050936799
-0.02611593 -0.059798401 0.050936799
0.11096009 0.08409296 -0.027053222
-0.02611593 -0.059798401 0.050936799
0.12388976 0.081101075 -0.030350529
0.11788391 0.084140196 -0.031183399
-0.02611593 -0.059798401 0.050936799
0.1208737 0.072095282 -0.029456664
-0.02611593 -0.059798401 0.050936799
-0.02611593 -0.059798401 0.050936799
0.09794192 0.074123219 -0.025989462
-0.02611593 -0.059798401 0.050936799
0.11083806 0.072167352 -0.031268086
0.10583206 0.075202875 -0.032119729
-0.02611593 -0.059798401 0.050936799
0.09988565 0.05510119 -0.025369734
-0.02611593 -0.059798401 0.050936799
-0.02611593 -0.059798401 0.050936799
0.086912513 0.066164069 -0.02592691
-0.02611593 -0.059798401 0.050936799
0.091838807 0.057183821 -0.028182358
0.091817982 0.06623657 -0.031019177
-0.02611593 -0.059798401 0.050936799
0.089811675 0.050192192 -0.028270908
-0.02611593 -0.059798401 0.050936799
-0.02611593 -0.059798401 0.050936799
0.076890782 0.060200974 -0.025847118
-0.02611593 -0.059798401 0.050936799
0.081813142 0.050220903 -0.028120581
0.079818353 0.056245156 -0.028974548
-0.02611593 -0.059798401 0.050936799
0.077797242 0.041218709 -0.027207926
-0.02611593 -0.059798401 0.050936799
-0.02611593 -0.059798401 0.050936799
0.066875979 0.051220302 -0.024821721
-0.02611593 -0.059798401 0.050936799
0.073761448 0.046286467 -0.03004165
0.07176666 0.052310728 -0.030895624
-0.02611593 -0.059798401 0.050936799
0.06976036 0.036266357 -0.028147355
-0.02611593 -0.059798401 0.050936799
-0.02611593 -0.059798401 0.050936799
0.057872783 0.045235537 -0.023761056
-0.02611593 -0.059798401 0.050936799
0.058810681 0.034251906 -0.02497771
0.063744552 0.046340447 -0.030853409
-0.02611593 -0.059798401 0.050936799
0.058757529 0.030288769 -0.027049109
-0.02611593 -0.059798401 0.050936799
-0.02611593 -0.059798401 0.050936799
0.050873149 0.040243413 -0.022719957
-0.02611593 -0.059798401 0.050936799
0.055736337 0.034335025 -0.028919984
0.057719078 0.044380419 -0.031776357
-0.02611593 -0.059798401 0.050936799
0.053713139 0.028343221 -0.028990511
-0.02611593 -0.059798401 0.050936799
-0.02611593 -0.059798401 0.050936799
0.044843744 0.037283555 -0.023660924
-0.02611593 -0.059798401 0.050936799
0.048707105 0.031378753 -0.029842164
0.050685924 0.040424302 -0.032716565
-0.02611593 -0.059798401 0.050936799
0.045694962 0.023372788 -0.028930277
-0.02611593 -0.059798401 0.050936799
-0.02611593 -0.059798401 0.050936799
0.039832875 0.034302007 -0.02362103
-0.02611593 -0.059798401 0.050936799
0.038767204 0.022325723 -0.024818119
0.042705197 0.035417695 -0.030657012
-0.02611593 -0.059798401 0.050936799
0.036729217 0.017351838 -0.02587029
-0.02611593 -0.059798401 0.050936799
-0.02611593 -0.059798401 0.050936799
0.031866945 0.028277466 -0.02057983
-0.02611593 -0.059798401 0.050936799
0.034711771 0.022394346 -0.027741943
0.033750318 0.027378999 -0.0266334
-0.02611593 -0.059798401 0.050936799
0.030718526 0.014373885 -0.025811605
-0.02611593 -0.059798401 0.050936799
-0.02611593 -0.059798401 0.050936799
0.027841097 0.026310258 -0.021540366
-0.02611593 -0.059798401 0.050936799
0.024809312 0.013305143 -0.020718575
0.032649945 0.030490614 -0.032558519
-0.02611593 -0.059798401 0.050936799
0.024707844 0.011395927 -0.025752917
-0.02611593 -0.059798401 0.050936799
-0.02611593 -0.059798401 0.050936799
-0.02611593 -0.059798401 0.050936799
-0.02611593 -0.059798401 0.050936799
0.024679169 0.018449008 -0.028625771
0.018818261 0.015326338 -0.020569794
-0.02611593 -0.059798401 0.050936799
0.019700898 0.0094142174 -0.025695
-0.02611593 -0.059798401 0.050936799
-0.02611593 -0.059798401 0.050936799
-0.02611593 -0.059798401 0.050936799
-0.02611593 -0.059798401 0.050936799
0.017716981 0.01342071 -0.025585342
0.013859638 0.011290693 -0.01754893
-0.02611593 -0.059798401 0.050936799
0.016664006 0.0094611626 -0.027637955
-0.02611593 -0.059798401 0.050936799
-0.02611593 -0.059798401 0.050936799
-0.02611593 -0.059798401 0.050936799
-0.02611593 -0.059798401 0.050936799
0.013680266 0.013471245 -0.027509507
0.015673876 0.021498881 -0.02940226
-0.02611593 -0.059798401 0.050936799
0.010672041 0.0064651077 -0.026579607
-0.02611593 -0.059798401 0.050936799
-0.02611593 -0.059798401 0.050936799
-0.02611593 -0.059798401 0.050936799
-0.02611593 -0.059798401 0.050936799
0.0086881192 0.010471608 -0.026469953
0.01166675 0.019513585 -0.029363137
-0.02611593 -0.059798401 0.050936799
0.0056838244 0.0044653094 -0.025522027
-0.02611593 -0.059798401 0.050936799
-0.02611593 -0.059798401 0.050936799
-0.02611593 -0.059798401 0.050936799
-0.02611593 -0.059798401 0.050936799
0.003714697 0.0074538901 -0.024430726
0.0056935116 0.016499449 -0.02730513
-0.02611593 -0.059798401 0.050936799
0.0026321341 0.0055301739 -0.028446618
-0.02611593 -0.059798401 0.050936799
-0.02611593 -0.059798401 0.050936799
-0.02611593 -0.059798401 0.050936799
-0.02611593 -0.059798401 0.050936799
0.00069652335 0.0074827457 -0.025374014
0.0036268425 0.018578645 -0.031230144
-0.02611593 -0.059798401 0.050936799
-0.001356265 0.0035267794 -0.027407832
-0.02611593 -0.059798401 0.050936799
-0.02611593 -0.059798401 0.050936799
-0.00019698089 0.015412617 -0.021212433
-0.02611593 -0.059798401 0.050936799
-0.0033066717 0.0064972634 -0.025316872
-0.00039114698 0.018611088 -0.032154649
-0.02611593 -0.059798401 0.050936799
-0.0053742561 0.0035592238 -0.02833233
-0.02611593 -0.059798401 0.050936799
-0.02611593 -0.059798401 0.050936799
-0.0032338791 0.015459561 -0.023155387
-0.02611593 -0.059798401 0.050936799
-0.007324663 0.0065297079 -0.026241377
-0.00440914 0.018643532 -0.033079155
-0.02611593 -0.059798401 0.050936799
-0.0093883211 0.0045914995 -0.029238813
-0.02611593 -0.059798401 0.050936799
-0.02611593 -0.059798401 0.050936799
-0.0062629208 0.017506162 -0.025062297
-0.02611593 -0.059798401 0.050936799
-0.011309136 0.0055261515 -0.025184568
-0.0074421102 0.019690307 -0.035004087
-0.02611593 -0.059798401 0.050936799
-0.02611593 -0.059798401 0.050936799
-0.02611593 -0.059798401 0.050936799
-0.02611593 -0.059798401 0.050936799
-0.010221729 0.013466933 -0.02206023
-0.02611593 -0.059798401 0.050936799
-0.02611593 -0.059798401 0.050936799
-0.011460099 0.019722752 -0.035928585
-0.02611593 -0.059798401 0.050936799
-0.02611593 -0.059798401 0.050936799
-0.02611593 -0.059798401 0.050936799
-0.02611593 -0.059798401 0.050936799
-0.013221181 0.0134777 -0.022003859
-0.02611593 -0.059798401 0.050936799
-0.018360095 0.0066053644 -0.028033998
-0.016366487 0.01463301 -0.029926762
-0.02611593 -0.059798401 0.050936799
-0.02611593 -0.059798401 0.050936799
-0.02611593 -0.059798401 0.050936799
-0.02611593 -0.059798401 0.050936799
-0.016254151 0.014524476 -0.023928791
-0.02611593 -0.059798401 0.050936799
-0.022329776 0.0045838882 -0.025995556
-0.019384662 0.014661865 -0.030870039
-0.02611593 -0.059798401 0.050936799
-0.02611593 -0.059798401 0.050936799
-0.02611593 -0.059798401 0.050936799
-0.02611593 -0.059798401 0.050936799
-0.019238807 0.013517322 -0.022890773
-0.02611593 -0.059798401 0.050936799
-0.025329227 0.0045946548 -0.025939185
-0.023413517 0.016712062 -0.032758173
-0.02611593 -0.059798401 0.050936799
-0.02611593 -0.059798401 0.050936799
-0.02611593 -0.059798401 0.050936799
-0.02611593 -0.059798401 0.050936799
-0.023256795 0.013549767 -0.023815271
-0.02611593 -0.059798401 0.050936799
-0.028343471 0.0056233411 -0.026864454
-0.027353607 0.012654738 -0.028756432
-0.02611593 -0.059798401 0.050936799
-0.02611593 -0.059798401 0.050936799
-0.02611593 -0.059798401 0.050936799
-0.02611593 -0.059798401 0.050936799
-0.026285838 0.015596373 -0.025722191
-0.02611593 -0.059798401 0.050936799
-0.0313242 0.005616019 -0.025808424
-0.029412419 0.016733594 -0.03264543
-0.02611593 -0.059798401 0.050936799
-0.02611593 -0.059798401 0.050936799
-0.02611593 -0.059798401 0.050936799
-0.02611593 -0.059798401 0.050936799
-0.028255882 0.013567712 -0.023721319
-0.02611593 -0.059798401 0.050936799
-0.035356984 0.0066663758 -0.027714562
-0.033352509 0.012676271 -0.02864369
-0.02611593 -0.059798401 0.050936799
-0.02611593 -0.059798401 0.050936799
-0.02611593 -0.059798401 0.050936799
-0.02611593 -0.059798401 0.050936799
-0.031255335 0.013578478 -0.023664948
-0.02611593 -0.059798401 0.050936799
-0.038337711 0.0066590533 -0.026658528
-0.037396159 0.015744386 -0.03151346
-0.02611593 -0.059798401 0.050936799
-0.043352507 0.002677683 -0.026636649
-0.02611593 -0.059798401 0.050936799
-0.02611593 -0.059798401 0.050936799
-0.035269395 0.014610754 -0.02457143
-0.02611593 -0.059798401 0.050936799
-0.042336978 0.0066734091 -0.026583366
-0.04142502 0.017794574 -0.033401582
-0.02611593 -0.059798401 0.050936799
-0.046333235 0.0026703607 -0.025580619
-0.02611593 -0.059798401 0.050936799
-0.02611593 -0.059798401 0.050936799
-0.038239259 0.012585681 -0.022551771
-0.02611593 -0.059798401 0.050936799
-0.046317525 0.0066696759 -0.025508545
-0.044376157 0.01575142 -0.030382257
-0.02611593 -0.059798401 0.050936799
-0.051376708 0.0057420642 -0.028431591
-0.02611593 -0.059798401 0.050936799
-0.02611593 -0.059798401 0.050936799
-0.041249577 0.014614198 -0.023459025
-0.02611593 -0.059798401 0.050936799
-0.050327659 0.0087017892 -0.026397005
-0.048371498 0.016765606 -0.030289076
-0.02611593 -0.059798401 0.050936799
-0.055386845 0.0077741705 -0.029320057
-0.02611593 -0.059798401 0.050936799
-0.02611593 -0.059798401 0.050936799
-0.044249032 0.014624965 -0.023402654
-0.02611593 -0.059798401 0.050936799
-0.05330839 0.0086944671 -0.025340974
-0.052396428 0.019815631 -0.032159194
-0.02611593 -0.059798401 0.050936799
-0.058315329 0.0067127426 -0.025283061
-0.02611593 -0.059798401 0.050936799
-0.02611593 -0.059798401 0.050936799
-0.049273774 0.017678572 -0.02525397
-0.02611593 -0.059798401 0.050936799
-0.057288934 0.0086907335 -0.024266146
-0.057425104 0.021869408 -0.034028523
-0.02611593 -0.059798401 0.050936799
-0.063325286 0.0087484457 -0.026152726
-0.02611593 -0.059798401 0.050936799
-0.02611593 -0.059798401 0.050936799
-0.051229026 0.014631999 -0.022271462
-0.02611593 -0.059798401 0.050936799
-0.060250942 0.0086653223 -0.022210453
-0.061401725 0.022865506 -0.032935679
-0.02611593 -0.059798401 0.050936799
-0.068331309 0.011783963 -0.02700438
-0.02611593 -0.059798401 0.050936799
-0.02611593 -0.059798401 0.050936799
-0.057297975 0.020742962 -0.027048912
-0.02611593 -0.059798401 0.050936799
-0.067319706 0.014779867 -0.026969116
-0.065382272 0.022861771 -0.031860858
-0.02611593 -0.059798401 0.050936799
-0.072293133 0.011762141 -0.0249299
-0.02611593 -0.059798401 0.050936799
-0.02611593 -0.059798401 0.050936799
-0.061308112 0.022775061 -0.027937368
-0.02611593 -0.059798401 0.050936799
-0.070281714 0.014754455 -0.024913426
-0.069358885 0.023857869 -0.030768011
-0.02611593 -0.059798401 0.050936799
-0.076288469 0.012776327 -0.024836719
-0.02611593 -0.059798401 0.050936799
-0.02611593 -0.059798401 0.050936799
-0.058097601 0.0095132627 -0.014232732
-0.02611593 -0.059798401 0.050936799
-0.07731697 0.019832999 -0.027690779
-0.073324636 0.022836216 -0.02871155
-0.02611593 -0.059798401 0.050936799
-0.08023157 0.012736415 -0.021762569
-0.02611593 -0.059798401 0.050936799
-0.02611593 -0.059798401 0.050936799
-0.02611593 -0.059798401 0.050936799
-0.02611593 -0.059798401 0.050936799
-0.084352218 0.024911534 -0.030468136
-0.070121072 0.012591992 -0.015952505
-0.02611593 -0.059798401 0.050936799
-0.088277504 0.019836299 -0.025484763
-0.02611593 -0.059798401 0.050936799
-0.02611593 -0.059798401 0.050936799
-0.02611593 -0.059798401 0.050936799
-0.02611593 -0.059798401 0.050936799
-0.087295495 0.024868034 -0.02741278
-0.082273759 0.02583183 -0.026489053
-0.02611593 -0.059798401 0.050936799
-0.095294036 0.024896745 -0.027262457
-0.02611593 -0.059798401 0.050936799
-0.02611593 -0.059798401 0.050936799
-0.02611593 -0.059798401 0.050936799
-0.02611593 -0.059798401 0.050936799
-0.093278691 0.028888881 -0.027227961
-0.091334313 0.033953212 -0.031174101
-0.02611593 -0.059798401 0.050936799
-0.10024782 0.026878173 -0.025133148
-0.02611593 -0.059798401 0.050936799
-0.02611593 -0.059798401 0.050936799
-0.083239146 0.029816646 -0.02539853
-0.02611593 -0.059798401 0.050936799
-0.097240508 0.02886706 -0.02515348
-0.096306808 0.035952732 -0.030044448
-0.02611593 -0.059798401 0.050936799
-0.10724954 0.030920707 -0.025929198
-0.02611593 -0.059798401 0.050936799
-0.02611593 -0.059798401 0.050936799
-0.089244984 0.032855757 -0.026231389
-0.02611593 -0.059798401 0.050936799
-0.10523813 0.033913016 -0.025912721
-0.10329375 0.038977347 -0.029858854
-0.02611593 -0.059798401 0.050936799
-0.11319923 0.033905547 -0.023763079
-0.02611593 -0.059798401 0.050936799
-0.02611593 -0.059798401 0.050936799
-0.092173472 0.031794347 -0.022194393
-0.02611593 -0.059798401 0.050936799
-0.11424644 0.040980298 -0.027616806
-0.10826233 0.041976694 -0.028711181
-0.02611593 -0.059798401 0.050936799
-0.12521784 0.043001354 -0.026374403
-0.02611593 -0.059798401 0.050936799
-0.02611593 -0.059798401 0.050936799
-0.10221512 0.039901219 -0.025860984
-0.02611593 -0.059798401 0.050936799
-0.12018132 0.042947233 -0.02446904
-0.11522662 0.045983039 -0.027507924
-0.02611593 -0.059798401 0.050936799
-0.13316323 0.0469932 -0.024152689
-0.02611593 -0.059798401 0.050936799
-0.02611593 -0.059798401 0.050936799
-0.10718761 0.041900747 -0.024731334
-0.02611593 -0.059798401 0.050936799
-0.1301707 0.050000019 -0.025154665
-0.12523474 0.053053923 -0.029193204
-0.02611593 -0.059798401 0.050936799
-0.14213409 0.05402432 -0.023857445
-0.02611593 -0.059798401 0.050936799
-0.02611593 -0.059798401 0.050936799
-0.11314122 0.043885756 -0.022583228
-0.02611593 -0.059798401 0.050936799
-0.14318523 0.06009924 -0.02772918
-0.13218422 0.056042351 -0.027008299
-0.02611593 -0.059798401 0.050936799
-0.15712558 0.065112457 -0.025376704
-0.02611593 -0.059798401 0.050936799
-0.02611593 -0.059798401 0.050936799
-0.12213866 0.048935298 -0.023323685
-0.02611593 -0.059798401 0.050936799
-0.15515162 0.068140939 -0.027359545
-0.14315471 0.063080639 -0.02667547
-0.02611593 -0.059798401 0.050936799
-0.17006913 0.074139498 -0.023970596
-0.02611593 -0.059798401 0.050936799
-0.02611593 -0.059798401 0.050936799
-0.12806961 0.051902052 -0.020157903
-0.02611593 -0.059798401 0.050936799
-0.16508876 0.07413964 -0.025064208
-0.15513983 0.071140423 -0.027305491
-0.02611593 -0.059798401 0.050936799
-0.18703368 0.08721637 -0.024416577
-0.02611593 -0.059798401 0.050936799
-0.02611593 -0.059798401 0.050936799
-0.14409444 0.06402979 -0.023639675
-0.02611593 -0.059798401 0.050936799
-0.18406384 0.089241438 -0.026436228
-0.16808338 0.080167465 -0.025899395
-0.02611593 -0.059798401 0.050936799
-0.20497541 0.10127859 -0.023826089
-0.02611593 -0.059798401 0.050936799
-0.02611593 -0.059798401 0.050936799
-0.15606081 0.072071485 -0.023270044
-0.02611593 -0.059798401 0.050936799
-0.19899915 0.10027534 -0.024956521
-0.18403332 0.092222854 -0.025382522
-0.02611593 -0.059798401 0.050936799
-0.22589 0.11733316 -0.022143532
-0.02611593 -0.059798401 0.050936799
-0.02611593 -0.059798401 0.050936799
-0.1700042 0.081102125 -0.021845151
-0.02611593 -0.059798401 0.050936799
-0.22192816 0.11735498 -0.024218023
-0.19795796 0.10123537 -0.022957966
-0.02611593 -0.059798401 0.050936799
-0.25981519 0.14448678 -0.023017481
-0.02611593 -0.059798401 0.050936799
-0.02611593 -0.059798401 0.050936799
-0.19097495 0.097210944 -0.023161571
-0.02611593 -0.059798401 0.050936799
-0.24984057 0.13845189 -0.023313496
-0.2259078 0.1223685 -0.024052765
-0.02611593 -0.059798401 0.050936799
-0.84988117 0.65155417 -0.17084762
-0.02611593 -0.059798401 0.050936799
-0.02611593 -0.059798401 0.050936799
-0.21292682 0.11330528 -0.023459543
-0.84953719 0.648211 -0.15190813
-0.83607882 0.6496852 -0.18114333
-0.25182843 0.14145857 -0.023221862
-0.02611593 -0.059798401 0.050936799
-0.85419536 0.64890319 -0.13380226
-0.84174073 0.64938116 -0.1630367
-0.02611593 -0.059798401 0.050936799
-0.24486414 0.13745221 -0.024425119
-0.85785365 0.64959174 -0.11571517
-0.84640282 0.64907348 -0.14494886
-0.83896887 0.65360481 -0.17601658
-0.02611593 -0.059798401 0.050936799
-0.8575058 0.64724839 -0.09675765
-0.85006499 0.64876223 -0.1268798
-0.84862226 0.6553148 -0.15779877
-0.82916677 0.64673299 -0.18532759
-0.86217874 0.6489585 -0.079633422
-0.85373122 0.6474511 -0.10882874
-0.8522923 0.65300387 -0.13976572
-0.84084928 0.65048587 -0.16903543
-0.86382264 0.64862204 -0.060602285
-0.85537905 0.64611483 -0.089815617
-0.85293341 0.64864635 -0.1198258
-0.85150629 0.65119958 -0.15081683
-0.86249369 0.6462931 -0.042663209
-0.85804939 0.64380032 -0.071801387
-0.86359739 0.65237761 -0.10255279
-0.85615754 0.64887422 -0.13176535
-0.86415631 0.6459747 -0.024631731
-0.85869735 0.64246041 -0.052807063
-0.86525309 0.64904165 -0.083575703
-0.86481494 0.64958072 -0.11358432
-0.86481518 0.64665258 -0.0066010281
-0.86636585 0.64518106 -0.035608441
-0.87189215 0.64972287 -0.064432584
-0.87046206 0.64825875 -0.094496042
-0.86248642 0.64432013 0.011319257
-0.86701387 0.64384115 -0.016614109
-0.88053781 0.65342891 -0.046197489
-0.87509459 0.64591527 -0.07444489
-0.86215335 0.6429947 0.029295139
-0.86867255 0.64452255 0.0014353916
-0.87918311 0.64806437 -0.026313148
-0.88372928 0.64760351 -0.055246204
-0.8638081 0.64467585 0.047362655
-0.86932063 0.64318264 0.020429723
-0.88182688 0.64773148 -0.0072632208
-0.88437045 0.64324605 -0.035306245
-0.86247128 0.64434671 0.06533777
-0.87497067 0.64587802 0.038590416
-0.88447458 0.64639872 0.011768684
-0.89198661 0.6449126 -0.01512666
-0.85616982 0.6400184 0.082147188
-0.87362301 0.64353108 0.057529159
-0.88911003 0.6480726 0.030892242
-0.89761114 0.64457232 0.004979305
-0.86081225 0.64470989 0.10032513
-0.87228614 0.64320189 0.075504266
-0.89173496 0.64772159 0.050941832
-0.90123588 0.64422494 0.02504769
-0.85649866 0.64338815 0.11722619
-0.86896145 0.63986599 0.09338773
-0.89037251 0.64435673 0.070862211
-0.89985859 0.63984209 0.045949701
-0.85217023 0.64104855 0.13510889
-0.86860573 0.63952231 0.11238129
-0.89203519 0.64403832 0.088893689
-0.90846682 0.64351201 0.066184118
-0.85283995 0.64374411 0.15217596
-0.86727285 0.63819325 0.13033839
-0.89365643 0.6446836 0.10894251
-0.91308749 0.64416796 0.086289302
-0.84653848 0.63941574 0.1689854
-0.8669132 0.63884944 0.14934996
-0.89129019 0.64231491 0.12886211
-0.90971452 0.63877815 0.10713573
-0.84818149 0.64409643 0.18710697
-0.86757213 0.63952726 0.16738068
-0.89291143 0.64296019 0.14891094
-0.91630435 0.6424228 0.12833223
-0.84286803 0.64277112 0.20398924
-0.86521673 0.63917643 0.18633667
-0.89154112 0.64159495 0.16886735
-0.9178921 0.64203197 0.15036234
-0.83556283 0.63943905 0.22079788
-0.86188418 0.63784015 0.20425616
-0.89116669 0.64123315 0.18886057
-0.91849875 0.64165568 0.17137402
-0.83621383 0.64211655 0.23886463
-0.85952491 0.63848919 0.22323015
-0.89078826 0.64187121 0.20887181
-0.91611761 0.63826919 0.19227526
-0.8289234 0.63980234 0.25469166
-0.85619235 0.63715297 0.24114966
-0.88744092 0.63951713 0.22777297
-0.91570574 0.63787121 0.21426781
-0.82163298 0.63748813 0.27051866
-0.84886837 0.63380277 0.25895798
-0.88504815 0.63913006 0.24872826
-0.91828549 0.63948363 0.23635276
-0.81631559 0.63716269 0.28741896
-0.84850085 0.63645858 0.2780056
-0.88267404 0.63876116 0.26868391
-0.92183846 0.64308125 0.25949222
-0.80902123 0.63584822 0.30326396
-0.84316868 0.63511515 0.29588753
-0.88029605 0.63939202 0.28865758
-0.91843492 0.64067292 0.28139234
-0.80866855 0.6395219 0.32132992
-0.84279728 0.63877082 0.31495315
-0.87791806 0.64002281 0.30863124
-0.91602343 0.64026773 0.30334729
-0.80137414 0.63820761 0.33717498
-0.83546942 0.63642043 0.33277953
-0.87057537 0.63665462 0.32743919
-0.91560757 0.64086962 0.32535785
-0.79607165 0.63890004 0.35309362
-0.83013332 0.63607687 0.35067946
-0.8671788 0.63726377 0.34839371
-0.90723163 0.63646173 0.34612834
-0.78580827 0.63459355 0.36782852
-0.82382005 0.63474798 0.36754289
-0.86380494 0.63689119 0.36833057
-0.90382022 0.63605309 0.36806452
-0.78050184 0.63628584 0.38376519
-0.8154884 0.63339376 0.3853685
-0.85348541 0.63253033 0.38606453
-0.90533215 0.64060712 0.39318371
-0.76925737 0.63199371 0.39748168
-0.80817538 0.63206136 0.40221316
-0.8530578 0.63613176 0.40812913
-0.89794809 0.63820243 0.41400903
-0.76095933 0.6316756 0.41332594
-0.80283535 0.63271761 0.42013115
-0.8457073 0.63476318 0.42697313
-0.88956434 0.63579422 0.43481553
-0.75565279 0.63336796 0.42926258
-0.79452246 0.63138157 0.436957
-0.8393113 0.63536149 0.44787127
-0.88118035 0.63338596 0.45562205
-0.74640018 0.63108271 0.44305271
-0.79113287 0.63500839 0.45696595
-0.83098358 0.63300759 0.46567881
-0.87771982 0.63594055 0.47961164
-0.7420482 0.63474208 0.46104351
-0.78281999 0.63367236 0.47379184
-0.82360655 0.6336205 0.48555854
-0.87031317 0.63451767 0.50145459
-0.73081857 0.63146794 0.47377837
-0.77352595 0.6323508 0.48959929
-0.81426024 0.63124478 0.50434697
-0.86192143 0.63410914 0.52229714
-0.72253925 0.63116789 0.48862296
-0.76125908 0.62903684 0.50431466
-0.80392897 0.62988347 0.5221349
-0.85351098 0.63368243 0.54413939
-0.7122789 0.63087875 0.50243032
-0.7499882 0.62672639 0.51906687
-0.79852498 0.63248521 0.5430879
-0.84410465 0.63225234 0.56594479
-0.70399958 0.6305787 0.51727492
-0.74362558 0.62836087 0.53798372
-0.7852248 0.62813169 0.55976582
-0.83373594 0.63085485 0.5857321
-0.69571233 0.63227832 0.53215551
-0.73332793 0.62803549 0.55379039
-0.77489352 0.62677038 0.57755375
-0.82334852 0.62943918 0.6065191
-0.68055141 0.62604457 0.54176217
-0.71908408 0.62373263 0.56745046
-0.76553154 0.62839401 0.59641421
-0.81000304 0.62704921 0.62523234
-0.67421854 0.62971485 0.5587157
-0.70978218 0.62441087 0.58329397
-0.75222749 0.62504041 0.61311013
-0.8005662 0.62860048 0.64809144
-0.66298103 0.62844044 0.57148659
-0.70046163 0.62507081 0.60013711
-0.74384665 0.62664956 0.63298911
-0.791152 0.62917006 0.6699329
-0.65173966 0.62816578 0.58427554
-0.69114107 0.62573087 0.61698025
-0.73053467 0.62529558 0.64972103
-0.77485245 0.62480587 0.68655443
-0.64149809 0.6278947 0.59708321
-0.67886245 0.62541646 0.63174969
-0.7182225 0.62394512 0.66647172
-0.76443052 0.62737149 0.70841306
-0.63219237 0.62957269 0.61294466
-0.66465211 0.62214959 0.6434285
-0.707838 0.62654698 0.68633115
-0.75105846 0.62696302 0.72816205
-0.62195075 0.62930161 0.62575239
-0.65432781 0.62380588 0.66027087
-0.69354498 0.62520748 0.70204461
-0.73375505 0.62359506 0.74478281
-0.60582352 0.62410033 0.63335896
-0.64107203 0.62250614 0.67400378
-0.67827868 0.6218828 0.71670359
-0.72233731 0.62515724 0.76660466
-0.59455955 0.62480748 0.64716554
-0.62877071 0.62317348 0.6897909
-0.66593599 0.62351382 0.73450804
-0.70700699 0.62377799 0.78429866
-0.5813638 0.62256217 0.65788144
-0.61358327 0.6189214 0.70043325
-0.65064311 0.62217069 0.75020278
-0.69065416 0.62337685 0.80299157
-0.56719095 0.6193316 0.66756094
-0.60129672 0.6206066 0.71523869
-0.63732719 0.62181652 0.76695269
-0.67236578 0.62102318 0.81861186
-0.55789608 0.62302721 0.68245882
-0.58703715 0.62030309 0.72897089
-0.62009484 0.61952066 0.77959281
-0.65507722 0.61867309 0.83425099
-0.54373801 0.6208145 0.69115663
-0.57475466 0.62098861 0.74375838
-0.60577124 0.62116259 0.79636008
-0.64262915 0.62321311 0.85710788
-0.5344243 0.62449211 0.7070542
-0.55954057 0.61871797 0.75543636
-0.59047437 0.62081933 0.81207275
-0.6233409 0.62085587 0.87270933
-0.51831198 0.6203087 0.71367908
-0.54527712 0.61941427 0.76918662
-0.57419646 0.62049061 0.82676703
-0.6069802 0.6224544 0.89143831
-0.50801718 0.62400079 0.72855824
-0.53103626 0.61912888 0.78191918
-0.55794132 0.61918008 0.84044367
-0.58675224 0.61914796 0.90400404
-0.49381775 0.62275177 0.73927337
-0.5158143 0.61885798 0.79363322
-0.53875053 0.61591339 0.8510288
-0.56650174 0.61682332 0.9175874
-0.47867852 0.62055355 0.74695277
-0.50056964 0.61956888 0.80636495
-0.52342319 0.61855155 0.86779529
-0.54817885 0.61845082 0.93427944
-0.46642947 0.62227505 0.75975895
-0.48339343 0.61732727 0.81600612
-0.50714141 0.61922264 0.88250756
-0.52790564 0.61710787 0.94888055
-0.45224482 0.62204391 0.76949251
-0.46912995 0.61802363 0.82975632
-0.48601112 0.61500323 0.89003819
-0.50667 0.61579752 0.96146351
-0.43996921 0.62574685 0.78333437
-0.45097259 0.61579663 0.83837903
-0.47063851 0.61960489 0.90884
-0.4854531 0.61450529 0.9730469
-0.42194381 0.61862916 0.78586894
-0.43476957 0.61554015 0.8490746
-0.44952703 0.61540359 0.91537088
-0.46710753 0.61711454 0.99075663
-0.40966818 0.62233222 0.79971075
-0.41952109 0.6172508 0.86182439
-0.43223751 0.61807066 0.9301005
-0.44395897 0.61286992 0.99924922
-0.39545694 0.62408262 0.81048
-0.39944685 0.61308932 0.86637479
-0.41112602 0.61386943 0.93663138
-0.42367396 0.61452645 1.0139045
-0.38027245 0.6238479 0.82019478
-0.38228536 0.61186564 0.87503433
-0.3919048 0.61358416 0.94827032
-0.40145332 0.61423039 1.0254869
-0.36319372 0.62069702 0.82481956
-0.36699155 0.61553979 0.88981938
-0.3736569 0.61528403 0.96096373
-0.37918738 0.61589783 1.0391048
-0.34798267 0.6224438 0.83557004
-0.34789056 0.61336339 0.89542431
-0.35249612 0.61404598 0.96954805
-0.35604963 0.61367089 1.046634
-0.33285829 0.62126356 0.84226781
-0.33070645 0.61312145 0.90510154
-0.33044097 0.60989541 0.9730612
-0.33193475 0.61045867 1.0531266
-0.31480238 0.61712724 0.84585613
-0.31156406 0.61190879 0.91272372
-0.31023473 0.61062443 0.98369968
-0.30970624 0.61216235 1.0647451
-0.29867816 0.61594337 0.85253507
-0.29439473 0.61268479 0.92141926
-0.2910057 0.61233884 0.99537462
-0.2855835 0.61094981 1.0712737
-0.2834366 0.62067163 0.86433923
-0.2752898 0.61150825 0.92704225
-0.27079552 0.61406773 1.0060312
-0.26237783 0.61166805 1.0818559
-0.2663579 0.61752069 0.86896408
-0.2570793 0.61324435 0.93773627
-0.24866851 0.61386222 1.0126154
-0.23827381 0.61047357 1.0873848
-0.25020713 0.61831832 0.87667871
-0.23701593 0.61110055 0.9413231
-0.2266508 0.60974777 1.0141293
-0.2141097 0.61022466 1.0959309
-0.23218869 0.61421824 0.87826777
-0.21786569 0.61188745 0.9489814
-0.20450112 0.61052388 1.0217311
-0.18906596 0.60808098 1.098424
-0.21505682 0.61503047 0.88496399
-0.19786634 0.60779828 0.94953316
-0.18243812 0.60837299 1.0252804
-0.1649393 0.60786819 1.1049707
-0.19792888 0.61484283 0.89164209
-0.17873876 0.60760343 0.95617372
-0.16126561 0.61013436 1.0339187
-0.13984635 0.60868788 1.1095172
-0.180797 0.615655 0.89833832
-0.1595393 0.61135364 0.9658854
-0.1391307 0.61192846 1.040539
-0.11573839 0.60849321 1.1150641
-0.16371042 0.61450374 0.90299922
-0.13951337 0.60924608 0.96747291
-0.11606396 0.6107738 1.0440874
-0.090686798 0.60834914 1.1175933
-0.14561616 0.61534846 0.90767729
-0.11942341 0.60908389 0.97209543
-0.093951724 0.61158609 1.04969
-0.064639322 0.60720181 1.1200858
-0.12854831 0.61421537 0.91133851
-0.099288151 0.61088514 0.97875321
-0.070941135 0.61048567 1.0502396
-0.039523698 0.60900325 1.1256502
-0.11039396 0.61600572 0.91903353
-0.079175547 0.61170465 0.98439348
-0.048911646 0.60937065 1.0518074
-0.014622809 0.60398668 1.1210915
-0.091495909 0.61001092 0.91456985
-0.059190996 0.6086334 0.98396361
-0.025969008 0.60532498 1.0493039
0.0094781965 0.60680962 1.125693
-0.073424302 0.60987395 0.91823018
-0.03807072 0.611449 0.98962098
-0.0038262643 0.6091187 1.0559602
0.035450794 0.60573459 1.1241868
-0.055262111 0.61366391 0.92596138
-0.018063508 0.60935944 0.99020875
0.019225694 0.60898191 1.058527
0.060404841 0.60468119 1.1216995
-0.036209419 0.61354142 0.92860335
0.0019476274 0.60826975 0.99081457
0.042285506 0.61084473 1.0611298
0.085464291 0.60653687 1.1242648
-0.018160474 0.61242276 0.93124604
0.022834459 0.60428548 0.98534966
0.065258652 0.60978049 1.05968
0.11039568 0.60450178 1.12076
-0.00012632087 0.61232203 0.9329071
0.043932088 0.60611933 0.98998934
0.088085026 0.6048435 1.0511605
0.13527092 0.60252088 1.1142563
0.018884998 0.6112358 0.9335317
0.064928241 0.60604399 0.98959476
0.11114484 0.60670632 1.0537632
0.16018754 0.60150367 1.1097698
0.03789632 0.61014974 0.93415636
0.085901752 0.60498679 0.98818249
0.13518575 0.60858363 1.0553476
0.18510413 0.60048652 1.1052834
0.056934215 0.61104518 0.93581671
0.10693928 0.60587513 0.98980528
0.15588836 0.60076296 1.0408136
0.21008477 0.60141468 1.103832
0.075904161 0.60899544 0.93442398
0.12683022 0.60289437 0.98437709
0.17995586 0.60462189 1.0434337
0.23500924 0.60239708 1.0993816
0.095941871 0.60988736 0.9360655
0.14780766 0.60283703 0.98298281
0.20178634 0.60068834 1.034951
0.25886592 0.600438 1.091897
0.11489703 0.60885549 0.93369114
0.16983022 0.60473967 0.98360515
0.22481266 0.60358709 1.0355725
0.28485817 0.60436213 1.0904808
0.1338256 0.60584205 0.9302811
0.18970244 0.60177696 0.97717726
0.24556448 0.59872973 1.0230918
0.30659109 0.59951913 1.0769818
0.15384458 0.60675204 0.93092293
0.2116836 0.60271591 0.97578228
0.26952657 0.59967959 1.0206596
0.33151948 0.60150141 1.0725496
0.17382219 0.60669839 0.92954749
0.23260094 0.60171306 0.971371
0.29249668 0.6026327 1.0182822
0.35532004 0.59959656 1.0620658
0.19386779 0.60958987 0.93122506
0.25249976 0.60073191 0.96597886
0.31542152 0.60362232 1.0138693
0.38023359 0.60259664 1.0566518
0.2127175 0.60564893 0.92379838
0.27552605 0.60363072 0.96660036
0.3362374 0.60071027 1.0044237
0.40201581 0.60071713 1.0452061
0.23274045 0.60755885 0.92445821
0.29536474 0.60170406 0.95819128
0.35808358 0.60077608 0.99601299
0.41958788 0.59303373 1.0237308
0.25370306 0.60851949 0.9220823
0.31835359 0.60463899 0.95681345
0.37992585 0.59984195 0.98758429
0.44867408 0.60187387 1.026347
0.27153429 0.60460025 0.91367471
0.33930147 0.60661769 0.95345592
0.40283591 0.6018495 0.98218983
0.47148263 0.60197216 1.0159183
0.29253832 0.60652453 0.91331619
0.35909876 0.60372722 0.94302946
0.42364091 0.60095525 0.97178066
0.49116766 0.59919035 0.99949378
0.31245974 0.60652512 0.90894175
0.37998259 0.60376042 0.93663687
0.44859585 0.60491914 0.96838391
0.51398015 0.60028857 0.98908305
0.33233982 0.60556203 0.90254992
0.39878404 0.60187346 0.92624718
0.46525484 0.60016644 0.95098025
0.53366518 0.5975067 0.97265863
0.35119745 0.60362083 0.89515918
0.42175809 0.60582638 0.92388779
0.48812744 0.60221016 0.94358635
0.55548179 0.5996083 0.96228468
0.37110409 0.60463929 0.88980311
0.43949568 0.60199767 0.91048187
0.50789517 0.60135567 0.93119669
0.5762158 0.5997861 0.94789481
0.392048 0.605618 0.88642752
0.46032333 0.60208511 0.90109032
0.52972651 0.60243928 0.92180437
0.59796846 0.59994239 0.93448579
0.41295841 0.60763282 0.88107061
0.48327866 0.60605615 0.89773118
0.5494982 0.6025846 0.90943259
0.61772519 0.60110563 0.92113239
0.43280107 0.6067059 0.87267959
0.50204265 0.60420531 0.88534224
0.57031113 0.60368991 0.89905941
0.63844448 0.60230136 0.90576088
0.45059875 0.60382271 0.86229074
0.51876569 0.60139805 0.87097353
0.58800036 0.60191518 0.88269055
0.65407407 0.59958816 0.88641268
0.47149041 0.60585546 0.85593414
0.54270601 0.60638344 0.86661398
0.60777593 0.60306025 0.87033683
0.67378956 0.59978771 0.87104189
0.49238211 0.6078884 0.84957761
0.55632025 0.59967804 0.84723127
0.62446159 0.60028917 0.85396874
0.69044554 0.59905243 0.85271055
0.50705224 0.60112512 0.833175
0.57924205 0.60468513 0.84189081
0.64215475 0.59951413 0.83761793
0.71223253 0.60318989 0.84037328
0.52894765 0.60415417 0.82681775
0.59695005 0.60289228 0.82652158
0.66295666 0.60263729 0.82628113
0.73092943 0.60341114 0.8240217
0.54673451 0.60328877 0.81546527
0.61674434 0.60401922 0.81516755
0.68066871 0.60184419 0.81092995
0.74556702 0.60270119 0.80472821
0.56758881 0.60535777 0.80710936
0.63451642 0.60417169 0.80283338
0.70043331 0.60500699 0.79761261
0.75918221 0.60101306 0.78443593
0.58741659 0.60544872 0.79773659
0.65324688 0.60335696 0.78846312
0.71812654 0.60423207 0.7812618
0.77686459 0.60225576 0.76712149
0.60618848 0.60559762 0.78538364
0.66893655 0.60158932 0.77213186
0.73484659 0.60544217 0.76596546
0.79250592 0.60254204 0.74782729
0.62291151 0.60279042 0.77101493
0.68976116 0.60569412 0.76181275
0.75050271 0.60471058 0.74765283
0.8071475 0.6028319 0.72855186
0.64579976 0.60883349 0.76369321
0.70543212 0.6039446 0.74448174
0.76514035 0.60400057 0.72835946
0.81976664 0.60214722 0.70829642
0.66150421 0.60604787 0.74834359
0.72214818 0.60415494 0.72916746
0.77981544 0.60325438 0.71106529
0.83541197 0.60343325 0.68902022
0.67616749 0.60230219 0.73099542
0.73784184 0.60338706 0.71285415
0.7924307 0.60156989 0.69079179
0.84903497 0.6037448 0.66876382
0.69799185 0.60640347 0.72065753
0.75351661 0.60263735 0.69554126
0.81115812 0.60477257 0.6754939
0.86268055 0.60503811 0.64952523
0.71368158 0.60463583 0.70432621
0.77125901 0.60482568 0.68124384
0.8247959 0.60406613 0.65621924
0.87224025 0.60341859 0.6263091
0.72937125 0.6028682 0.68799496
0.78591537 0.60409755 0.66295004
0.84046376 0.60633397 0.63796079
0.88181865 0.60178101 0.60409266
0.75219947 0.60796565 0.67765629
0.80363905 0.60630399 0.64765292
0.85410547 0.6066274 0.61870414
0.89241958 0.6011216 0.58287507
0.7668705 0.60621971 0.66034412
0.81929916 0.60657215 0.62935841
0.86470646 0.605968 0.5974865
0.90607309 0.60441452 0.56367248
0.78152299 0.60449183 0.64203233
0.83295959 0.60684752 0.61110145
0.87632591 0.60528684 0.57724983
0.91565543 0.60377675 0.54147398
0.79822415 0.60572004 0.6257363
0.84761983 0.60711926 0.59282565
0.88692677 0.60462743 0.55603218
0.93131632 0.60906214 0.5222699
0.81592524 0.60694468 0.60942149
0.86023909 0.60643458 0.57257015
0.9036023 0.60889131 0.53779095
0.93282837 0.60450804 0.49715066
0.82957786 0.60522038 0.59112859
0.87185854 0.60575342 0.55233341
0.90915489 0.60528654 0.51461393
0.94241458 0.60487014 0.47497022
0.84321564 0.604514 0.57185388
0.88450044 0.60605043 0.5330956
0.9177562 0.60463423 0.49343389
0.95304984 0.60819203 0.45482433
0.86394668 0.60870928 0.55653644
0.89611983 0.60536939 0.51285887
0.92936474 0.60597092 0.4722335
0.96263999 0.60955381 0.43266195
0.87758839 0.60900271 0.53727978
0.9067207 0.60470992 0.49164128
0.93997341 0.60731113 0.45105195
0.97022671 0.60992312 0.41051906
0.89322966 0.60928905 0.51798558
0.92237383 0.60799569 0.47240108
0.95260441 0.60962594 0.43085051
0.97276509 0.60734695 0.38641679
0.9078564 0.61059672 0.49772853
0.93397844 0.60833251 0.45118272
0.96119088 0.60999161 0.40868887
0.98841524 0.61465019 0.36624902
0.92047954 0.61091191 0.47749105
0.9486317 0.6116218 0.43196136
0.97180361 0.61233157 0.38752529
0.98695022 0.61108857 0.34220389
0.93105787 0.60927075 0.45525575
0.96024036 0.61295849 0.41076103
0.9793902 0.61270088 0.36538246
0.98748904 0.60851961 0.31813914
0.94165868 0.60861135 0.43403816
0.96680057 0.6113497 0.38760123
0.98495454 0.61209553 0.34225947
1.0001171 0.61485183 0.29701012
0.96131897 0.61388242 0.41475889
0.97841305 0.6136862 0.3664189
0.99052274 0.61249006 0.31915456
0.9996559 0.61228645 0.27296421
0.96987885 0.61226642 0.39156154
0.99202913 0.6170153 0.34521702
0.9950875 0.61188835 0.29605034
1.0032471 0.61366987 0.25091451
0.98551321 0.61557031 0.37132171
0.99154139 0.61246836 0.32013538
1.009715 0.61821336 0.27488372
1.0088232 0.61606407 0.22784559
0.99405837 0.61497229 0.34714273
1.0031351 0.61482292 0.29795343
1.0112574 0.61664069 0.25081825
0.81032991 0.48577034 0.17518719
1.0046257 0.61534888 0.32394382
1.0096844 0.61523199 0.27383
1.0168295 0.61803502 0.22773132
0.62104559 0.36126244 0.13246441
1.0111673 0.61375821 0.29978439
1.0172563 0.61661917 0.25070548
0.83341026 0.49764961 0.17697056
0.60470968 0.35161096 0.11659029
1.0197163 0.61416006 0.27562338
1.0187949 0.61404657 0.22662199
0.60191524 0.34640554 0.1285525
0.58135152 0.33598563 0.1007396
1.0302874 0.61553645 0.25244254
0.87858987 0.52139354 0.18155572
0.58757901 0.3367469 0.11264081
-0.02611593 -0.059798401 0.050936799
1.0358144 0.61496729 0.22732022
0.61895442 0.35232541 0.12934083
0.5833019 0.33301517 0.098648638
0.57784259 0.33548501 0.073787093
1.0162081 0.59856302 0.19838077
0.60158825 0.33969611 0.11243179
-0.02611593 -0.059798401 0.050936799
0.58862466 0.34267947 0.060710941
0.64801109 0.36320135 0.12999377
0.59025931 0.33202642 0.096499763
0.57274806 0.32555893 0.070701882
0.5773558 0.33595532 0.047795907
0.60853773 0.33670771 0.11024688
0.5849784 0.32729843 0.08250837
0.56348276 0.31982738 0.057767294
0.56710947 0.33020929 0.035879772
0.61125636 0.3369683 0.095195591
0.58168632 0.32458106 0.067515768
0.56526166 0.32103711 0.045751795
0.57088095 0.33442938 0.022881089
0.5959124 0.32531357 0.079266652
0.58043927 0.32381994 0.054520946
0.5700143 0.32527176 0.031734664
0.56863403 0.33367193 0.0099050552
0.59963864 0.3275702 0.06423261
0.58019191 0.32305527 0.041507334
0.56075299 0.32054004 0.018818093
0.5743944 0.33990261 -0.0040948279
0.60237592 0.32781267 0.050180983
0.58191854 0.32531911 0.026510874
0.57452363 0.32974154 0.0047219358
0.60116839 0.36009175 -0.02023638
0.60812461 0.33104393 0.036127035
0.58165252 0.32457253 0.012497596
0.5742842 0.33097649 -0.0082556419
0.59491438 0.35734895 -0.033173285
0.59781808 0.32435229 0.021193899
0.5944007 0.33279583 -0.0025974475
0.58902508 0.3422102 -0.024333872
0.59666759 0.36159432 -0.047134049
0.59252238 0.32064226 0.006220866
0.59614599 0.33504155 -0.016594246
0.59476274 0.34745917 -0.039351445
0.58642113 0.35584831 -0.059050184
0.5992521 0.32388794 -0.0088515319
0.6038686 0.34130126 -0.032631036
0.6005004 0.3527081 -0.054369014
0.60516232 0.37208492 -0.076113157
0.6259582 0.3411319 -0.028046124
0.62059045 0.35254589 -0.049746513
0.62222224 0.36895204 -0.07248801
0.76064831 0.48239273 -0.12604585
0.63267303 0.34539548 -0.044100165
0.69324142 0.40078226 -0.078243837
0.75974238 0.46323672 -0.11737245
0.76132685 0.48671401 -0.14398646
0.75026816 0.41961062 -0.080971874
0.75783664 0.44408432 -0.10868026
0.76140201 0.46757251 -0.13633151
0.76499784 0.49404213 -0.16292906
0.74891257 0.41995788 -0.09994664
0.75849253 0.44742396 -0.12763855
0.76406538 0.47290462 -0.15529135
0.8085469 0.52943903 -0.19411466
0.76353717 0.43030035 -0.12204087
0.76412183 0.45378122 -0.14863609
0.76771373 0.479251 -0.17525163
0.92881495 0.62102044 -0.25172934
0.76615524 0.43366891 -0.14303605
0.76874727 0.4591423 -0.16963282
0.77234715 0.48661175 -0.19621234
0.21102911 0.11074756 -0.029445432
0.76677364 0.43704468 -0.16399369
0.76539606 0.46049657 -0.18855199
0.22299734 0.11274034 -0.0316342
0.20694709 0.10883461 -0.033404946
0.76740688 0.43940252 -0.18396966
0.76503736 0.4648577 -0.20847316
0.20694226 0.10281754 -0.032513402
-0.02611593 -0.059798401 0.050936799
0.77001405 0.4447889 -0.20592847
0.20893706 0.096793309 -0.031659428
0.19090591 0.092876658 -0.032392941
0.17589687 0.089931026 -0.03216514
0.21789403 0.095797338 -0.033845883
0.19787805 0.090869971 -0.033560164
-0.02611593 -0.059798401 0.050936799
-0.02611593 -0.059798401 0.050936799
0.19287713 0.08085344 -0.031647079
-0.02611593 -0.059798401 0.050936799
0.16484784 0.076972708 -0.032192681
0.15086126 0.075005203 -0.030965988
-0.02611593 -0.059798401 0.050936799
0.16484298 0.070955619 -0.031301126
-0.02611593 -0.059798401 0.050936799
-0.02611593 -0.059798401 0.050936799
0.16481942 0.06495665 -0.031409238
-0.02611593 -0.059798401 0.050936799
0.14480437 0.065046519 -0.032033093
0.1348062 0.065082408 -0.03184519
-0.02611593 -0.059798401 0.050936799
0.14478081 0.059047546 -0.032141205
-0.02611593 -0.059798401 0.050936799
-0.02611593 -0.059798401 0.050936799
0.14375742 0.053052157 -0.032230522
-0.02611593 -0.059798401 0.050936799
0.12674965 0.055130914 -0.0328747
0.11975879 0.057155687 -0.032707129
-0.02611593 -0.059798401 0.050936799
0.12572627 0.049135525 -0.032964021
-0.02611593 -0.059798401 0.050936799
-0.02611593 -0.059798401 0.050936799
0.12273678 0.042111304 -0.031034458
-0.02611593 -0.059798401 0.050936799
0.112706 0.048200436 -0.033737428
0.10276007 0.047182228 -0.030568555
-0.02611593 -0.059798401 0.050936799
0.10971257 0.04017638 -0.031825889
-0.02611593 -0.059798401 0.050936799
-0.02611593 -0.059798401 0.050936799
0.10471951 0.032159511 -0.029876754
-0.02611593 -0.059798401 0.050936799
0.096725821 0.038205292 -0.030617978
0.095708199 0.043244209 -0.032508414
-0.02611593 -0.059798401 0.050936799
0.097672477 0.034238562 -0.032708164
-0.02611593 -0.059798401 0.050936799
-0.02611593 -0.059798401 0.050936799
0.0916944 0.025207359 -0.02975861
-0.02611593 -0.059798401 0.050936799
0.085685544 0.032263879 -0.031519059
0.081716776 0.035259634 -0.030390177
-0.02611593 -0.059798401 0.050936799
0.087635957 0.029293386 -0.033610016
-0.02611593 -0.059798401 0.050936799
-0.02611593 -0.059798401 0.050936799
0.078688011 0.01823712 -0.028640799
-0.02611593 -0.059798401 0.050936799
0.074682713 0.026286289 -0.03042081
0.070713945 0.029282041 -0.029291935
-0.02611593 -0.059798401 0.050936799
0.074648283 0.022305056 -0.03149255
-0.02611593 -0.059798401 0.050936799
-0.02611593 -0.059798401 0.050936799
0.068670198 0.013273854 -0.028542988
-0.02611593 -0.059798401 0.050936799
0.068638511 0.02434434 -0.032343425
0.065669566 0.02733651 -0.031233341
-0.02611593 -0.059798401 0.050936799
0.063645452 0.016327469 -0.030394297
-0.02611593 -0.059798401 0.050936799
-0.02611593 -0.059798401 0.050936799
0.062611207 0.012349824 -0.031447247
-0.02611593 -0.059798401 0.050936799
0.057654403 0.018348664 -0.030245516
0.05765532 0.023365898 -0.031155091
-0.02611593 -0.059798401 0.050936799
0.054646187 0.011342526 -0.029315617
-0.02611593 -0.059798401 0.050936799
-0.02611593 -0.059798401 0.050936799
0.050660796 0.0053217276 -0.027349249
-0.02611593 -0.059798401 0.050936799
