# .PCD v0.7 - Point Cloud Data file format
VERSION 0.7
FIELDS x y z
SIZE 4 4 4
TYPE F F F
COUNT 1 1 1
WIDTH 1396
HEIGHT 1
VIEWPOINT 0 0 0 1 0 0 0
POINTS 1396
DATA ascii
-0.02611593 -0.059798401 0.050936799
-0.21710582 0.072344676 -0.025122806
-0.02611593 -0.059798401 0.050936799
-0.97020817 0.56697267 -0.22414285
-0.26206645 0.099573955 -0.027789377
-0.02611593 -0.059798401 0.050936799
-0.2071273 0.067309655 -0.025400802
-1.0289663 0.60208809 -0.21740526
-0.02611593 -0.059798401 0.050936799
-0.2480669 0.09048906 -0.026215285
-0.02611593 -0.059798401 0.050936799
-1.1057302 0.64932024 -0.21311219
-0.98311818 0.57496375 -0.22075543
-0.02611593 -0.059798401 0.050936799
-0.2340861 0.081422254 -0.025640853
-1.1112945 0.64992559 -0.18998921
-1.0599234 0.62123233 -0.21847972
-0.95027775 0.55492109 -0.22573456
-0.02611593 -0.059798401 0.050936799
-1.1188358 0.65151978 -0.165811
-1.117596 0.65425396 -0.20679866
-0.9789592 0.56776971 -0.21096013
-0.26198459 0.096484028 -0.022845123
-1.1273918 0.65413553 -0.14259562
-1.1281515 0.65687686 -0.18354568
-1.0156344 0.58666414 -0.19692692
-0.02611593 -0.059798401 0.050936799
-1.1229441 0.64866978 -0.11776936
-1.1276993 0.65242529 -0.15862623
-1.0903809 0.6288538 -0.19076219
-0.97180563 0.55454785 -0.20032963
-1.1304963 0.65228182 -0.094554752
-1.1372362 0.65502656 -0.13439241
-1.1390038 0.65577185 -0.17535971
-0.98041475 0.55320042 -0.17918566
-1.1290404 0.64882654 -0.069636062
-1.1447816 0.65562093 -0.11023219
-1.1445384 0.65434128 -0.15027347
-0.9990319 0.5589239 -0.15972695
-1.1295944 0.64739609 -0.045643419
-1.1403152 0.65013713 -0.084406257
-1.1570749 0.65695328 -0.12598327
-1.0226326 0.56866461 -0.14010224
-1.1301451 0.6469655 -0.021632768
-1.1418545 0.64769244 -0.059413187
-1.163587 0.65650809 -0.099860549
-1.0922872 0.60572869 -0.12812358
-1.1346831 0.64954883 0.0025071055
-1.1483961 0.64928305 -0.035253748
-1.1611202 0.65103143 -0.073997036
-1.1438533 0.63260323 -0.10966576
-1.1392249 0.65113229 0.026628967
-1.1489317 0.6478346 -0.010261461
-1.168628 0.65158963 -0.047837496
-1.178387 0.64934605 -0.087708876
-1.1298007 0.64466685 0.050343599
-1.1524591 0.64839655 0.01482325
-1.1751547 0.65216237 -0.022696421
-1.1888756 0.64989698 -0.060493313
-1.1343349 0.64825004 0.0745015
-1.1519949 0.64694452 0.039796755
-1.1756569 0.64967787 0.0042771846
-1.198383 0.65046233 -0.034296207
-1.1289167 0.64481652 0.097345687
-1.1515307 0.64549243 0.064770266
-1.1781735 0.64821857 0.030306727
-1.2108593 0.65401989 -0.0069890097
-1.1294783 0.64640379 0.12039272
-1.1540771 0.64606893 0.088836521
-1.1796902 0.64675558 0.056317471
-1.2143384 0.65252793 0.021058649
-1.1250376 0.64395559 0.14427339
-1.1526167 0.64361346 0.11377323
-1.1822029 0.64629602 0.082365029
-1.2178173 0.65103596 0.0491063
-1.1216073 0.64352876 0.16720921
-1.1531447 0.64416462 0.13880156
-1.1857115 0.64683992 0.1084494
-1.2232921 0.65055096 0.077209555
-1.1171627 0.64208043 0.19110791
-1.1526728 0.64471227 0.1638111
-1.1882201 0.64738011 0.13451497
-1.2198027 0.64605254 0.10407195
-1.1157284 0.64266062 0.21409933
-1.1522048 0.64426005 0.18880263
-1.1827313 0.64287448 0.1613398
-1.2272505 0.64755625 0.13324848
-1.1102986 0.64222664 0.23699759
-1.1457682 0.64080489 0.21262771
-1.188213 0.64540708 0.18849745
-1.2326986 0.64905292 0.16238743
-1.1068498 0.64178169 0.2609331
-1.1462734 0.64233774 0.23867372
-1.1857117 0.64391172 0.21543269
-1.2291867 0.64553618 0.19026753
-1.1014241 0.6403479 0.28381333
-1.1378373 0.63887548 0.26246122
-1.183233 0.64143455 0.24135028
-1.2306434 0.64501882 0.21929528
-1.0950131 0.63992846 0.30569315
-1.1363653 0.6394195 0.28745195
-1.1837008 0.64293134 0.26939559
-1.2320814 0.64448327 0.2493227
-1.0895835 0.63949442 0.32859141
-1.1348937 0.63996351 0.31244272
-1.1811956 0.64243573 0.29634887
-1.2285427 0.64294809 0.27823848
-1.081177 0.63806796 0.35041559
-1.135391 0.64349604 0.33852479
-1.1767133 0.64095116 0.32224691
-1.2299768 0.64341247 0.30828393
-1.0747703 0.63664865 0.37227735
-1.1199905 0.6360274 0.36110899
-1.1751854 0.64144099 0.35023659
-1.2224696 0.6388815 0.33607081
-1.0653638 0.6352185 0.39408275
-1.117515 0.63756764 0.38609898
-1.1696848 0.63993478 0.37711549
-1.2238809 0.64032757 0.36713389
-1.0579532 0.63479549 0.41594377
-1.108075 0.6351015 0.4098857
-1.1612114 0.63643634 0.40290231
-1.2104013 0.63379353 0.39377236
-1.0535154 0.63636476 0.43889689
-1.098654 0.63265347 0.43267274
-1.1596754 0.63892567 0.43092805
-1.2187545 0.64022774 0.42705643
-1.0411364 0.63294226 0.45961022
-1.0912061 0.63219422 0.45653307
-1.151198 0.63642704 0.45673293
-1.2032939 0.63370454 0.45265764
-1.0366946 0.63551134 0.48258132
-1.084735 0.63272029 0.48142987
-1.1426978 0.63491011 0.48355544
-1.2086327 0.63911009 0.48686698
-1.0233531 0.6321215 0.50127649
-1.0723186 0.62926173 0.50414252
-1.1352124 0.63441461 0.50941509
-1.1921724 0.63258332 0.51244938
-1.0198885 0.63567597 0.52528405
-1.0658664 0.62980592 0.52803963
-1.1257124 0.6328941 0.53621876
-1.1895617 0.63499683 0.54445505
-1.0075241 0.63327152 0.54501581
-1.0564187 0.62933946 0.55186248
-1.1152501 0.63140607 0.5610044
-1.1790472 0.63245475 0.57222164
-0.99811 0.63384104 0.56685728
-1.0449939 0.62788415 0.5746299
-1.108723 0.63187796 0.58890021
-1.1774138 0.63585353 0.60526371
-0.98476452 0.63145101 0.58557045
-1.039515 0.63041341 0.59958154
-1.1002151 0.6323607 0.61575872
-1.1569997 0.62734908 0.62873566
-0.97535038 0.63202059 0.60741198
-1.0271132 0.62797272 0.6213125
-1.0887341 0.63085103 0.64152521
-1.1592935 0.63470715 0.66492391
-0.96300071 0.63063395 0.62616199
-1.0156658 0.6274991 0.64509779
-1.0762724 0.62935591 0.66627324
-1.1378758 0.62719893 0.68839508
-0.94865537 0.62824035 0.64485645
-1.005233 0.62804699 0.66792011
-1.0657647 0.62983143 0.69309419
-1.1381927 0.63356817 0.72352815
-0.93826008 0.62882441 0.66567945
-0.99380058 0.62859124 0.6907236
-1.0483716 0.62537318 0.71469522
-1.1147937 0.6260708 0.74596202
-0.92688769 0.62842315 0.68546599
-0.98334908 0.62912112 0.71454561
-1.0427951 0.6288119 0.74466318
-1.1150656 0.63440353 0.78313041
-0.91253453 0.62802923 0.70419645
-0.9679665 0.62668771 0.73522049
-1.0293295 0.62831295 0.76941037
-1.081823 0.62099785 0.7982707
-0.900181 0.62764245 0.72296453
-0.95257998 0.62525421 0.75591356
-1.0128869 0.62682158 0.79308361
-1.0860075 0.63227212 0.83956695
-0.8887859 0.628223 0.74376869
-0.9352392 0.62185001 0.77453363
-0.99646711 0.62434846 0.81573915
-1.0557113 0.6228404 0.85683501
-0.86756599 0.6229133 0.75627965
-0.92180699 0.62238711 0.79729956
-0.98197895 0.62482768 0.84148526
-1.0461019 0.6252287 0.88870907
-0.85812128 0.62646425 0.7791748
-0.90839356 0.62294239 0.81906587
-0.96555525 0.62335443 0.86415881
-1.0236871 0.62173426 0.91123384
-0.83888233 0.6211437 0.79272294
-0.8939842 0.62249422 0.84079528
-0.94813162 0.62187755 0.88681352
-1.0150137 0.62607163 0.94616175
-0.82650214 0.62273854 0.8125267
-0.87759399 0.6220569 0.86148763
-0.93166256 0.62236774 0.91152245
-0.98670918 0.61864668 0.96350342
-0.81019074 0.62137377 0.82920229
-0.86122245 0.6216377 0.88118017
-0.91325796 0.62090534 0.93315876
-0.97605097 0.62399477 0.99741209
-0.80269653 0.62789518 0.85418844
-0.84387374 0.62023312 0.89983624
-0.89580774 0.62141001 0.95684916
-0.94383007 0.6146282 1.0106438
-0.77660948 0.61767697 0.86051732
-0.8274796 0.62079567 0.92054647
-0.87542218 0.61995852 0.97744823
-0.93217188 0.61997265 1.0445337
-0.76811141 0.62519467 0.8855027
-0.81008559 0.62135458 0.94123793
-0.85504049 0.61750722 0.99802935
-0.90385967 0.61454743 1.0619113
-0.74984169 0.62285906 0.9001233
-0.78784323 0.61702311 0.95474768
-0.83658659 0.61900818 1.021719
-0.89117908 0.62086999 1.0968002
-0.73254919 0.62150884 0.91578037
-0.77048671 0.6176182 0.97343987
-0.81521988 0.61757118 1.0412996
-0.85801446 0.61155409 1.1070142
-0.71327579 0.62016952 0.93040025
-0.75600547 0.62111503 0.99824041
-0.79385322 0.61613417 1.0608802
-0.84433019 0.618873 1.1419022
-0.69502091 0.61885178 0.94403929
-0.7327593 0.61777973 1.0117495
-0.77248263 0.61569709 1.0804788
-0.81310123 0.61150974 1.1551888
-0.6816144 0.62242454 0.96485996
-0.71440291 0.61837131 1.0304228
-0.75108933 0.61624157 1.1010952
-0.79547769 0.6178686 1.1869847
-0.66235965 0.62110329 0.97848022
-0.69309247 0.6169886 1.0470045
-0.72676456 0.61383021 1.118602
-0.76328641 0.61053789 1.1982533
-0.64214647 0.61881483 0.99006426
-0.67180061 0.61562395 1.0625863
-0.70439023 0.61438936 1.1381999
-0.73693937 0.60910106 1.2167401
-0.62189198 0.61748993 1.0036658
-0.65146339 0.61622643 1.0802225
-0.68106139 0.61298132 1.1557436
-0.70861536 0.60667539 1.234172
-0.60070169 0.61421609 1.0142133
-0.63016766 0.61586165 1.0958225
-0.65672874 0.61256963 1.1732864
-0.68414378 0.60813659 1.2587485
-0.58340132 0.61486548 1.0299065
-0.60691369 0.61452603 1.1093674
-0.62660801 0.6063183 1.1806118
-0.65391767 0.60479432 1.2711264
-0.5670101 0.61944544 1.0496892
-0.58464074 0.61317587 1.1239309
-0.60899931 0.61369514 1.2114261
-0.62752527 0.60532099 1.2916486
-0.54581583 0.61717147 1.0602548
-0.56138295 0.61284006 1.1374941
-0.57699913 0.60554552 1.2126801
-0.60017455 0.60488039 1.3101349
-0.52553481 0.61782813 1.0748918
-0.53910607 0.61248982 1.1520755
-0.55457944 0.60806799 1.2343131
-0.57088023 0.60448688 1.3255845
-0.50529498 0.61752123 1.0875117
-0.51682532 0.61313939 1.1666751
-0.5244509 0.60381633 1.2416748
-0.54154855 0.60405719 1.3430334
-0.48311967 0.61526173 1.0970589
-0.49165446 0.6098693 1.1761478
-0.50294048 0.61026943 1.2673975
-0.51125449 0.60366017 1.3584644
-0.46287599 0.61595464 1.1096966
-0.46930972 0.61246419 1.1937824
-0.47287589 0.60407239 1.2717239
-0.48006213 0.60135019 1.3688422
-0.44067803 0.61467683 1.1202615
-0.44409353 0.61115754 1.2052906
-0.44847143 0.6076057 1.2923379
-0.44786987 0.59903669 1.3792009
-0.41847607 0.6143989 1.1308444
-0.41797903 0.60793811 1.2117457
-0.41648212 0.60147375 1.2926282
-0.41857165 0.59964299 1.3946687
-0.39633816 0.61217552 1.1383923
-0.39277762 0.60764939 1.2222722
-0.39205495 0.6059888 1.3142596
-0.38541314 0.59836197 1.4030274
-0.3740949 0.61286134 1.1509925
-0.36853471 0.60832798 1.2348348
-0.36287698 0.60470402 1.3236934
-0.35511512 0.59896469 1.4184765
-0.35095322 0.61163419 1.1585395
-0.34331068 0.60902101 1.246379
-0.33463478 0.6053682 1.3361809
-0.32293376 0.59866893 1.4278717
-0.32877395 0.61037451 1.1681048
-0.31712821 0.60874677 1.255887
-0.30451703 0.60313427 1.3425789
-0.29066965 0.60030055 1.4413018
-0.30745861 0.61500889 1.1837949
-0.29186282 0.61040354 1.2694486
-0.27622956 0.60576195 1.3571017
-0.25852963 0.59904116 1.4486798
-0.28238139 0.61182922 1.1882694
-0.26478198 0.60821646 1.2739035
-0.24525487 0.6006515 1.356429
-0.22442746 0.59781075 1.4540207
-0.25921708 0.61158389 1.1968341
-0.23770118 0.60602945 1.2783583
-0.21786179 0.60619175 1.3760231
-0.1913251 0.59658396 1.4593807
-0.23507169 0.61135304 1.2043805
-0.21151477 0.60675514 1.2878845
-0.18504904 0.59821939 1.3672614
-0.1581587 0.5973025 1.4677755
-0.21190344 0.61210752 1.2129632
-0.18351689 0.60263729 1.288286
-0.15667488 0.60377419 1.3858371
-0.12413533 0.59514469 1.4690999
-0.18679962 0.6109094 1.2184733
-0.15716109 0.60821724 1.3058995
-0.12477526 0.59873259 1.381147
-0.091010295 0.59489965 1.4754776
-0.16267687 0.60969681 1.2250021
-0.12905386 0.60800821 1.3113713
-0.095438704 0.60432005 1.3977044
-0.056983005 0.59374166 1.4768199
-0.13752775 0.61046225 1.2325476
-0.1002591 0.60006827 1.3016852
-0.06368193 0.59640551 1.3859628
-0.022955712 0.5925836 1.4781623
-0.11250274 0.60833669 1.2340412
-0.073004931 0.60373557 1.3142455
-0.033322915 0.60297096 1.403519
0.010056973 0.5924471 1.4785419
-0.087417617 0.60715669 1.2385516
-0.04487507 0.60450834 1.320735
-0.0024605636 0.59796911 1.3968484
0.044028103 0.59134328 1.4768853
-0.062305927 0.60795826 1.2440977
-0.017030887 0.59953529 1.3131212
0.027718164 0.60169798 1.4053538
0.077999234 0.59023952 1.4752288
-0.036175698 0.60873806 1.2506249
0.010163181 0.60225701 1.3226645
0.058561787 0.5967142 1.3976835
0.11197035 0.58913577 1.4735723
-0.010128215 0.60759073 1.2531174
0.038048729 0.59824765 1.317068
0.090698779 0.59947228 1.404134
-0.02611593 -0.059798401 0.050936799
0.014900727 0.60646504 1.2546289
0.068328932 0.60388571 1.3306077
0.099385761 0.49720612 1.1940502
0.18233383 0.59855723 1.490431
0.040952139 0.60631746 1.2571394
0.092361003 0.57863247 1.2836851
0.15366852 0.59926426 1.4019505
0.2139221 0.59080553 1.4696923
0.066962183 0.60520619 1.2576324
0.11796123 0.56888461 1.2640227
0.18237361 0.59241462 1.387284
0.24785972 0.59073782 1.4660544
0.087757431 0.57216412 1.1996257
0.15316267 0.59870809 1.3219227
0.21655947 0.59812874 1.3957504
0.28398901 0.59649903 1.4714841
0.12002736 0.60494357 1.2606351
0.18209727 0.59765846 1.3183608
0.24530984 0.59324259 1.3831195
0.31570533 0.59263813 1.4568155
0.14714655 0.60773766 1.2661798
0.21219718 0.60045987 1.3228495
0.27947697 0.59897488 1.3905858
0.34746301 0.58974081 1.4441642
0.17299502 0.60377169 1.2586216
0.23786144 0.59265733 1.3062222
0.30821258 0.5951066 1.3769734
0.38453206 0.59455293 1.446558
0.20107263 0.60559851 1.26213
0.27007031 0.59936041 1.3157437
0.34227428 0.59792984 1.3793875
0.41416994 0.58977169 1.4279103
0.22798496 0.60357428 1.257588
0.29786226 0.59544152 1.3051488
0.37099114 0.59407967 1.3647753
0.44705549 0.59076166 1.4213103
0.25498003 0.60347742 1.2570807
0.32790598 0.59829706 1.3066385
0.40295964 0.59700042 1.3622286
0.47671995 0.58796203 1.4036982
0.28296009 0.60439479 1.2555729
0.35576585 0.59732342 1.2990967
0.43065798 0.59317201 1.3466356
0.51267284 0.5918864 1.4000947
0.30989504 0.60335237 1.2520487
0.38570815 0.59826982 1.295552
0.46362624 0.59608924 1.3440702
-0.02611593 -0.059798401 0.050936799
0.33679259 0.60234606 1.246525
0.41350794 0.59635061 1.2849932
0.49024594 0.59133685 1.3244792
0.573107 0.58919257 1.3699044
0.36260751 0.59941602 1.2369853
0.44341275 0.59733319 1.2794492
0.39613798 0.44401503 1.0284759
0.5996744 0.58549434 1.3473324
0.39265129 0.60227168 1.2384751
0.46913016 0.59349382 1.2648933
0.5519616 0.59338534 1.3083553
0.63246638 0.58657467 1.3357341
0.42057127 0.6022436 1.2339503
0.4003408 0.47190544 1.0339036
0.57756674 0.58965451 1.2878014
0.66634876 0.59157842 1.3281877
0.44637144 0.60033149 1.2234292
0.5258202 0.5935787 1.2478278
0.61258382 0.59552789 1.2872518
0.69395733 0.58884025 1.3076143
0.40594241 0.51044673 1.0585042
0.55362391 0.59265918 1.2372869
0.63614792 0.59084052 1.2647183
0.72161126 0.58806551 1.2890762
0.47700417 0.56941599 1.1562736
0.58868241 0.59949625 1.2387547
0.67213136 0.59774625 1.2621686
0.75439239 0.59116364 1.2765143
0.52900052 0.60037726 1.202876
0.61128414 0.59477633 1.2182393
0.69465423 0.59209889 1.2376364
0.77894533 0.58849049 1.2529982
0.55682296 0.59943974 1.1933348
0.64527887 0.5996716 1.2166908
0.72959656 0.59804463 1.2330883
0.80349845 0.58581728 1.2294823
0.57635325 0.59078556 1.1698047
0.66682065 0.5940097 1.193177
0.74801874 0.59050244 1.2035968
0.83111882 0.58607858 1.2089627
0.6114946 0.59954989 1.1753069
0.69975936 0.59896272 1.1886485
0.78294617 0.59746605 1.1980671
0.85982186 0.58826357 1.1924595
0.63409239 0.59383017 1.1547735
0.71927881 0.59232628 1.1641546
0.80134964 0.58994192 1.1675761
0.88336021 0.58661193 1.1679804
0.66815501 0.60167068 1.1562781
0.75424379 0.59925377 1.1606241
0.83421344 0.59496737 1.1590488
0.90796244 0.58690208 1.1465179
0.69698513 0.6027292 1.1467543
0.77372587 0.59265345 1.134131
0.85266215 0.58940667 1.1305931
0.9376505 0.59010142 1.1290139
0.72373289 0.60186762 1.1332333
0.80971718 0.60155898 1.1316173
0.89164197 0.60031909 1.1270596
0.95202506 0.58462745 1.0966349
0.74531603 0.5971694 1.1117369
0.82511717 0.59304571 1.1011647
0.90294135 0.58991104 1.0916476
0.98375797 0.58978313 1.0811287
0.78029966 0.60407871 1.1092062
0.86106712 0.60098755 1.0966337
0.93981618 0.59792161 1.0830992
0.99915504 0.58528727 1.0497485
0.79573721 0.59552932 1.0807527
0.87853479 0.59541237 1.0691966
0.95420951 0.59242958 1.0517198
1.0308732 0.59146082 1.0332607
0.83170187 0.60245323 1.0772035
0.91340607 0.60243028 1.0606676
0.98700231 0.59852713 1.0392119
1.0442518 0.58699024 1.0009184
0.84712064 0.5939219 1.0477505
0.92270178 0.59102952 1.0252755
1.0014143 0.59301704 1.0088321
1.0790336 0.5950985 0.98740929
0.88202941 0.60090357 1.0412209
0.96268541 0.60293823 1.0217412
1.0321288 0.59819436 0.99234515
1.0853081 0.587744 0.95014614
0.89955717 0.59627402 1.0168008
0.97507125 0.59545362 0.99036312
1.0445263 0.59370929 0.96102124
1.1149892 0.59396094 0.93169659
0.9303385 0.59937936 1.0042764
1.0098864 0.60252583 0.9788354
1.077263 0.59986115 0.94551444
1.1233274 0.58854467 0.89743096
0.9478249 0.59378606 0.97783887
1.0182089 0.59311026 0.94449759
1.0855974 0.593445 0.91123068
1.1428181 0.5889613 0.87006426
0.9857223 0.6027748 0.97028941
1.0570912 0.60311329 0.9359476
1.116297 0.59964037 0.89376205
1.1613318 0.59036326 0.84373403
1.0001677 0.5962286 0.9418909
1.0633767 0.59374106 0.89964813
1.1236314 0.5932278 0.85949713
1.1798267 0.59178329 0.81640428
1.0349832 0.60330081 0.93036312
1.0971586 0.60185289 0.88615775
1.1583984 0.60235393 0.84500635
1.1942772 0.59125423 0.7871142
1.0473688 0.59581625 0.89898515
1.1054888 0.59443694 0.85185605
1.1616695 0.59401041 0.80778158
1.2097726 0.59268504 0.75984073
1.0781019 0.60097551 0.88349783
1.1260357 0.5947957 0.82746959
1.1933579 0.60221976 0.78933048
1.2242042 0.59217405 0.72955102
1.0915327 0.59545088 0.85413647
1.1465825 0.59515446 0.80308312
1.195652 0.59486157 0.75314218
1.2386812 0.59362656 0.70129669
1.1232282 0.60064268 0.83663106
1.1661108 0.59553492 0.77771574
1.227322 0.60308909 0.73369145
1.2531354 0.59409732 0.67202467
1.1346409 0.59514326 0.80630755
1.1815757 0.59398437 0.74938858
1.2296386 0.59671259 0.69852084
1.265594 0.59557509 0.6428082
1.1622543 0.59842217 0.78484267
1.2041301 0.59633553 0.72500056
1.2592673 0.60398364 0.67709035
1.2790526 0.59704924 0.61357296
1.1797603 0.59782803 0.75849515
1.2226437 0.59773755 0.69867039
1.2585618 0.59663624 0.64095843
1.2904886 0.59754884 0.58335763
1.1972209 0.59527045 0.73011243
1.2350866 0.59521604 0.66938186
1.2740386 0.59808505 0.61268526
1.3039509 0.60002285 0.55414039
1.2167306 0.59566903 0.70374537
1.2576261 0.59858519 0.64401227
1.2864707 0.59758127 0.58243316
1.3103428 0.5985769 0.52198374
1.2443106 0.59998387 0.6802991
1.2751025 0.60002691 0.6157015
1.2948807 0.59611005 0.55123854
1.3217828 0.60007632 0.49178642
1.2577533 0.59745872 0.6509918
1.2845085 0.5975523 0.58447003
1.3083431 0.59858412 0.52202129
1.3312271 0.60258275 0.46164471
1.2762254 0.59789699 0.62264431
1.3029886 0.59999025 0.5561586
1.3238051 0.60105091 0.49276653
1.3336157 0.60015136 0.4295451
1.300746 0.60127705 0.59623742
1.320469 0.60243177 0.52786589
1.3332375 0.6005578 0.46257079
1.3410378 0.6016832 0.39842334
1.3151776 0.60076606 0.56594771
1.3308786 0.60095346 0.49663362
1.3487076 0.60502434 0.43335202
1.3484786 0.60319704 0.36830121
1.3316314 0.60122967 0.53663808
1.3443183 0.60244566 0.46639872
1.3500736 0.60161471 0.40025353
1.3528973 0.60373986 0.33721775
1.3490704 0.60270756 0.50632805
1.3537096 0.60098898 0.43418565
1.3574916 0.6021468 0.36911368
1.350264 0.60034466 0.30419445
1.3634833 0.60221469 0.47503868
1.3661494 0.60248482 0.40396956
1.3719429 0.60663497 0.3389141
1.1155069 0.48750287 0.23452491
1.3768817 0.60274327 0.44278646
1.3825964 0.60596597 0.37371436
1.3582506 0.59731644 0.30399007
1.1290747 0.49288583 0.21036008
1.3933208 0.60422474 0.4124952
1.3950027 0.6084978 0.34151697
1.1285006 0.48645636 0.23426262
-0.02611593 -0.059798401 0.050936799
1.4046969 0.60377884 0.37926286
1.352126 0.58441252 0.29986992
1.133013 0.48690873 0.20817748
0.72764057 0.30103332 0.12137541
1.4130508 0.60236186 0.34506923
1.1254019 0.47552326 0.23112181
1.0130352 0.42908752 0.16836438
0.71728182 0.29539585 0.1034613
1.3852361 0.58518535 0.30526581
1.1369433 0.4789319 0.20595884
0.7396158 0.30000848 0.12013224
0.71898973 0.29767773 0.087465182
1.1263357 0.46353984 0.22988713
0.98181564 0.40532944 0.16151679
0.72423142 0.29240742 0.1012764
0.72367847 0.29996699 0.070413031
1.1338248 0.46299964 0.20272794
0.74453896 0.29504567 0.11694922
0.73192334 0.29568568 0.084185891
0.72838974 0.30323794 0.054378558
0.97469789 0.3894116 0.15836105
0.74018705 0.29138631 0.098958403
0.72759795 0.2940079 0.067230776
0.73009366 0.30452004 0.038364422
0.76252395 0.29198161 0.11655694
0.74988258 0.29565728 0.081848338
0.72527617 0.29332277 0.0502561
0.73579001 0.30880529 0.021329513
0.77320057 0.29626706 0.098428413
0.74553454 0.29299778 0.063875541
0.72898364 0.29559749 0.034222402
0.73246843 0.3081238 0.0043736212
0.7377432 0.2787756 0.077768862
0.74920076 0.29430881 0.045824502
0.72365457 0.29292342 0.017268056
0.74016827 0.3134017 -0.012680847
0.74641633 0.28206837 0.059659906
0.75689274 0.29758713 0.028733995
0.73333532 0.29821235 -0.00082365796
0.73885411 0.31471267 -0.029638272
0.7550894 0.28536114 0.041550949
0.75753683 0.29792723 0.0097216442
0.73502451 0.30051228 -0.017819438
0.74252814 0.31802338 -0.047653284
0.77275395 0.29163924 0.022327268
0.7531966 0.29726735 -0.0082151107
0.73471016 0.30181968 -0.034795664
0.74722469 0.3223123 -0.0646694
0.78740031 0.29794618 0.0021602996
0.7538594 0.29758936 -0.026227798
0.74136883 0.30613756 -0.053848684
0.744892 0.32364491 -0.082607701
0.78804439 0.29828629 -0.016852051
0.7535224 0.29791495 -0.044221703
0.74504292 0.3094483 -0.071863689
0.7475701 0.32795903 -0.10058589
0.78766996 0.29864806 -0.036845274
0.75617403 0.30024755 -0.063235596
0.74172515 0.30976659 -0.088801555
0.75024831 0.33227319 -0.11856408
0.78230727 0.29701003 -0.055780914
0.75782585 0.30258372 -0.082230702
0.75237614 0.31708768 -0.10887533
0.7588957 0.33860165 -0.13861832
0.78393245 0.29736462 -0.075811714
0.76246226 0.30592704 -0.10226382
0.75701654 0.32143086 -0.12889045
0.75857049 0.34192675 -0.15655816
0.78554678 0.29973701 -0.096806154
0.75313383 0.30326739 -0.11914299
0.72277659 0.30673632 -0.13851845
0.61272633 0.27006501 -0.13311954
0.79316789 0.30408746 -0.11787727
0.70092189 0.28058454 -0.12557794
0.63771391 0.26797563 -0.13362534
0.59152633 0.26130471 -0.14188406
0.70998544 0.26844573 -0.11996531
0.64876622 0.2578474 -0.1290139
0.58959877 0.24618782 -0.13511911
0.58628386 0.26155782 -0.15478569
0.65182298 0.24373047 -0.12332457
0.61057919 0.2421131 -0.1355858
-0.02611593 -0.059798401 0.050936799
0.2117773 0.065823987 -0.034273691
0.65447462 0.24606308 -0.14233848
0.62323385 0.25042689 -0.15567914
0.21279493 0.060785063 -0.032383256
-0.02611593 -0.059798401 0.050936799
0.64718717 0.24435987 -0.15723789
0.2217519 0.059789117 -0.03456971
-0.02611593 -0.059798401 0.050936799
0.17575848 0.049919721 -0.031886213
0.77329099 0.30396131 -0.21754119
0.20273878 0.050840743 -0.033375204
0.18968496 0.050941665 -0.03612991
-0.02611593 -0.059798401 0.050936799
0.20473747 0.045816321 -0.03250321
-0.02611593 -0.059798401 0.050936799
-0.02611593 -0.059798401 0.050936799
0.14973485 0.037996992 -0.03061422
0.18869814 0.039892856 -0.033310339
0.17965145 0.041979093 -0.036104172
0.15967685 0.038015373 -0.033801101
-0.02611593 -0.059798401 0.050936799
-0.02611593 -0.059798401 0.050936799
-0.02611593 -0.059798401 0.050936799
-0.02611593 -0.059798401 0.050936799
0.1307217 0.029048618 -0.029419709
0.16662544 0.0300097 -0.035076451
0.15561657 0.032066923 -0.035833385
0.14459987 0.03212449 -0.036626346
-0.02611593 -0.059798401 0.050936799
-0.02611593 -0.059798401 0.050936799
-0.02611593 -0.059798401 0.050936799
-0.02611593 -0.059798401 0.050936799
0.11766698 0.024132304 -0.031264842
0.14060962 0.020086624 -0.033768415
0.13458507 0.02314382 -0.035600949
0.12757549 0.025186691 -0.036433037
-0.02611593 -0.059798401 0.050936799
-0.02611593 -0.059798401 0.050936799
-0.02611593 -0.059798401 0.050936799
-0.02611593 -0.059798401 0.050936799
0.10067613 0.016158501 -0.029090229
0.1216004 0.012138078 -0.032555889
0.11557584 0.015195282 -0.034388412
0.10858499 0.017220058 -0.034220841
-0.02611593 -0.059798401 0.050936799
-0.02611593 -0.059798401 0.050936799
-0.02611593 -0.059798401 0.050936799
-0.02611593 -0.059798401 0.050936799
0.088662609 0.012202245 -0.028936818
-0.02611593 -0.059798401 0.050936799
0.10255858 0.010242784 -0.034234226
0.096567534 0.01226398 -0.034085445
-0.02611593 -0.059798401 0.050936799
-0.02611593 -0.059798401 0.050936799
-0.02611593 -0.059798401 0.050936799
-0.02611593 -0.059798401 0.050936799
0.083599508 0.010274796 -0.031877887
0.095532373 0.0032690996 -0.03422882
0.090526342 0.006304618 -0.035080481
0.088504978 0.010347296 -0.036970146
-0.02611593 -0.059798401 0.050936799
-0.02611593 -0.059798401 0.050936799
-0.02611593 -0.059798401 0.050936799
-0.02611593 -0.059798401 0.050936799
0.073585622 0.0063113621 -0.031762056
0.084499948 -0.00067265565 -0.035093866
0.085448444 0.0053950953 -0.03900319
0.075539954 0.0043407087 -0.033834994
-0.02611593 -0.059798401 0.050936799
-0.02611593 -0.059798401 0.050936799
-0.02611593 -0.059798401 0.050936799
-0.02611593 -0.059798401 0.050936799
0.062609382 0.0023153471 -0.029628105
0.073490173 -0.0036326661 -0.034941226
0.073449723 0.00042092381 -0.037868131
0.068495944 0.002402348 -0.035738822
-0.02611593 -0.059798401 0.050936799
-0.02611593 -0.059798401 0.050936799
-0.02611593 -0.059798401 0.050936799
-0.02611593 -0.059798401 0.050936799
0.054613851 -0.0016733495 -0.028550196
0.061510187 -0.0086249234 -0.032806497
0.063458495 -0.0025607641 -0.036734618
0.061470639 0.00044590177 -0.036642984
-0.02611593 -0.059798401 0.050936799
-0.02611593 -0.059798401 0.050936799
-0.02611593 -0.059798401 0.050936799
-0.02611593 -0.059798401 0.050936799
0.048592292 -0.0026335539 -0.029455133
0.055469912 -0.0095670456 -0.034711108
0.053482059 -0.0065603759 -0.034619469
0.050509185 -0.0045680371 -0.033527397
-0.02611593 -0.059798401 0.050936799
-0.02611593 -0.059798401 0.050936799
-0.02611593 -0.059798401 0.050936799
-0.02611593 -0.059798401 0.050936799
0.044536863 -0.0025649313 -0.032378945
0.046497222 -0.012570412 -0.032596715
0.046456765 -0.008516822 -0.035523634
0.046435028 -0.0044813249 -0.03745088
-0.02611593 -0.059798401 0.050936799
-0.02611593 -0.059798401 0.050936799
-0.02611593 -0.059798401 0.050936799
-0.02611593 -0.059798401 0.050936799
0.036578782 -0.0065898094 -0.029301718
0.039471921 -0.014526863 -0.033500884
0.041435022 -0.0094806226 -0.036447357
0.037499782 -0.0075208731 -0.033337172
-0.02611593 -0.059798401 0.050936799
-0.02611593 -0.059798401 0.050936799
-0.02611593 -0.059798401 0.050936799
-0.02611593 -0.059798401 0.050936799
0.032556862 -0.0075571956 -0.030244235
0.032484073 -0.016519487 -0.032405719
0.034447175 -0.011473247 -0.0353522
0.032474119 -0.0094845006 -0.034278926
-0.02611593 -0.059798401 0.050936799
-0.02611593 -0.059798401 0.050936799
-0.02611593 -0.059798401 0.050936799
-0.02611593 -0.059798401 0.050936799
0.023636414 -0.01161466 -0.025148887
0.027462333 -0.017483283 -0.033329453
0.030391736 -0.011404624 -0.038276024
0.029422425 -0.008419632 -0.037203513
-0.02611593 -0.059798401 0.050936799
-0.02611593 -0.059798401 0.050936799
-0.02611593 -0.059798401 0.050936799
-0.02611593 -0.059798401 0.050936799
0.020580795 -0.011549626 -0.028091501
0.021459503 -0.018461579 -0.033234727
0.026336305 -0.011336002 -0.041199841
0.022468094 -0.011448269 -0.034127053
-0.02611593 -0.059798401 0.050936799
-0.02611593 -0.059798401 0.050936799
-0.02611593 -0.059798401 0.050936799
-0.02611593 -0.059798401 0.050936799
0.016544081 -0.011499092 -0.030015659
0.017422793 -0.018411046 -0.035158891
0.017415855 -0.015393465 -0.036104497
0.018431379 -0.011397735 -0.03605121
-0.02611593 -0.059798401 0.050936799
-0.02611593 -0.059798401 0.050936799
-0.02611593 -0.059798401 0.050936799
-0.02611593 -0.059798401 0.050936799
0.012540883 -0.012484567 -0.029958516
0.012401055 -0.01937484 -0.036082618
0.013379139 -0.015342931 -0.038028661
0.014394666 -0.011347202 -0.037975375
-0.02611593 -0.059798401 0.050936799
-0.02611593 -0.059798401 0.050936799
-0.02611593 -0.059798401 0.050936799
-0.02611593 -0.059798401 0.050936799
0.0085376883 -0.013470038 -0.029901374
0.0074167666 -0.020374818 -0.035007026
0.0093424264 -0.015292398 -0.039952818
0.0064888303 -0.016426176 -0.031917166
-0.02611593 -0.059798401 0.050936799
-0.02611593 -0.059798401 0.050936799
-0.02611593 -0.059798401 0.050936799
-0.02611593 -0.059798401 0.050936799
0.0045196987 -0.013437593 -0.030825879
0.0033800527 -0.020324284 -0.036931179
0.0053244336 -0.015259953 -0.040877316
0.0043886402 -0.01331097 -0.037823509
-0.02611593 -0.059798401 0.050936799
-0.02611593 -0.059798401 0.050936799
-0.02611593 -0.059798401 0.050936799
-0.02611593 -0.059798401 0.050936799
-0.02611593 -0.059798401 0.050936799
-0.00065665948 -0.020273751 -0.038855344
-0.00064094807 -0.016274428 -0.038783267
-0.00058085355 -0.015328865 -0.035766266
-0.02611593 -0.059798401 0.050936799
-0.02611593 -0.059798401 0.050936799
-0.02611593 -0.059798401 0.050936799
-0.02611593 -0.059798401 0.050936799
-0.02611593 -0.059798401 0.050936799
-0.02611593 -0.059798401 0.050936799
-0.02611593 -0.059798401 0.050936799
-0.02611593 -0.059798401 0.050936799
-0.02611593 -0.059798401 0.050936799
-0.02611593 -0.059798401 0.050936799
-0.02611593 -0.059798401 0.050936799
-0.02611593 -0.059798401 0.050936799
-0.02611593 -0.059798401 0.050936799
-0.02611593 -0.059798401 0.050936799
-0.02611593 -0.059798401 0.050936799
-0.008635561 -0.015245887 -0.038614929
-0.02611593 -0.059798401 0.050936799
-0.02611593 -0.059798401 0.050936799
-0.02611593 -0.059798401 0.050936799
-0.02611593 -0.059798401 0.050936799
-0.02611593 -0.059798401 0.050936799
-0.02611593 -0.059798401 0.050936799
-0.02611593 -0.059798401 0.050936799
-0.02611593 -0.059798401 0.050936799
-0.02611593 -0.059798401 0.050936799
-0.02611593 -0.059798401 0.050936799
-0.02611593 -0.059798401 0.050936799
-0.02611593 -0.059798401 0.050936799
-0.02611593 -0.059798401 0.050936799
-0.02611593 -0.059798401 0.050936799
-0.02611593 -0.059798401 0.050936799
-0.016667612 -0.014181171 -0.040445905
-0.02611593 -0.059798401 0.050936799
-0.02611593 -0.059798401 0.050936799
-0.02611593 -0.059798401 0.050936799
-0.02611593 -0.059798401 0.050936799
-0.02611593 -0.059798401 0.050936799
-0.02611593 -0.059798401 0.050936799
-0.02611593 -0.059798401 0.050936799
-0.020633362 -0.015202818 -0.038389441
-0.02611593 -0.059798401 0.050936799
-0.02611593 -0.059798401 0.050936799
-0.02611593 -0.059798401 0.050936799
-0.02611593 -0.059798401 0.050936799
-0.02611593 -0.059798401 0.050936799
-0.027689166 -0.020140672 -0.040347319
-0.02611593 -0.059798401 0.050936799
-0.02611593 -0.059798401 0.050936799
-0.02611593 -0.059798401 0.050936799
-0.02611593 -0.059798401 0.050936799
-0.02611593 -0.059798401 0.050936799
-0.02611593 -0.059798401 0.050936799
-0.02611593 -0.059798401 0.050936799
-0.02611593 -0.059798401 0.050936799
-0.029662222 -0.018151922 -0.039274041
-0.02611593 -0.059798401 0.050936799
-0.02611593 -0.059798401 0.050936799
-0.02611593 -0.059798401 0.050936799
-0.02611593 -0.059798401 0.050936799
-0.02611593 -0.059798401 0.050936799
-0.02611593 -0.059798401 0.050936799
-0.02611593 -0.059798401 0.050936799
-0.02611593 -0.059798401 0.050936799
-0.02611593 -0.059798401 0.050936799
-0.02611593 -0.059798401 0.050936799
-0.02611593 -0.059798401 0.050936799
-0.02611593 -0.059798401 0.050936799
-0.02611593 -0.059798401 0.050936799
-0.02611593 -0.059798401 0.050936799
-0.039668247 -0.020115696 -0.039122172
-0.037642036 -0.018141299 -0.038124058
-0.035668064 -0.015112808 -0.040106904
-0.02611593 -0.059798401 0.050936799
-0.02611593 -0.059798401 0.050936799
-0.02611593 -0.059798401 0.050936799
-0.02611593 -0.059798401 0.050936799
-0.02611593 -0.059798401 0.050936799
-0.02611593 -0.059798401 0.050936799
-0.041641302 -0.018126944 -0.038048893
-0.02611593 -0.059798401 0.050936799
-0.02611593 -0.059798401 0.050936799
-0.02611593 -0.059798401 0.050936799
-0.02611593 -0.059798401 0.050936799
-0.02611593 -0.059798401 0.050936799
-0.02611593 -0.059798401 0.050936799
-0.02611593 -0.059798401 0.050936799
-0.02611593 -0.059798401 0.050936799
-0.043614358 -0.016138194 -0.036975615
-0.02611593 -0.059798401 0.050936799
-0.02611593 -0.059798401 0.050936799
-0.02611593 -0.059798401 0.050936799
-0.02611593 -0.059798401 0.050936799
-0.02611593 -0.059798401 0.050936799
-0.02611593 -0.059798401 0.050936799
-0.02611593 -0.059798401 0.050936799
-0.047628421 -0.015105918 -0.037882097
-0.02611593 -0.059798401 0.050936799
-0.02611593 -0.059798401 0.050936799
-0.02611593 -0.059798401 0.050936799
-0.02611593 -0.059798401 0.050936799
-0.02611593 -0.059798401 0.050936799
-0.056608967 -0.020108949 -0.03580375
-0.054634996 -0.017080458 -0.037786599
-0.02611593 -0.059798401 0.050936799
-0.02611593 -0.059798401 0.050936799
-0.02611593 -0.059798401 0.050936799
-0.02611593 -0.059798401 0.050936799
-0.02611593 -0.059798401 0.050936799
-0.02611593 -0.059798401 0.050936799
-0.060566861 -0.019130938 -0.033711247
-0.0585781 -0.017120371 -0.034712452
-0.055589512 -0.015113385 -0.035732448
-0.02611593 -0.059798401 0.050936799
-0.02611593 -0.059798401 0.050936799
-0.02611593 -0.059798401 0.050936799
-0.02611593 -0.059798401 0.050936799
-0.02611593 -0.059798401 0.050936799
-0.064547412 -0.01913467 -0.032636426
-0.062577367 -0.017106015 -0.034637287
-0.060588598 -0.015095441 -0.035638493
-0.02611593 -0.059798401 0.050936799
-0.02611593 -0.059798401 0.050936799
-0.02611593 -0.059798401 0.050936799
-0.02611593 -0.059798401 0.050936799
-0.02611593 -0.059798401 0.050936799
-0.069527775 -0.019134816 -0.031542808
-0.066539191 -0.017127834 -0.032562807
-0.064583942 -0.014081258 -0.035545312
-0.02611593 -0.059798401 0.050936799
-0.02611593 -0.059798401 0.050936799
-0.02611593 -0.059798401 0.050936799
-0.02611593 -0.059798401 0.050936799
-0.02611593 -0.059798401 0.050936799
-0.073485665 -0.018156812 -0.029450309
-0.072548956 -0.015088553 -0.03341369
-0.067531154 -0.015124586 -0.032507982
-0.02611593 -0.059798401 0.050936799
-0.02611593 -0.059798401 0.050936799
-0.02611593 -0.059798401 0.050936799
-0.02611593 -0.059798401 0.050936799
-0.02611593 -0.059798401 0.050936799
-0.081566036 -0.015038163 -0.034244232
-0.07651078 -0.015110375 -0.031339202
-0.073540911 -0.013085302 -0.033358861
-0.02611593 -0.059798401 0.050936799
-0.02611593 -0.059798401 0.050936799
-0.02611593 -0.059798401 0.050936799
-0.02611593 -0.059798401 0.050936799
-0.02611593 -0.059798401 0.050936799
-0.087561004 -0.014016802 -0.03411347
-0.08355388 -0.012031497 -0.034152593
-0.078521281 -0.013085446 -0.03226525
-0.02611593 -0.059798401 0.050936799
-0.02611593 -0.059798401 0.050936799
-0.02611593 -0.059798401 0.050936799
-0.02611593 -0.059798401 0.050936799
-0.02611593 -0.059798401 0.050936799
-0.091500185 -0.01305688 -0.031021304
-0.087515712 -0.012053319 -0.032078113
-0.08454977 -0.011028077 -0.034115784
-0.02611593 -0.059798401 0.050936799
-0.02611593 -0.059798401 0.050936799
-0.02611593 -0.059798401 0.050936799
-0.02611593 -0.059798401 0.050936799
-0.078446388 -0.013157803 -0.028266598
-0.094443463 -0.01310038 -0.027965948
-0.096573234 -0.0079493402 -0.035835572
-0.088492878 -0.011067988 -0.031041637
-0.02611593 -0.059798401 0.050936799
-0.02611593 -0.059798401 0.050936799
-0.02611593 -0.059798401 0.050936799
-0.02611593 -0.059798401 0.050936799
-0.085455976 -0.011114934 -0.02909869
-0.10550063 -0.0089892307 -0.031685829
-0.10051633 -0.007989252 -0.032761425
-0.093469307 -0.010068303 -0.029930003
-0.02611593 -0.059798401 0.050936799
-0.02611593 -0.059798401 0.050936799
-0.02611593 -0.059798401 0.050936799
-0.02611593 -0.059798401 0.050936799
-0.087384649 -0.012179943 -0.025080483
-0.11043962 -0.0080257189 -0.028574873
-0.10954036 -0.004921285 -0.034537572
-0.097412415 -0.010108214 -0.026855864
-0.02611593 -0.059798401 0.050936799
-0.02611593 -0.059798401 0.050936799
-0.02611593 -0.059798401 0.050936799
-0.02611593 -0.059798401 0.050936799
-0.095427573 -0.0090974756 -0.027875084
-0.11944491 -0.0049758414 -0.029351357
-0.11447935 -0.0039577768 -0.031426623
-0.10645123 -0.0060223276 -0.029613648
-0.02611593 -0.059798401 0.050936799
-0.02611593 -0.059798401 0.050936799
-0.02611593 -0.059798401 0.050936799
-0.02611593 -0.059798401 0.050936799
-0.099370666 -0.0091373874 -0.024800945
-0.13046463 -0.000900866 -0.031071916
-0.12348463 -0.00090789935 -0.032203108
-0.11545651 -0.0029724501 -0.030390147
-0.02611593 -0.059798401 0.050936799
-0.02611593 -0.059798401 0.050936799
-0.02611593 -0.059798401 0.050936799
-0.02611593 -0.059798401 0.050936799
-0.10737614 -0.006091095 -0.02559622
-0.13741413 0.0020875665 -0.028886996
-0.13143787 0.0010842952 -0.030017424
-0.12344719 -0.0009440775 -0.030203782
-0.02611593 -0.059798401 0.050936799
-0.02611593 -0.059798401 0.050936799
-0.02611593 -0.059798401 0.050936799
-0.02611593 -0.059798401 0.050936799
-0.11437093 -0.005066142 -0.025446672
-0.1483964 0.006126367 -0.028608225
-0.14142033 0.0051195035 -0.029757448
-0.13141915 0.0010662061 -0.029017758
-0.02611593 -0.059798401 0.050936799
-0.02611593 -0.059798401 0.050936799
-0.02611593 -0.059798401 0.050936799
-0.02611593 -0.059798401 0.050936799
-0.12437212 -0.001012845 -0.026186347
-0.16440736 0.012218945 -0.030198798
-0.15240653 0.0081584733 -0.029496692
-0.14242016 0.0051230919 -0.029738657
-0.02611593 -0.059798401 0.050936799
-0.02611593 -0.059798401 0.050936799
-0.02611593 -0.059798401 0.050936799
-0.02611593 -0.059798401 0.050936799
-0.13537313 0.0030440413 -0.026907239
-0.17333774 0.01519647 -0.026976645
-0.16941337 0.015254471 -0.031050451
-0.15338372 0.0091438033 -0.028460216
-0.02611593 -0.059798401 0.050936799
-0.02611593 -0.059798401 0.050936799
-0.02611593 -0.059798401 0.050936799
-0.02611593 -0.059798401 0.050936799
-0.14536344 0.0050795916 -0.026683297
-0.19334012 0.023303064 -0.028456002
-0.18137676 0.019278772 -0.029753231
-0.16333266 0.012142999 -0.026218936
-0.02611593 -0.059798401 0.050936799
-0.02611593 -0.059798401 0.050936799
-0.02611593 -0.059798401 0.050936799
-0.02611593 -0.059798401 0.050936799
-0.15834141 0.0101254 -0.02634893
-0.21631536 0.033401996 -0.028843302
-0.20235628 0.028370695 -0.030196123
-0.18335372 0.02026769 -0.028697968
-0.02611593 -0.059798401 0.050936799
-0.02611593 -0.059798401 0.050936799
-0.02611593 -0.059798401 0.050936799
-0.02611593 -0.059798401 0.050936799
-0.1753522 0.016221568 -0.027920697
-0.24125278 0.04347194 -0.027193688
-0.22130661 0.035419602 -0.028713316
-0.20433719 0.028359786 -0.029158883
-0.02611593 -0.059798401 0.050936799
-0.02611593 -0.059798401 0.050936799
-0.02611593 -0.059798401 0.050936799
-0.02611593 -0.059798401 0.050936799
-0.19031107 0.021256465 -0.026549093
-0.26617149 0.053523783 -0.024544422
-0.24724382 0.045493126 -0.027044907
-0.22428732 0.035412282 -0.027657278
-0.02611593 -0.059798401 0.050936799
-0.02611593 -0.059798401 0.050936799
-0.02611593 -0.059798401 0.050936799
-0.02611593 -0.059798401 0.050936799
-0.21530466 0.031380665 -0.027898464
-0.97044802 0.38153389 -0.2014851
-0.26210913 0.050437577 -0.020674996
-0.25323486 0.047514312 -0.026896127
-0.02611593 -0.059798401 0.050936799
-0.97906405 0.3832041 -0.18128669
-0.02611593 -0.059798401 0.050936799
-0.02611593 -0.059798401 0.050936799
-0.2372357 0.038422249 -0.025359623
-0.99169022 0.38690636 -0.16197678
-0.98432916 0.38247544 -0.19520605
-0.958924 0.37090874 -0.22490098
-0.02611593 -0.059798401 0.050936799
-1.0042976 0.39059055 -0.14166722
-0.9879204 0.38109201 -0.17315634
-0.96752918 0.37056118 -0.20373899
-0.25712967 0.045420479 -0.02085904
-1.0179236 0.39429644 -0.12233852
-0.99853617 0.38276938 -0.1529204
-0.98317355 0.37429231 -0.18537235
-0.02611593 -0.059798401 0.050936799
-1.022507 0.39491627 -0.10023401
-1.0121622 0.38647524 -0.13359168
-0.99678868 0.37598044 -0.16508003
-0.97440952 0.36244297 -0.19575432
-1.0401016 0.40161791 -0.079776421
-1.0307606 0.39218062 -0.11313333
-1.0073895 0.37663987 -0.14386244
-0.98602903 0.36312407 -0.17551757
-1.0586963 0.40832314 -0.059300043
-1.0363437 0.39280406 -0.091010019
-1.0139763 0.37626705 -0.12173835
-0.9996441 0.36481223 -0.15522523
-1.0642568 0.4099282 -0.036159068
-1.0469218 0.39444521 -0.068774745
-1.0365849 0.38400453 -0.10216847
-1.0032207 0.36241081 -0.13219392
-1.0728314 0.41256207 -0.013943352
-1.0685121 0.40216103 -0.048223995
-1.0411614 0.38160679 -0.079118341
-1.026837 0.36815229 -0.11264127
-1.082402 0.4161993 0.0083091781
-1.0740764 0.40276632 -0.025101021
-1.0567456 0.38628349 -0.057734728
-1.0304135 0.36575091 -0.089609943
-1.0969411 0.42283592 0.031709362
-1.0816365 0.40437865 -0.001922451
-1.0643096 0.38689598 -0.034574166
-1.055988 0.37246314 -0.068002366
-1.1084886 0.4274621 0.055017151
-1.1011894 0.41205111 0.020590052
-1.0858661 0.39357579 -0.012042105
-1.0675473 0.37408984 -0.044748649
-1.116026 0.43005615 0.079213396
-1.1217048 0.419691 0.045120668
-1.0934114 0.39417019 0.012118101
-1.0830982 0.37773055 -0.021383718
-1.1355565 0.43871036 0.10274357
-1.1282464 0.42128164 0.069280095
-1.1139306 0.40081024 0.036630701
-1.0886514 0.37631813 0.0027028769
-0.02611593 -0.059798401 0.050936799
-1.1307966 0.42085823 0.093328334
-1.1294589 0.40543267 0.061013307
-1.1081749 0.3819547 0.027178656
-1.1735198 0.45692456 0.15480147
-1.1542622 0.43147221 0.11996871
-1.1409916 0.40904093 0.085302733
-0.02611593 -0.059798401 0.050936799
-0.02611593 -0.059798401 0.050936799
-0.02611593 -0.059798401 0.050936799
-1.158474 0.41563401 0.11175828
-1.1361873 0.38813508 0.078832433
-1.2372962 0.48810321 0.21457979
-1.1951914 0.44866112 0.17406428
-1.1709505 0.4191916 0.13906549
-0.02611593 -0.059798401 0.050936799
-1.2238501 0.48260522 0.23923695
-1.2245731 0.46122393 0.20485207
-0.02611593 -0.059798401 0.050936799
-1.1841046 0.4033314 0.13402316
-1.2631652 0.50216645 0.27233809
-1.2370042 0.46674499 0.23419462
-1.2088171 0.4332979 0.19704928
-0.02611593 -0.059798401 0.050936799
-1.2874918 0.51465702 0.30603093
-1.2454401 0.47125185 0.26344401
-1.2431567 0.44684228 0.22994837
-1.2169693 0.41340238 0.19284059
-1.3128142 0.52815098 0.33976057
-1.2896755 0.49175858 0.30065578
-1.2764777 0.460365 0.26382831
-1.2024937 0.40586489 0.21944222
-1.3301499 0.53861678 0.37328577
-1.313987 0.50323129 0.33533025
-1.2540262 0.45181707 0.28926197
-1.2626956 0.42941049 0.25800836
-1.4497912 0.59697384 0.43560252
-1.328335 0.51068676 0.36874506
-1.3191179 0.47928941 0.3329924
-1.2481974 0.42285478 0.28562769
-1.5444807 0.64424288 0.49725133
-1.3565781 0.52511901 0.40654773
-1.3056155 0.47373712 0.36064854
-0.02611593 -0.059798401 0.050936799
-1.5318915 0.64162129 0.52897894
-1.5734681 0.62226033 0.50239813
-1.3398162 0.48915461 0.4005813
-0.02611593 -0.059798401 0.050936799
-1.5202984 0.64000314 0.56074345
-1.6154376 0.64350635 0.55358565
-1.6053761 0.60121584 0.51161802
-1.343892 0.46013772 0.40213326
-1.5106821 0.6393739 0.59356308
-1.6067653 0.6428265 0.58942306
-1.699958 0.64235938 0.58015633
-1.6323088 0.57415456 0.52063584
-1.4941125 0.63675606 0.6242159
-1.5950972 0.64113599 0.6251862
-1.6941874 0.64259958 0.62106651
-1.8023026 0.64211404 0.61608022
-1.484511 0.6371448 0.65605396
-1.5844437 0.64046699 0.65998638
-1.6814673 0.63985145 0.65979171
-1.8073832 0.64626646 0.66426677
-1.4709369 0.63553751 0.68678117
-1.5707947 0.63878739 0.69471222
-1.6786734 0.64108413 0.70177597
-1.798546 0.6444239 0.7090832
-1.4612943 0.63688982 0.72063661
-1.5571495 0.63610798 0.72942007
-1.6639497 0.6393286 0.74048173
-1.7867322 0.64158887 0.75282556
-1.445739 0.63529354 0.75032651
-1.5454737 0.63641703 0.76521915
-1.6522255 0.63758379 0.77924371
-1.7729373 0.63876474 0.79553062
-1.4331385 0.63567144 0.78210819
-1.5298437 0.6347484 0.79890782
-1.6424556 0.63780975 0.82007873
-1.7670503 0.63989627 0.84245682
-1.4175646 0.63405699 0.81279778
-1.517172 0.63405412 0.83467007
-1.628709 0.63703948 0.8598209
-1.7453023 0.63507986 0.88297623
-1.4029869 0.63344604 0.84352428
-1.5064733 0.63534856 0.87150568
-1.6169581 0.63727629 0.89961863
-1.7413735 0.63718224 0.93195736
-1.3874239 0.63384932 0.87325025
-1.4829314 0.63072407 0.90099126
-1.60517 0.63747698 0.94141573
-1.7285295 0.63732505 0.97673464
-1.367911 0.63127494 0.90084767
-1.4712328 0.63201493 0.9378081
-1.5864846 0.6357432 0.97804695
-1.7037818 0.63249791 1.0171977
-1.3464172 0.62871158 0.92740786
-1.4496453 0.62936109 0.96936661
-1.5667843 0.63298792 1.015641
-1.694873 0.6346004 1.0650852
-1.3367517 0.63104564 0.96228099
-1.4330118 0.62868863 1.0030544
-1.547099 0.63125062 1.0522534
-1.6740793 0.63175112 1.1076587
-1.3122998 0.62750781 0.98676747
-1.4183325 0.62998688 1.0388151
-1.525414 0.62950611 1.0888283
-1.6493427 0.62894177 1.147158
-1.2976955 0.6288783 1.0185295
-1.3947827 0.62736195 1.0683367
-1.5037516 0.62677991 1.1243855
-1.6295074 0.62705976 1.1917678
-1.2801517 0.62929255 1.0472183
-1.3741685 0.62669319 1.1009498
-1.4810629 0.62603164 1.1609596
-1.6027898 0.62426132 1.2302301
-1.2537415 0.62478393 1.0696499
-1.353577 0.6250428 1.1325452
-1.4574198 0.62331635 1.1954794
-1.5809888 0.62340814 1.2728208
-1.236179 0.62518007 1.0993383
-1.3310007 0.62440312 1.1631213
-1.4376891 0.62354249 1.2341273
-1.5591648 0.62353671 1.3164294
-1.2117419 0.6226601 1.1228431
-1.3064512 0.62177455 1.192624
-1.410084 0.62084901 1.2665727
-1.5334057 0.62170547 1.3569278
-1.185328 0.61915129 1.1452928
-1.282879 0.62013143 1.2231634
-1.3903307 0.62205696 1.3062382
-1.4987724 0.61695099 1.3912048
-1.1657845 0.61955833 1.173944
-1.2583405 0.61952066 1.2517025
-1.3607447 0.61937439 1.3376462
-1.4769257 0.6180613 1.4358311
-1.1423206 0.61902356 1.1985033
-1.2298517 0.6159324 1.2781132
-1.3302003 0.6157245 1.3670185
-1.4491818 0.61724085 1.4753101
-1.1188606 0.61748898 1.2230448
-1.204336 0.61433625 1.305616
-1.3064852 0.61695421 1.4046094
-1.4125675 0.61249727 1.5085502
-1.1002944 0.61888129 1.2527324
-1.1797788 0.61370748 1.3351548
-1.274941 0.61330086 1.4339626
-1.3818616 0.61170226 1.5459735
-1.0748535 0.61735767 1.2762363
-1.1532407 0.61308962 1.3636565
-1.2463095 0.61258537 1.467425
-1.3501598 0.60990369 1.5833602
-1.0494128 0.61583394 1.2997404
-1.1315961 0.61539871 1.3973043
-1.2147576 0.61093152 1.4968144
-1.3135376 0.60715985 1.6166362
-1.0249451 0.6162954 1.324299
-1.104058 0.61477715 1.4257872
-1.1841638 0.61024505 1.5282397
-1.2808506 0.60637569 1.6530223
-0.99950433 0.61477172 1.3478031
-1.0716637 0.61126494 1.4471242
-1.1545327 0.60952592 1.5616833
-1.2481226 0.60655522 1.6914258
-0.97310108 0.61328065 1.369289
-1.0441446 0.61066151 1.4746076
-1.1229579 0.60885388 1.5920902
-1.2095382 0.60384035 1.7226648
-0.9466753 0.61277127 1.3917928
-1.0127047 0.60911632 1.4979988
-1.0874854 0.60625833 1.6173878
-1.1738667 0.60406333 1.758013
-0.92024934 0.61226189 1.4142963
-0.98028791 0.6065858 1.5203538
-1.0539484 0.60561532 1.6457577
-1.1362368 0.60331553 1.7913063
-0.89186525 0.61078173 1.4347452
-0.95272332 0.60794586 1.5498723
-1.0184532 0.6040014 1.672073
-1.0966901 0.6006332 1.8205272
-0.86250001 0.60931599 1.4541754
-0.92030245 0.60641509 1.5722451
-0.98099983 0.60141671 1.6963333
-1.0580566 0.60088164 1.8538196
-0.83607024 0.60980648 1.476697
-0.88596082 0.60394979 1.5905638
-0.94548196 0.60078466 1.7236661
-1.0184232 0.60112643 1.8870932
-0.80381101 0.60542101 1.4910187
-0.85449845 0.60338628 1.6149728
-0.90996027 0.60115242 1.7510169
-0.97109568 0.59561497 1.9051136
-0.77735853 0.60689318 1.5145581
-0.82301337 0.60380453 1.6403996
-0.87060463 0.59765118 1.7702231
-0.93243563 0.59784496 1.9394417
-0.74892914 0.60737652 1.537042
-0.78863037 0.60230285 1.6607355
-0.83506024 0.59900057 1.7985919
-0.8880021 0.59525329 1.9625709
-0.71764308 0.60497618 1.552418
-0.75426596 0.60081911 1.6800719
-0.79658043 0.59839392 1.823869
-0.842565 0.59365779 1.9856989
-0.68535334 0.60357207 1.5677933
-0.7179395 0.59936452 1.6973712
-0.75717956 0.59685618 1.8451107
-0.79615062 0.59107703 2.0077908
-0.65498441 0.60310262 1.5872228
-0.68449223 0.59981179 1.7207609
-0.71581656 0.59534746 1.8643155
-0.75263029 0.591416 2.0349913
-0.62461144 0.60363305 1.6066704
-0.65006399 0.60027355 1.7431324
-0.67543072 0.59482396 1.8845567
-0.70908737 0.59273672 2.0632095
-0.59328008 0.60319614 1.6240816
-0.61277902 0.59785169 1.7583957
-0.6331467 0.59238422 1.8997262
-0.65890628 0.588359 2.0731943
-0.56099027 0.60179204 1.639457
