# .PCD v0.7 - Point Cloud Data file format
VERSION 0.7
FIELDS x y z
SIZE 4 4 4
TYPE F F F
COUNT 1 1 1
WIDTH 1411
HEIGHT 1
VIEWPOINT 0 0 0 1 0 0 0
POINTS 1411
DATA ascii
-1.9800322 0.60951334 2.0753126
-1.9183927 0.50416499 1.9692171
-1.8468506 0.40790588 1.8560981
-1.8174181 0.32600263 1.7880423
-1.9753944 0.61996287 2.1604438
-2.1185186 0.57453722 2.2703388
-2.016772 0.45885763 2.1182899
-1.9501809 0.36056253 2.0082278
-1.9178706 0.61221683 2.1892362
-2.2134855 0.61617661 2.4779406
-2.2391527 0.5265891 2.4597943
-2.1472921 0.41083694 2.3139312
-1.8799146 0.61316121 2.2395601
-2.1419683 0.60738045 2.5064523
-2.4953113 0.60732234 2.8641877
-3.3148646 0.68189603 3.7331755
-1.8302239 0.60929847 2.2765722
-2.0890496 0.60428971 2.5554221
-2.4380374 0.60387355 2.932076
-3.2019773 0.66857356 3.7818377
-1.7844121 0.60734117 2.3196938
-2.0439117 0.60402817 2.6155925
-2.3622134 0.59677327 2.9765432
-3.1008103 0.65904021 3.8447921
-1.7415401 0.60634023 2.3658886
-1.9831145 0.59901768 2.6583784
-2.3175952 0.59906262 3.0617778
-2.9323516 0.63383591 3.8191736
-1.6947285 0.60437948 2.4089913
-1.9311167 0.59685796 2.7113836
-2.2573369 0.59662104 3.1286285
-2.8887811 0.63922727 3.9545014
-1.6460111 0.60250187 2.447058
-1.8810358 0.59663278 2.7684612
-2.1814718 0.5904845 3.175113
-2.7867413 0.63081676 4.010458
-1.5952979 0.5996173 2.4850693
-1.827076 0.59450209 2.8194296
-2.1153495 0.58714801 3.2348347
-2.6895614 0.62429738 4.0735416
-1.5494636 0.59864175 2.5292087
-1.767252 0.59147668 2.8632698
-2.055023 0.58765173 3.304738
-2.5972271 0.61865091 4.1447349
-1.5006862 0.59770977 2.5702925
-1.7073721 0.58839703 2.9101086
-1.9830179 0.5834024 3.3583312
-2.4883568 0.61037821 4.1915627
-1.4499501 0.5958069 2.6093211
-1.6446048 0.58541507 2.9508936
-1.9081032 0.5802328 3.4068878
-2.3969769 0.60669887 4.2648106
-1.3991917 0.59488583 2.6493678
-1.5837773 0.58338583 2.9947329
-1.8427631 0.57970047 3.4776788
-2.30356 0.60297608 4.3400192
-1.3435957 0.59109205 2.6812689
-1.5228934 0.58130246 3.0415711
-1.7591238 0.57375228 3.5120165
-2.1985464 0.59759057 4.3939743
-1.2947581 0.59110558 2.7253699
-1.4620245 0.58023691 3.0874276
-1.6851114 0.57149553 3.5656085
-2.1032193 0.59495097 4.4641652
-1.2419813 0.59015924 2.7663784
-1.4030162 0.58105165 3.1403556
-1.6206282 0.57383972 3.64347
-2.0068741 0.59228975 4.5353379
-1.1863774 0.58836508 2.7983158
-1.3363248 0.57812774 3.1770666
-1.5341018 0.56798923 3.6717536
-1.9075252 0.59061754 4.6064715
-1.010633 0.51648581 2.5306344
-0.99135989 0.43280822 2.5077522
-0.97404391 0.35511869 2.4860153
-0.96049082 0.2802259 2.4764037
-0.92396039 0.49334982 2.4635706
-0.90461528 0.41361731 2.4437594
-0.88719404 0.33883682 2.4270749
-0.87165213 0.26595461 2.4164617
-0.84509116 0.47206137 2.4066894
-0.82469702 0.39528856 2.3889129
-0.80534309 0.32257289 2.3682284
-0.78682756 0.25271559 2.3556135
-0.77017593 0.4527508 2.3519189
-0.74971384 0.37892318 2.3371954
-0.72746897 0.3073051 2.3104744
-0.70702064 0.23951262 2.2938597
-0.70394379 0.4371824 2.3133843
-0.67496318 0.36077517 2.2734461
-0.65641308 0.29489905 2.261903
-0.63403618 0.22817163 2.2412703
-0.63320029 0.41704908 2.2496741
-0.6088956 0.34636933 2.2259321
-0.5873757 0.28251836 2.2123699
-0.5640285 0.21782312 2.1897547
-0.57200074 0.40253454 2.2092519
-0.54660952 0.3347784 2.1895442
-0.5232811 0.27010128 2.1659293
-0.49986607 0.20835125 2.1463675
-0.51289833 0.38711786 2.1638513
-0.48555586 0.32140845 2.1411428
-0.46302432 0.26055336 2.1276157
-0.43863899 0.20083559 2.1060715
-0.45569411 0.37361756 2.123522
-0.43109199 0.31168312 2.1139381
-0.40578568 0.25103429 2.0883584
-0.38031778 0.19324024 2.0708303
-0.40239164 0.36104098 2.088285
-0.37495464 0.3002584 2.0696654
-0.35048658 0.24246795 2.0521557
-0.32495469 0.18661931 2.0376627
-0.35198712 0.35038441 2.0581381
-0.32262537 0.28966698 2.0354824
-0.2989167 0.2356624 2.0300598
-0.27511057 0.18256715 2.0296535
-0.30260113 0.33974952 2.0270107
-0.2758221 0.28466195 2.0255122
-0.2563135 0.23793229 2.0613139
-0.23300466 0.18836966 2.0869896
-0.26042947 0.33741823 2.0361819
-0.23677182 0.29052949 2.0799055
-0.21334276 0.24285798 2.1116157
-0.18861434 0.19489348 2.1593008
-0.22229625 0.34521666 2.094629
-0.19552681 0.29820862 2.144294
-0.16896726 0.25039971 2.182945
-0.1412995 0.20147888 2.2275574
-0.18210331 0.35395348 2.1560552
-0.15230091 0.30589867 2.2076454
-0.20374769 0.526838 4.1112504
-0.1623631 0.50978643 4.8264098
-0.13973829 0.36352012 2.2264588
-0.15289044 0.54146731 3.6213968
-0.10925937 0.52601224 4.1364751
-0.046144843 0.50813514 4.8372078
-0.12274788 0.55798954 3.2530065
-0.072455756 0.54074603 3.6438854
-0.012962565 0.52436042 4.1516476
0.068496183 0.50303078 4.8179622
-0.052529089 0.55450368 3.2646327
0.0088812187 0.53911173 3.661339
0.082334407 0.52271217 4.1668386
0.18493217 0.50418007 4.8398104
0.016832735 0.55389422 3.2833292
0.090143308 0.53754985 3.674794
0.1795226 0.522165 4.176012
0.29861867 0.50104272 4.8226194
0.086916551 0.5495351 3.28794
0.1726003 0.53780323 3.6982625
0.27666944 0.52065426 4.1831679
0.4156495 0.49956876 4.8234015
0.15918028 0.54800558 3.301564
0.25653177 0.53353864 3.694613
0.37364382 0.51830643 4.1813092
0.53030235 0.49746382 4.8042107
0.23271772 0.54921871 3.3292184
0.33966243 0.53209615 3.7010324
0.47271538 0.5168609 4.1844296
0.64976037 0.49958402 4.8270202
0.30584237 0.54581249 3.3357899
0.42706236 0.53238583 3.7214081
-0.02611593 -0.059798401 0.050936799
-0.02611593 -0.059798401 0.050936799
0.37995204 0.54342061 3.341361
-0.02611593 -0.059798401 0.050936799
-0.02611593 -0.059798401 0.050936799
-0.02611593 -0.059798401 0.050936799
-0.02611593 -0.059798401 0.050936799
0.16690031 0.12202228 1.1859967
-0.02611593 -0.059798401 0.050936799
0.26812199 0.10051658 1.4137897
0.16401382 0.14601089 1.1874852
-0.02611593 -0.059798401 0.050936799
0.2714265 0.13031982 1.4242705
1.1343703 0.50821203 4.8531117
0.61096632 0.54358184 3.3930562
0.27048048 0.15837291 1.4217948
-0.02611593 -0.059798401 0.050936799
1.2498211 0.5073024 4.8229237
0.26663256 0.18734615 1.4243919
0.86028177 0.52552509 3.730176
-0.02611593 -0.059798401 0.050936799
1.3599236 0.50373673 4.7747812
0.76278377 0.53716403 3.3830943
0.94826567 0.52520931 3.7285225
1.161528 0.50738078 4.1163387
1.4573014 0.49690232 4.6888051
0.84507233 0.53758007 3.3975663
1.0307628 0.52036452 3.7018812
1.2623786 0.50714493 4.1074429
1.5473957 0.48936453 4.5879483
0.92518872 0.53716636 3.4030607
1.126038 0.52275175 3.7151451
1.3759094 0.51323175 4.1334367
-0.02611593 -0.059798401 0.050936799
1.0072447 0.53579992 3.4055004
1.2160068 0.52344662 3.7124724
1.4828602 0.51488352 4.1294622
0.38676748 0.067043975 1.08085
1.0839942 0.53274113 3.3920033
1.3057578 0.52134109 3.6987493
-0.02611593 -0.059798401 0.050936799
0.50581867 0.093809195 1.2901763
1.1681098 0.53231305 3.3974228
-0.02611593 -0.059798401 0.050936799
0.50304455 0.11768927 1.2976627
1.8489399 0.45521811 4.1415329
-0.02611593 -0.059798401 0.050936799
0.48780361 0.13704737 1.2812926
1.7876474 0.51590663 4.0617518
1.9148061 0.44598377 4.0290952
0.38872796 0.11926312 1.0687537
-0.02611593 -0.059798401 0.050936799
1.8746046 0.51256835 4.0060444
1.9808338 0.43960428 3.9247081
0.51522994 0.16062079 1.2992116
1.6759596 0.52071506 3.652791
1.9501362 0.50566816 3.9284792
2.0480525 0.43404013 3.830317
-0.02611593 -0.059798401 0.050936799
1.7811247 0.52417475 3.6598873
2.0225747 0.49886906 3.8459718
2.1091411 0.42862415 3.7290409
1.5915632 0.52622634 3.3653734
1.8768715 0.52606499 3.6451237
2.0858047 0.49130157 3.7526195
2.1714211 0.42402348 3.6377606
1.6825318 0.52691758 3.3626821
1.9724983 0.52606416 3.6243262
2.1460545 0.48372668 3.6603231
2.232682 0.4194445 3.5454993
1.7713658 0.52674294 3.3530123
2.0608335 0.52336025 3.5886114
2.2083974 0.47605416 3.5729876
2.2909474 0.41587612 3.4533131
1.8704118 0.52833301 3.354187
2.1388674 0.51998192 3.5370717
2.2688043 0.47033426 3.4887245
2.3472512 0.41227877 3.363163
1.9870023 0.53535455 3.383141
2.2282104 0.51927406 3.5013742
2.3230591 0.46378073 3.396559
2.4056892 0.40954739 3.2799916
2.0838573 0.53613287 3.3743389
2.2907777 0.51138449 3.4260345
2.3794856 0.45805711 3.3133707
2.4620714 0.40687746 3.1938584
2.1569216 0.53073663 3.3248563
2.3523493 0.50449836 3.3507316
2.4400132 0.45422819 3.2351418
2.5144355 0.40424001 3.1068008
2.2484848 0.52880472 3.3010991
2.4047091 0.49584389 3.2645655
2.4883249 0.44764203 3.1460879
2.574054 0.40434179 3.0326612
2.3389776 0.52794862 3.27338
2.4592068 0.48905513 3.1853957
2.5458753 0.44480574 3.068933
2.6244786 0.402657 2.9486582
2.4140415 0.52254516 3.22386
2.5137236 0.48224837 3.1072252
2.6004038 0.44099846 2.9908166
2.6779625 0.40190712 2.8676157
2.482934 0.51632619 3.1654379
2.5641434 0.47454658 3.0241137
2.6498356 0.4362998 2.9077783
2.7305036 0.40110657 2.7895911
2.5282679 0.50571525 3.0783677
2.6187615 0.46964905 2.9509776
2.7023873 0.4334814 2.8307171
2.7830667 0.40128762 2.712584
2.5787737 0.49592337 3.0002184
2.6723197 0.46380955 2.8748436
2.7539616 0.4316484 2.7546928
2.8315558 0.40155548 2.6316538
2.6333988 0.48800823 2.9280279
2.7238975 0.45795909 2.7997465
2.7953386 0.42703268 2.6688051
2.873986 0.40089932 2.5478191
2.6819127 0.48022318 2.8499522
2.7704043 0.45319882 2.720763
2.8520098 0.42609107 2.5977032
2.9794405 0.41006002 2.5159996
2.7314787 0.47138044 2.7748392
2.8220043 0.4483301 2.6466837
2.9056623 0.42517841 2.5256577
3.0330484 0.41220105 2.441009
2.7851677 0.46541426 2.7057023
2.8715899 0.44448647 2.5716605
3.0111504 0.43330312 2.4958196
3.0815978 0.41341448 2.3630958
2.8357606 0.4585495 2.6316061
2.9476209 0.44513267 2.5192306
3.068825 0.43335772 2.4247165
3.1362286 0.41653365 2.2891045
2.8741784 0.44989091 2.548702
3.213582 0.47737044 2.614867
3.1031699 0.4298031 2.3369796
3.1787 0.41684115 2.2072871
3.0203822 0.46018428 2.5561533
3.2366662 0.4690913 2.5142508
3.1426194 0.42913964 2.2542007
3.2333348 0.42096016 2.1333137
3.4488354 0.51650959 2.7782257
3.1187527 0.43917829 2.3128493
3.1952386 0.42926648 2.1801929
3.2788701 0.42320225 2.0544746
3.1895456 0.45930737 2.4569368
3.1653016 0.43538162 2.2358828
3.2438216 0.42944384 2.1042607
3.974885 0.52017283 2.3492973
3.1203959 0.43449754 2.2947276
3.2159135 0.43351606 2.1618764
3.3005042 0.43150178 2.0332127
4.0200453 0.52277666 2.2504656
3.1710148 0.42961442 2.2216668
3.2584293 0.43076977 2.0830042
3.9539113 0.52018529 2.2976727
4.0571098 0.52449983 2.1467676
3.2185969 0.42477819 2.146663
3.9485197 0.52267218 2.3828478
4.0152559 0.52255094 2.2085366
4.1083479 0.52800965 2.0518396
3.2631419 0.41998881 2.0697162
4.0291047 0.52473438 2.3063502
4.0745788 0.52394193 2.1184208
4.1292992 0.52889895 1.9424262
4.072576 0.52419919 2.437571
4.0914373 0.52409691 2.2171416
4.1258316 0.52643383 2.0244744
4.1523066 0.52972692 1.8359746
4.1753216 0.52501982 2.3696392
4.1820464 0.52810478 2.1414919
4.1669812 0.52605247 1.9256637
4.1773543 0.53151125 1.7315024
4.2658777 0.52506459 2.2919183
4.2534232 0.52939844 2.0541494
4.2171931 0.52758431 1.8297188
4.1933436 0.53238237 1.6241825
4.4492927 0.53698099 2.2566881
4.331821 0.53164876 1.9676929
4.256351 0.52920985 1.7309816
4.2234507 0.53509438 1.5226333
4.5063853 0.53257918 2.1555052
4.385006 0.53118825 1.870656
4.302526 0.53079224 1.6331124
4.2395 0.53691101 1.4183303
4.6401448 0.53828776 2.087081
4.4532704 0.53260118 1.7773718
4.3295689 0.53156966 1.5285848
4.2656116 0.54063714 1.3168746
4.7758479 0.5440433 2.01562
4.5144992 0.5340755 1.6822199
4.3697305 0.53419143 1.4298469
4.2776618 0.54246813 1.2126466
4.7199478 0.52596861 1.8652886
4.5585504 0.53277415 1.5783364
4.4148912 0.53679544 1.3310149
4.2917166 0.54529178 1.1083993
4.80619 0.52733505 1.7706666
4.6156673 0.53437126 1.4772615
4.4308767 0.53666657 1.2236768
4.2947683 0.54715508 1.0043406
4.8963909 0.52772343 1.6739521
4.6426239 0.53222144 1.3686812
4.4850659 0.54221964 1.1257296
4.3118777 0.54991376 0.90303588
4.9805174 0.52820575 1.5733516
4.6926637 0.53291631 1.2637213
4.5171537 0.5449425 1.0231433
4.3089118 0.55181676 0.79809022
5.1048284 0.53438079 1.4811046
4.7738857 0.53833622 1.167266
4.5612664 0.549604 0.92136723
4.3240252 0.55558234 0.69684106
5.1657233 0.53216314 1.3688864
4.844974 0.54291874 1.063983
4.565217 0.54955435 0.81225544
4.336144 0.56035858 0.59566629
5.253685 0.53379381 1.2592318
4.9110074 0.54757363 0.95779473
4.5932493 0.55234593 0.70674527
4.3482809 0.56511676 0.49549115
5.3486533 0.53739905 1.1494818
4.9599576 0.5493623 0.84787339
4.6152639 0.55517709 0.60034823
4.3403535 0.56700146 0.3926388
-0.02611593 -0.059798401 0.050936799
4.9857731 0.54936039 0.73135054
4.6613283 0.56188524 0.49557167
4.3324447 0.5688681 0.29078612
5.5212774 0.54096043 0.91423446
5.0346742 0.55320305 0.6184662
4.6632638 0.56286085 0.38551575
-0.02611593 -0.059798401 0.050936799
-0.02611593 -0.059798401 0.050936799
5.0624747 0.55421197 0.50092411
-0.02611593 -0.059798401 0.050936799
3.5279982 0.45975658 0.082803287
-0.02611593 -0.059798401 0.050936799
5.1213222 0.55907273 0.38487092
-0.02611593 -0.059798401 0.050936799
2.9792256 0.38223493 0.0086503513
6.0288262 0.57636929 0.55925202
3.5839047 0.37340641 0.20023438
-0.02611593 -0.059798401 0.050936799
3.0029531 0.38939235 -0.060687922
5.9880342 0.56716681 0.4127996
3.5352492 0.36615041 0.11398485
2.9896815 0.34458181 -0.013233934
2.8247263 0.36615336 -0.11979145
3.559325 0.31082889 0.18155628
3.0114379 0.30362687 0.034634121
2.9743884 0.34488037 -0.081965499
2.780539 0.36344796 -0.18203416
3.5276887 0.30449355 0.096004993
3.0201027 0.30387551 -0.036547743
2.7222292 0.31181818 -0.1348604
2.6125619 0.3419376 -0.22829399
3.0249276 0.25087509 0.017421497
3.0497382 0.30708435 -0.11006947
2.6461031 0.30415618 -0.19259328
2.4287257 0.31734043 -0.26630989
3.0515745 0.25207698 -0.055080239
2.7816088 0.27606124 -0.16162801
2.6858835 0.31120184 -0.25923321
2.3767753 0.31242895 -0.31544274
3.0851679 0.2543079 -0.13069446
2.6665227 0.26248589 -0.21573721
1.9431057 0.21141545 -0.22111852
2.3019297 0.30449197 -0.35819951
2.6761856 0.21162999 -0.17082283
2.7252097 0.27055368 -0.28771445
2.3004055 0.26289108 -0.32491219
2.3338168 0.31447542 -0.41963673
2.7178938 0.21472345 -0.24057141
1.9486527 0.17770721 -0.23883814
2.3352621 0.26988238 -0.38745952
2.3646629 0.32349885 -0.48307252
2.7495813 0.2168711 -0.31114975
2.3337634 0.22524583 -0.35222697
2.3631191 0.27689883 -0.44987532
2.4612219 0.34359103 -0.5645445
2.334301 0.1755487 -0.31412306
2.3645937 0.23026995 -0.4157348
2.3919389 0.28394783 -0.51430929
2.5815859 0.36779541 -0.65739167
2.3691037 0.17857684 -0.3787418
2.3914063 0.23532645 -0.48016718
2.6636908 0.32623672 -0.64467645
2.4709373 0.3557893 -0.68854785
2.3988893 0.18164104 -0.44426626
2.565588 0.25849998 -0.58304405
2.5529859 0.31428489 -0.67883152
2.4936726 0.36494991 -0.75783122
2.4704766 0.1887528 -0.52150404
2.6380599 0.26973405 -0.66722625
2.4443367 0.30227166 -0.71002513
2.4348207 0.36097297 -0.80181628
2.7062953 0.21304733 -0.64452147
2.5183899 0.25677857 -0.69923085
2.4501343 0.30742162 -0.77506262
-0.02611593 -0.059798401 0.050936799
2.6054468 0.20320399 -0.68682575
2.4077637 0.24575423 -0.72936928
2.2302666 0.27901718 -0.76045489
0.18746959 -0.023110926 -0.033427045
2.4828038 0.19224083 -0.71773833
2.4433577 0.25299519 -0.80593067
-0.02611593 -0.059798401 0.050936799
-0.02611593 -0.059798401 0.050936799
2.4736221 0.19240931 -0.78058463
-0.02611593 -0.059798401 0.050936799
0.1863979 -0.027052389 -0.036479313
0.16640942 -0.024980949 -0.036067467
2.3888757 0.18541762 -0.81813717
0.18841535 -0.032094896 -0.034607667
-0.02611593 -0.059798401 0.050936799
-0.02611593 -0.059798401 0.050936799
-0.02611593 -0.059798401 0.050936799
-0.02611593 -0.059798401 0.050936799
0.16136803 -0.030943897 -0.037081294
0.14442039 -0.027919576 -0.034708463
0.18535487 -0.038046934 -0.036658727
0.17231679 -0.033946685 -0.039341364
-0.02611593 -0.059798401 0.050936799
-0.02611593 -0.059798401 0.050936799
-0.02611593 -0.059798401 0.050936799
-0.02611593 -0.059798401 0.050936799
0.136417 -0.033907931 -0.0336666
0.12837799 -0.029825635 -0.036443189
0.16032892 -0.040938608 -0.037242688
0.1493092 -0.036863633 -0.038963236
-0.02611593 -0.059798401 0.050936799
-0.02611593 -0.059798401 0.050936799
-0.02611593 -0.059798401 0.050936799
-0.02611593 -0.059798401 0.050936799
0.1174126 -0.035839405 -0.033345617
0.10940713 -0.032793112 -0.034140889
0.13436329 -0.042881135 -0.034790836
0.13128985 -0.037780773 -0.039642684
-0.02611593 -0.059798401 0.050936799
-0.02611593 -0.059798401 0.050936799
-0.02611593 -0.059798401 0.050936799
-0.02611593 -0.059798401 0.050936799
0.10440714 -0.037792407 -0.033137374
0.097401477 -0.034749705 -0.033951439
0.12230539 -0.043783631 -0.03758236
0.11428512 -0.039719425 -0.039359283
-0.02611593 -0.059798401 0.050936799
-0.02611593 -0.059798401 0.050936799
-0.02611593 -0.059798401 0.050936799
-0.02611593 -0.059798401 0.050936799
0.09040577 -0.038741991 -0.032892328
0.086399563 -0.035710059 -0.03376276
0.10235736 -0.04576578 -0.034243595
0.097336538 -0.041712336 -0.0360769
-0.02611593 -0.059798401 0.050936799
-0.02611593 -0.059798401 0.050936799
-0.02611593 -0.059798401 0.050936799
-0.02611593 -0.059798401 0.050936799
0.079403855 -0.039702345 -0.032703649
0.073431537 -0.037699241 -0.031555202
0.094280012 -0.04666454 -0.03810994
0.084334992 -0.042665511 -0.03585064
-0.02611593 -0.059798401 0.050936799
-0.02611593 -0.059798401 0.050936799
-0.02611593 -0.059798401 0.050936799
-0.02611593 -0.059798401 0.050936799
0.06843546 -0.041698702 -0.030533664
0.06837628 -0.037627026 -0.034460235
0.077354074 -0.047675714 -0.033809867
0.076295085 -0.043600451 -0.037717655
-0.02611593 -0.059798401 0.050936799
-0.02611593 -0.059798401 0.050936799
-0.02611593 -0.059798401 0.050936799
-0.02611593 -0.059798401 0.050936799
0.064342573 -0.041593902 -0.03545681
0.057407878 -0.039623387 -0.032290258
0.066370882 -0.048654158 -0.03262154
0.068273902 -0.044553485 -0.038585011
-0.02611593 -0.059798401 0.050936799
-0.02611593 -0.059798401 0.050936799
-0.02611593 -0.059798401 0.050936799
-0.02611593 -0.059798401 0.050936799
0.052434459 -0.042641111 -0.030251034
0.053356376 -0.038554937 -0.035196062
0.061315637 -0.048581947 -0.03552657
0.058309246 -0.045553602 -0.036415804
-0.02611593 -0.059798401 0.050936799
-0.02611593 -0.059798401 0.050936799
-0.02611593 -0.059798401 0.050936799
-0.02611593 -0.059798401 0.050936799
0.047394004 -0.043586817 -0.032174427
0.043406516 -0.040572971 -0.032045208
0.05329445 -0.049534976 -0.036393926
0.052272893 -0.04549589 -0.038302381
-0.02611593 -0.059798401 0.050936799
-0.02611593 -0.059798401 0.050936799
-0.02611593 -0.059798401 0.050936799
-0.02611593 -0.059798401 0.050936799
0.043319844 -0.043500107 -0.036097907
0.038369987 -0.04051885 -0.033950575
0.04433354 -0.049538851 -0.034225482
0.040364783 -0.046543095 -0.033096597
-0.02611593 -0.059798401 0.050936799
-0.02611593 -0.059798401 0.050936799
-0.02611593 -0.059798401 0.050936799
-0.02611593 -0.059798401 0.050936799
0.033392638 -0.044536404 -0.031929377
0.035333093 -0.040471904 -0.03589353
0.039297007 -0.04948473 -0.036130857
0.036309343 -0.046474472 -0.036020428
-0.02611593 -0.059798401 0.050936799
-0.02611593 -0.059798401 0.050936799
-0.02611593 -0.059798401 0.050936799
-0.02611593 -0.059798401 0.050936799
0.028393554 -0.04451846 -0.031835426
0.029311538 -0.041432109 -0.036798462
0.033275459 -0.050444935 -0.037035793
0.031272814 -0.046420351 -0.037925795
-0.02611593 -0.059798401 0.050936799
-0.02611593 -0.059798401 0.050936799
-0.02611593 -0.059798401 0.050936799
-0.02611593 -0.059798401 0.050936799
-0.02611593 -0.059798401 0.050936799
0.022365062 -0.04246109 -0.03368596
0.026314188 -0.050455991 -0.034904942
0.02625108 -0.047384147 -0.038849529
-0.02611593 -0.059798401 0.050936799
-0.02611593 -0.059798401 0.050936799
-0.02611593 -0.059798401 0.050936799
-0.02611593 -0.059798401 0.050936799
-0.02611593 -0.059798401 0.050936799
0.018328344 -0.042410553 -0.035610124
0.021296374 -0.050419956 -0.035810646
-0.02611593 -0.059798401 0.050936799
-0.02611593 -0.059798401 0.050936799
-0.02611593 -0.059798401 0.050936799
-0.02611593 -0.059798401 0.050936799
-0.02611593 -0.059798401 0.050936799
-0.02611593 -0.059798401 0.050936799
-0.02611593 -0.059798401 0.050936799
-0.02611593 -0.059798401 0.050936799
0.017196558 -0.047297582 -0.04167939
-0.02611593 -0.059798401 0.050936799
-0.02611593 -0.059798401 0.050936799
-0.02611593 -0.059798401 0.050936799
-0.02611593 -0.059798401 0.050936799
-0.02611593 -0.059798401 0.050936799
-0.02611593 -0.059798401 0.050936799
0.012204409 -0.050297212 -0.040639836
-0.02611593 -0.059798401 0.050936799
-0.02611593 -0.059798401 0.050936799
-0.02611593 -0.059798401 0.050936799
-0.02611593 -0.059798401 0.050936799
-0.02611593 -0.059798401 0.050936799
-0.02611593 -0.059798401 0.050936799
-0.02611593 -0.059798401 0.050936799
-0.02611593 -0.059798401 0.050936799
-0.02611593 -0.059798401 0.050936799
-0.02611593 -0.059798401 0.050936799
-0.02611593 -0.059798401 0.050936799
-0.02611593 -0.059798401 0.050936799
-0.02611593 -0.059798401 0.050936799
-0.02611593 -0.059798401 0.050936799
-0.02611593 -0.059798401 0.050936799
-0.02611593 -0.059798401 0.050936799
-0.02611593 -0.059798401 0.050936799
-0.02611593 -0.059798401 0.050936799
-0.02611593 -0.059798401 0.050936799
-0.02611593 -0.059798401 0.050936799
-0.02611593 -0.059798401 0.050936799
-0.02611593 -0.059798401 0.050936799
-0.02611593 -0.059798401 0.050936799
-0.02611593 -0.059798401 0.050936799
-0.02611593 -0.059798401 0.050936799
-0.02611593 -0.059798401 0.050936799
-0.02611593 -0.059798401 0.050936799
-0.02611593 -0.059798401 0.050936799
-0.02611593 -0.059798401 0.050936799
-0.02611593 -0.059798401 0.050936799
-0.02611593 -0.059798401 0.050936799
-0.02611593 -0.059798401 0.050936799
-0.02611593 -0.059798401 0.050936799
-0.02611593 -0.059798401 0.050936799
-0.02611593 -0.059798401 0.050936799
-0.02611593 -0.059798401 0.050936799
-0.02611593 -0.059798401 0.050936799
-0.02611593 -0.059798401 0.050936799
-0.02611593 -0.059798401 0.050936799
-0.02611593 -0.059798401 0.050936799
-0.02611593 -0.059798401 0.050936799
-0.02611593 -0.059798401 0.050936799
-0.02611593 -0.059798401 0.050936799
-0.02611593 -0.059798401 0.050936799
-0.02611593 -0.059798401 0.050936799
-0.02611593 -0.059798401 0.050936799
-0.02611593 -0.059798401 0.050936799
-0.02611593 -0.059798401 0.050936799
-0.02611593 -0.059798401 0.050936799
-0.02611593 -0.059798401 0.050936799
-0.02611593 -0.059798401 0.050936799
-0.02611593 -0.059798401 0.050936799
-0.02611593 -0.059798401 0.050936799
-0.02611593 -0.059798401 0.050936799
-0.02611593 -0.059798401 0.050936799
-0.02611593 -0.059798401 0.050936799
-0.02611593 -0.059798401 0.050936799
-0.02611593 -0.059798401 0.050936799
-0.02611593 -0.059798401 0.050936799
-0.02611593 -0.059798401 0.050936799
-0.02611593 -0.059798401 0.050936799
-0.02611593 -0.059798401 0.050936799
-0.02611593 -0.059798401 0.050936799
-0.02611593 -0.059798401 0.050936799
-0.02611593 -0.059798401 0.050936799
-0.02611593 -0.059798401 0.050936799
-0.02611593 -0.059798401 0.050936799
-0.02611593 -0.059798401 0.050936799
-0.02611593 -0.059798401 0.050936799
-0.02611593 -0.059798401 0.050936799
-0.02611593 -0.059798401 0.050936799
-0.02611593 -0.059798401 0.050936799
-0.02611593 -0.059798401 0.050936799
-0.02611593 -0.059798401 0.050936799
-0.02611593 -0.059798401 0.050936799
-0.02611593 -0.059798401 0.050936799
-0.02611593 -0.059798401 0.050936799
-0.02611593 -0.059798401 0.050936799
-0.02611593 -0.059798401 0.050936799
-0.02611593 -0.059798401 0.050936799
-0.02611593 -0.059798401 0.050936799
-0.02611593 -0.059798401 0.050936799
-0.02611593 -0.059798401 0.050936799
-0.02611593 -0.059798401 0.050936799
-0.02611593 -0.059798401 0.050936799
-0.02611593 -0.059798401 0.050936799
-0.02611593 -0.059798401 0.050936799
-0.02611593 -0.059798401 0.050936799
-0.02611593 -0.059798401 0.050936799
-0.02611593 -0.059798401 0.050936799
-0.02611593 -0.059798401 0.050936799
-0.02611593 -0.059798401 0.050936799
-0.02611593 -0.059798401 0.050936799
-0.02611593 -0.059798401 0.050936799
-0.02611593 -0.059798401 0.050936799
-0.02611593 -0.059798401 0.050936799
-0.02611593 -0.059798401 0.050936799
-0.02611593 -0.059798401 0.050936799
-0.02611593 -0.059798401 0.050936799
-0.02611593 -0.059798401 0.050936799
-0.02611593 -0.059798401 0.050936799
-0.02611593 -0.059798401 0.050936799
-0.02611593 -0.059798401 0.050936799
-0.02611593 -0.059798401 0.050936799
-0.02611593 -0.059798401 0.050936799
-0.02611593 -0.059798401 0.050936799
-0.02611593 -0.059798401 0.050936799
-0.02611593 -0.059798401 0.050936799
-0.02611593 -0.059798401 0.050936799
-0.02611593 -0.059798401 0.050936799
-0.02611593 -0.059798401 0.050936799
-0.02611593 -0.059798401 0.050936799
-0.02611593 -0.059798401 0.050936799
-0.02611593 -0.059798401 0.050936799
-0.02611593 -0.059798401 0.050936799
-0.02611593 -0.059798401 0.050936799
-0.02611593 -0.059798401 0.050936799
-0.02611593 -0.059798401 0.050936799
-0.02611593 -0.059798401 0.050936799
-0.02611593 -0.059798401 0.050936799
-0.02611593 -0.059798401 0.050936799
-0.02611593 -0.059798401 0.050936799
-0.02611593 -0.059798401 0.050936799
-0.02611593 -0.059798401 0.050936799
-0.02611593 -0.059798401 0.050936799
-0.02611593 -0.059798401 0.050936799
-0.02611593 -0.059798401 0.050936799
-0.02611593 -0.059798401 0.050936799
-0.02611593 -0.059798401 0.050936799
-0.02611593 -0.059798401 0.050936799
-0.02611593 -0.059798401 0.050936799
-0.02611593 -0.059798401 0.050936799
-0.02611593 -0.059798401 0.050936799
-0.02611593 -0.059798401 0.050936799
-0.02611593 -0.059798401 0.050936799
-0.02611593 -0.059798401 0.050936799
-0.02611593 -0.059798401 0.050936799
-0.02611593 -0.059798401 0.050936799
-0.02611593 -0.059798401 0.050936799
-0.02611593 -0.059798401 0.050936799
-0.02611593 -0.059798401 0.050936799
-0.02611593 -0.059798401 0.050936799
-0.02611593 -0.059798401 0.050936799
-0.02611593 -0.059798401 0.050936799
-0.070802145 -0.045963835 -0.04100747
-0.02611593 -0.059798401 0.050936799
-0.02611593 -0.059798401 0.050936799
-0.02611593 -0.059798401 0.050936799
-0.02611593 -0.059798401 0.050936799
-0.02611593 -0.059798401 0.050936799
-0.067734733 -0.043029379 -0.038010802
-0.02611593 -0.059798401 0.050936799
-0.073711902 -0.047043346 -0.035970807
-0.02611593 -0.059798401 0.050936799
-0.02611593 -0.059798401 0.050936799
-0.02611593 -0.059798401 0.050936799
-0.02611593 -0.059798401 0.050936799
-0.02611593 -0.059798401 0.050936799
-0.02611593 -0.059798401 0.050936799
-0.078658752 -0.048079498 -0.032895897
-0.077688523 -0.046047244 -0.034877967
-0.02611593 -0.059798401 0.050936799
-0.02611593 -0.059798401 0.050936799
-0.02611593 -0.059798401 0.050936799
-0.02611593 -0.059798401 0.050936799
-0.078684404 -0.04504383 -0.034841161
-0.0756623 -0.044072855 -0.033879854
-0.085676186 -0.048036285 -0.03376402
-0.085743219 -0.045964267 -0.037726626
-0.02611593 -0.059798401 0.050936799
-0.02611593 -0.059798401 0.050936799
-0.02611593 -0.059798401 0.050936799
-0.02611593 -0.059798401 0.050936799
-0.082646236 -0.045065653 -0.032766677
-0.081676006 -0.043033402 -0.034748748
-0.091689885 -0.046996832 -0.034632917
-0.09377528 -0.044899553 -0.039557606
-0.02611593 -0.059798401 0.050936799
-0.02611593 -0.059798401 0.050936799
-0.02611593 -0.059798401 0.050936799
-0.02611593 -0.059798401 0.050936799
-0.087607875 -0.045083884 -0.030673392
-0.086675085 -0.043015458 -0.034654796
-0.096651524 -0.047015067 -0.032539647
-0.093629427 -0.046044089 -0.031578332
-0.02611593 -0.059798401 0.050936799
-0.02611593 -0.059798401 0.050936799
-0.02611593 -0.059798401 0.050936799
-0.02611593 -0.059798401 0.050936799
-0.095677368 -0.043982986 -0.034503702
-0.090618201 -0.04305537 -0.031580649
-0.1005907 -0.046055146 -0.029447481
-0.10369462 -0.043936189 -0.035353035
-0.02611593 -0.059798401 0.050936799
-0.02611593 -0.059798401 0.050936799
-0.02611593 -0.059798401 0.050936799
-0.02611593 -0.059798401 0.050936799
-0.10165755 -0.043979544 -0.033391297
-0.097616918 -0.043030247 -0.031449117
-0.11164093 -0.044961575 -0.032221753
-0.10763773 -0.043976102 -0.032278895
-0.02611593 -0.059798401 0.050936799
-0.02611593 -0.059798401 0.050936799
-0.02611593 -0.059798401 0.050936799
-0.02611593 -0.059798401 0.050936799
-0.10252631 -0.044102579 -0.026374876
-0.10259728 -0.043030392 -0.030355494
-0.11658385 -0.044997897 -0.029128816
-0.11970649 -0.042860847 -0.036034036
-0.02611593 -0.059798401 0.050936799
-0.02611593 -0.059798401 0.050936799
-0.02611593 -0.059798401 0.050936799
-0.02611593 -0.059798401 0.050936799
-0.11155818 -0.04303427 -0.028187063
-0.10654037 -0.043070301 -0.027281355
-0.12861124 -0.042918988 -0.030866608
-0.12666385 -0.041872069 -0.033885155
-0.02611593 -0.059798401 0.050936799
-0.02611593 -0.059798401 0.050936799
-0.02611593 -0.059798401 0.050936799
-0.02611593 -0.059798401 0.050936799
-0.12158986 -0.04196237 -0.029980458
-0.11760933 -0.041958638 -0.031055287
-0.13557251 -0.042930048 -0.028735757
-0.13666202 -0.04183618 -0.033697251
-0.02611593 -0.059798401 0.050936799
-0.02611593 -0.059798401 0.050936799
-0.02611593 -0.059798401 0.050936799
-0.02611593 -0.059798401 0.050936799
-0.1336212 -0.040883295 -0.031736284
-0.12964064 -0.040879562 -0.032811105
-0.14859971 -0.040847555 -0.030454759
-0.14563772 -0.040822141 -0.032510456
-0.02611593 -0.059798401 0.050936799
-0.02611593 -0.059798401 0.050936799
-0.02611593 -0.059798401 0.050936799
-0.02611593 -0.059798401 0.050936799
-0.14058247 -0.040894352 -0.029605418
-0.13354631 -0.040955652 -0.027737632
-0.15753798 -0.039869688 -0.027268644
-0.15357617 -0.039847866 -0.029343124
-0.02611593 -0.059798401 0.050936799
-0.02611593 -0.059798401 0.050936799
-0.02611593 -0.059798401 0.050936799
-0.02611593 -0.059798401 0.050936799
-0.15053926 -0.039894812 -0.027400177
-0.14557762 -0.039876577 -0.029493447
-0.17960098 -0.037718717 -0.030817866
-0.17160246 -0.037747432 -0.030968189
-0.02611593 -0.059798401 0.050936799
-0.02611593 -0.059798401 0.050936799
-0.02611593 -0.059798401 0.050936799
-0.02611593 -0.059798401 0.050936799
-0.16557002 -0.038804971 -0.029099617
-0.15252016 -0.039905719 -0.026362937
-0.19858573 -0.034651041 -0.030406792
-0.18659577 -0.036693767 -0.030668311
-0.02611593 -0.059798401 0.050936799
-0.02611593 -0.059798401 0.050936799
-0.02611593 -0.059798401 0.050936799
-0.02611593 -0.059798401 0.050936799
-0.17650792 -0.037819929 -0.025875926
-0.16853204 -0.038830385 -0.027043927
-0.21553731 -0.032626543 -0.02805198
-0.20961723 -0.033575553 -0.032181393
-0.02611593 -0.059798401 0.050936799
-0.02611593 -0.059798401 0.050936799
-0.02611593 -0.059798401 0.050936799
-0.02611593 -0.059798401 0.050936799
-0.19651514 -0.035730407 -0.026463736
-0.18452519 -0.037773129 -0.026725259
-0.24655339 -0.028479792 -0.029396735
-0.23561943 -0.030464659 -0.032638442
-0.02611593 -0.059798401 0.050936799
-0.02611593 -0.059798401 0.050936799
-0.02611593 -0.059798401 0.050936799
-0.02611593 -0.059798401 0.050936799
-0.22555421 -0.032572567 -0.028863743
-0.21158335 -0.034604385 -0.030162513
-0.25438339 -0.028613882 -0.020249452
-0.2595658 -0.027415216 -0.030134097
-0.02611593 -0.059798401 0.050936799
-0.02611593 -0.059798401 0.050936799
-0.02611593 -0.059798401 0.050936799
-0.02611593 -0.059798401 0.050936799
-0.25152287 -0.030497681 -0.027339481
-0.23757073 -0.032511413 -0.029637922
-0.97455269 0.071488842 -0.20101649
-0.96202403 0.066877179 -0.22534272
-0.02611593 -0.059798401 0.050936799
-0.02611593 -0.059798401 0.050936799
-0.99018615 0.073202237 -0.18168622
-0.97868001 0.06761241 -0.20701136
-0.96414083 0.060975824 -0.23041153
-0.26352462 -0.031454444 -0.027132016
-0.99075538 0.072789781 -0.15867522
-0.98928475 0.067272022 -0.18581176
-0.97576416 0.060657106 -0.2101928
-0.02611593 -0.059798401 0.050936799
-1.0164018 0.075556971 -0.14013872
-0.99589032 0.066917278 -0.16468735
-0.98940587 0.060363661 -0.19093621
-0.97693044 0.051788844 -0.21733382
-1.0360118 0.078266449 -0.11971563
-1.0094906 0.06758748 -0.14341339
-0.9990108 0.060019679 -0.16975541
-0.99057603 0.050495565 -0.19809522
-1.0285491 0.076789267 -0.094873652
-1.0321416 0.069344081 -0.12495126
-1.0066203 0.058668692 -0.14863022
-1.0031844 0.049162529 -0.17687607
-1.0521584 0.079513118 -0.074375413
-1.0326921 0.068913527 -0.1009406
-1.0222387 0.059364162 -0.12831834
-1.0158076 0.048847407 -0.15663858
-1.0667546 0.081186742 -0.053064629
-1.048292 0.069590919 -0.079629056
-1.0368429 0.059038125 -0.1070436
-1.0294158 0.047517948 -0.13540065
-1.084313 0.082834959 -0.029698156
-1.0708867 0.07129325 -0.058167964
-1.0454106 0.058654379 -0.08388228
-1.0400059 0.046159629 -0.11321943
-1.0978719 0.084468812 -0.0064068437
-1.0814502 0.071916506 -0.034951039
-1.0650138 0.058346283 -0.062513597
-1.0455779 0.044765286 -0.090132497
-1.1154261 0.087116852 0.016977642
-1.0980126 0.072561301 -0.011621378
-1.0765771 0.058973126 -0.039277874
-1.0621817 0.044446424 -0.068820179
-1.1289477 0.088714533 0.042268276
-1.1195701 0.074223861 0.01182026
-1.0981572 0.059653956 -0.016853921
-1.0657395 0.042026989 -0.044789188
-1.1394696 0.090301439 0.067502536
-1.1371095 0.075853981 0.03618639
-1.1167192 0.060305927 0.0065133274
-1.0923374 0.04274385 -0.023270942
-1.1540097 0.091920801 0.091812298
-1.1406407 0.07541611 0.061253086
-1.1232537 0.058878992 0.031618364
-1.1128842 0.042385083 0.0011155233
-1.165513 0.093493208 0.11806501
-1.1541661 0.076013975 0.086525701
-1.142778 0.059498377 0.057003722
-1.1204374 0.040979825 0.025239695
-1.1750164 0.095058434 0.14428014
-1.1746638 0.078618504 0.11296554
-1.158322 0.060121484 0.081314258
-1.1509596 0.041638684 0.050831754
-0.02611593 -0.059798401 0.050936799
-1.1881517 0.079180181 0.14023748
-1.1668147 0.059665382 0.10847422
-0.02611593 -0.059798401 0.050936799
-1.1899909 0.097138546 0.19861655
-1.2046167 0.08073435 0.16858347
-1.1962773 0.061266221 0.13706449
-1.1700089 0.038788259 0.10215424
-1.2004527 0.099671029 0.22686779
-1.2080916 0.080242217 0.19664913
-1.1828194 0.058767669 0.16177571
-1.1765062 0.037325144 0.1292586
-0.02611593 -0.059798401 0.050936799
-1.2095859 0.079760984 0.22367758
-1.2052495 0.059307382 0.19221574
-0.02611593 -0.059798401 0.050936799
-1.2611665 0.10869796 0.29419065
-1.2170376 0.080264956 0.25283608
-1.2256801 0.059839912 0.22261819
-0.02611593 -0.059798401 0.050936799
-0.02611593 -0.059798401 0.050936799
-0.02611593 -0.059798401 0.050936799
-1.2112037 0.057319678 0.24831025
-1.2418237 0.036955509 0.21950543
-0.02611593 -0.059798401 0.050936799
-1.2906778 0.088266358 0.3243838
-1.276438 0.062850058 0.28864533
-0.02611593 -0.059798401 0.050936799
-0.02611593 -0.059798401 0.050936799
-1.2861356 0.087727413 0.35329881
-0.02611593 -0.059798401 0.050936799
-0.02611593 -0.059798401 0.050936799
-1.3544234 0.12347096 0.43825269
-1.3492312 0.095123656 0.40062997
-0.02611593 -0.059798401 0.050936799
-0.02611593 -0.059798401 0.050936799
-3.0770187 0.36386648 1.0160487
-1.3575704 0.095522664 0.43580523
-0.02611593 -0.059798401 0.050936799
-1.2864492 0.031827383 0.34729147
-3.1222861 0.37240547 1.1070815
-3.0833557 0.29697174 1.0109556
-1.3507643 0.065575004 0.43113452
-0.02611593 -0.059798401 0.050936799
-3.1883502 0.38383836 1.2085596
-3.1236582 0.30151153 1.1008227
-3.0886633 0.22803761 1.0078069
-6.2354345 0.37577537 1.8206708
-3.2563205 0.39518803 1.3150737
-3.1867201 0.30891633 1.2031721
-3.1190019 0.22856027 1.0964143
-3.0900445 0.15012681 1.0024216
-3.3271513 0.40842149 1.4286777
-3.2586637 0.31724465 1.3117063
-3.1880372 0.23295088 1.2008218
-3.121376 0.1476355 1.0919935
-3.405808 0.4225207 1.5514469
-3.3274961 0.32545373 1.4261824
-3.259959 0.23724374 1.3112833
-3.1923888 0.14799778 1.1983657
-3.494287 0.43849269 1.6834372
-3.4091303 0.33552819 1.5509354
-3.3267887 0.24142823 1.4266493
-3.2652705 0.14824064 1.3117731
-5.0097799 0.66115457 2.5341275
-3.4916339 0.34547964 1.6827048
-3.4104054 0.24647453 1.5533491
-3.3340778 0.14839678 1.429104
-4.9596505 0.65991998 2.6472046
-4.7774329 0.49823844 2.421792
-3.4839671 0.25143069 1.68286
-3.4176724 0.14940761 1.5577309
-4.6107192 0.61346751 2.5958142
-4.6462345 0.48354399 2.487092
-4.7599478 0.36317867 2.4200211
-3.4892356 0.14933935 1.6881137
-3.4473641 0.44670787 2.0498314
-4.5724516 0.4765318 2.5826163
-4.6227469 0.3494626 2.4852262
-4.7365408 0.2181353 2.4159577
-4.6342769 0.62939465 2.8826406
-3.4327338 0.34363538 2.0496931
-4.6162577 0.34704238 2.6181061
-4.6111836 0.20531738 2.4894037
-3.556035 0.47310102 2.3294382
-3.4465957 0.34664786 2.1630454
-3.4308953 0.24041057 2.0607953
-4.6422415 0.20159955 2.6469715
-4.4057899 0.60707235 3.0170045
-3.494926 0.35429677 2.3041365
-4.6020207 0.3409453 2.897824
-3.4270926 0.12818006 2.0716975
-4.3064089 0.59934694 3.0910292
-3.4089205 0.34597987 2.3583944
-3.2292991 0.22004974 2.1476817
-4.5863662 0.18666081 2.9087439
-2.6051023 0.34183595 1.9691377
-3.296329 0.3339467 2.3910797
-4.3723469 0.31843859 3.0421658
-3.1967635 0.1079684 2.1440439
-2.6930866 0.35933727 2.1271548
-4.1844401 0.44440114 3.17097
-2.6284487 0.1655781 1.9313737
-4.351656 0.16409999 3.0549908
-2.4402215 0.32430947 2.01775
-2.7472162 0.27239159 2.1906173
-4.1537609 0.29706162 3.1817338
-2.6284249 0.071214214 1.9506729
-2.4070632 0.32407293 2.0791457
-3.9700894 0.42527336 3.2976537
-4.0494637 0.28739092 3.2516298
-2.7607028 0.075155668 2.1492879
-2.3414392 0.31820735 2.1128223
-2.39118 0.23279579 2.0902009
-3.9461992 0.27875978 3.3195632
-4.013761 0.13198055 3.2651548
-1.8641999 0.24463387 1.7624376
-1.8959074 0.17317343 1.7387307
-2.3889866 0.14327918 2.1175499
-2.4240308 0.053085964 2.0795617
-1.8185645 0.24083976 1.7965262
-1.8472915 0.16938661 1.7717631
-1.8770106 0.099936754 1.7470548
-1.913669 0.026440313 1.7264047
-1.9455845 0.26759654 2.0044589
-1.8507208 0.17190251 1.854901
-1.8303605 0.095121138 1.7821063
-1.8590955 0.021668339 1.7573071
-2.1252596 0.30429712 2.2825809
-2.0227816 0.19690204 2.1146626
-1.934826 0.10516004 1.9693071
-1.8280978 0.018584209 1.8106891
-3.3355381 0.52404898 3.7277055
-2.2267454 0.22698785 2.4321334
-2.1145463 0.12082802 2.2490504
-2.0100067 0.02440577 2.0822923
-3.2404926 0.51666343 3.7838116
-3.2995384 0.37236658 3.7562973
-3.3497689 0.22921816 3.7186356
-2.2218723 0.031343348 2.4094954
-3.1572089 0.51210338 3.8521926
-3.2044144 0.36590853 3.8164201
-3.2496352 0.2207244 3.7796278
-3.3038096 0.072518781 3.74595
-3.064122 0.50568879 3.9103537
-3.1053364 0.35747266 3.8744318
-3.1583607 0.21413603 3.8478231
-3.202616 0.064967044 3.8099406
-2.9701064 0.50034267 3.964515
-3.0180762 0.35191655 3.9417205
-3.0592184 0.20764555 3.90887
-3.1043842 0.05738987 3.8759863
-2.8809586 0.49488786 4.0257683
-2.9210463 0.34554181 3.9968071
-2.964076 0.20116942 3.9699924
-3.0042422 0.05089581 3.9370148
-2.7928255 0.49045464 4.0860581
-2.825012 0.34017047 4.0519309
-2.8688769 0.19463904 4.0341134
-2.906044 0.04435467 4.0010796
-2.6998324 0.48413038 4.1392207
-2.7357893 0.33464333 4.1171823
-2.7737343 0.18816291 4.0952358
-2.8088081 0.037780911 4.0671625
-2.6146197 0.48063546 4.2035842
-2.6426425 0.32917425 4.1783605
-2.6785691 0.18266852 4.1573758
-2.707685 0.031301379 4.1271725
-2.5215478 0.47523865 4.2607632
-2.5465934 0.32278499 4.2344651
-2.5814269 0.17618522 4.2184601
-2.6133552 0.024647951 4.1983104
-2.4285316 0.4698962 4.3149433
-2.4592879 0.31919235 4.3037896
-2.484262 0.17068365 4.2805624
-2.5122468 0.019186288 4.257338
-2.3422818 0.46636143 4.3812871
-2.3661408 0.31372324 4.3649673
-2.3861907 0.16526899 4.3376484
-2.4159694 0.013579793 4.325458
-2.2522388 0.46301126 4.4365597
-2.2710838 0.30933723 4.4211278
-2.2958145 0.16059339 4.4108958
-2.318711 0.0079877973 4.3925581
-2.1601067 0.45856363 4.4967742
-2.1789141 0.30485344 4.4833412
-2.1986871 0.15512803 4.4709992
-2.2175653 0.0024899691 4.4535861
-2.0699139 0.4550688 4.5600438
-2.0808618 0.29945683 4.5394273
-2.1014805 0.15059011 4.5351186
-2.1173074 -0.003112793 4.5206299
-1.976894 0.45072612 4.6142421
-1.9866734 0.29494777 4.6026034
-2.0022786 0.14504522 4.5991826
-2.014106 -0.0086720511 4.584619
-1.0179088 0.21063176 2.521235
-1.024196 0.12763123 2.5218513
-1.0267199 0.046851158 2.5094333
-1.9118819 -0.013245992 4.6496439
-0.93111789 0.1984216 2.4583678
-0.93448776 0.11850021 2.4539838
-0.94356394 0.041328546 2.4647615
-0.95363289 -0.038857117 2.4765034
-0.85124713 0.18716401 2.3996489
-0.84966612 0.10927861 2.3922079
-0.85871178 0.035088345 2.4040394
-1.7054151 -0.02241914 4.7806568
-0.7753154 0.17686632 2.344022
-0.77560997 0.10187908 2.3426707
-0.7853815 0.030438632 2.3685703
-1.5982668 -0.026938654 4.8415899
-0.7034018 0.16660112 2.2874711
-0.7007038 0.094620675 2.2851174
-0.78187156 0.034072895 2.5546334
-1.4899915 -0.032588229 4.9094834
-0.63825423 0.15814359 2.2430832
-0.63355273 0.087155804 2.24071
-0.7141245 0.030046597 2.5412874
-1.3236899 -0.037643008 4.7652297
-0.57506895 0.1496571 2.2007322
-0.56839734 0.080697969 2.1963582
-0.56835306 0.015419606 2.2111819
-1.2751254 -0.040170297 5.0613751
-0.51490176 0.14119944 2.157438
-0.51002693 0.076065928 2.1631703
-0.50333971 0.011106126 2.1588686
-1.1646593 -0.045008097 5.1392455
-0.45951992 0.13456041 2.1252701
-0.44806215 0.068799898 2.1088605
-0.46420062 0.010866143 2.219152
-1.0492651 -0.048791647 5.2130413
-0.40526894 0.12805158 2.0861235
-0.39463466 0.064131513 2.0787654
-0.42477682 0.011354651 2.2944481
-0.93392324 -0.051521134 5.2838569
-0.35490492 0.1214486 2.0530498
-0.3422631 0.059521023 2.0456903
-0.35657701 0.0058049858 2.1990387
-1.3679497 -0.051951863 9.0652571
-0.30546185 0.11577666 2.0240116
-0.29190996 0.054935783 2.0116532
-0.29414758 0.0010596216 2.115756
-1.0909202 -0.059374936 8.6397915
-0.26404265 0.11421365 2.0462155
-0.25193563 0.055854831 2.0629389
-0.2459918 -0.00027526915 2.1238327
-0.84306467 -0.063468821 8.2579479
-0.22400828 0.11607827 2.100518
-0.21079302 0.056607503 2.1232026
-0.19844262 -0.0019864552 2.1529212
-0.61553502 -0.069138408 7.912468
-0.18293659 0.11790311 2.156801
-0.16757587 0.057280641 2.1874275
-0.47660404 0.14606039 7.7066894
-0.40852571 -0.073185161 7.592411
-0.13963673 0.12050356 2.2250605
-0.35232505 0.34391791 7.5228796
-0.28621897 0.13167837 7.4087644
-0.2192619 -0.075402811 7.2857232
-0.22978938 0.47977775 6.6727552
-0.17650063 0.32113886 7.2500834
-0.1104863 0.11902422 7.1291504
-0.041172072 -0.078373335 7.0232458
-0.084729448 0.47925633 6.7810664
-0.013254061 0.30000818 6.9995599
0.053795427 0.10688841 6.8787704
0.12001844 -0.080373451 6.7661052
0.064380378 0.4705601 6.7871189
0.13828734 0.2816487 6.7643108
0.20540568 0.096491396 6.6456642
0.27380952 -0.08292371 6.5411029
0.2054553 0.44976056 6.6340499
0.28217113 0.26399219 6.5472236
0.34929824 0.085851774 6.4277043
0.41690615 -0.084724084 6.3323207
0.34193876 0.42653668 6.4500122
0.41726643 0.24716879 6.3413205
0.48370993 0.077759117 6.2369766
0.55092949 -0.086419806 6.1197085
0.4683156 0.40445697 6.2601824
0.54363334 0.23212415 6.1496177
0.60993189 0.068876229 6.0363846
0.67512715 -0.087242603 5.9162993
0.58876854 0.38232651 6.0744638
0.66009969 0.21802473 5.963119
0.72523868 0.061960153 5.8400335
0.79391015 -0.087604798 5.7440104
0.69944096 0.36303249 5.8999839
0.77168316 0.20483458 5.7827291
0.84139186 0.05522985 5.6886864
-0.02611593 -0.059798401 0.050936799
0.80624509 0.34362614 5.7325764
-0.02611593 -0.059798401 0.050936799
-0.02611593 -0.059798401 0.050936799
1.012532 -0.089315102 5.4027705
-0.02611593 -0.059798401 0.050936799
0.18655063 -0.0091900099 1.1922575
1.0503882 0.043159164 5.3694468
0.26815847 -0.068168841 1.3947313
1.0094745 0.30927318 5.430047
1.0819559 0.16890946 5.3221145
0.27600577 -0.034931831 1.3801806
1.2108207 -0.089583494 5.0969496
0.26464164 0.030738223 1.4015886
0.28729793 -0.0031395573 1.3895476
1.2397891 0.032780081 5.0716119
0.33605242 -0.06832245 1.3884552
1.1910378 0.27769122 5.1449804
1.2668505 0.15004316 5.0522199
1.3249705 0.0271428 4.9218645
0.36144853 -0.06783691 1.3559775
1.2776971 0.26456314 5.0220785
1.3439014 0.13954395 4.8965349
1.4138561 0.02382493 4.8091021
0.38591582 -0.068419971 1.3274993
1.3560692 0.24973544 4.8842959
1.4297719 0.13223754 4.7837567
1.4944208 0.019843474 4.6794777
0.43041721 -0.068066455 1.3536813
1.4400367 0.23832837 4.7774816
1.5094668 0.12311583 4.6620588
1.5720798 0.015782341 4.5549083
0.36645472 -0.066060603 1.0898256
1.514642 0.22529763 4.6518064
1.584227 0.11595742 4.543489
-0.02611593 -0.059798401 0.050936799
0.47301972 -0.067885607 1.2788615
1.5916106 0.21391563 4.5451236
-0.02611593 -0.059798401 0.050936799
0.47924092 -0.04002044 1.2852513
1.7885939 -0.085175291 4.2269168
-0.02611593 -0.059798401 0.050936799
0.48130524 -0.013995861 1.2836829
1.79786 0.006867215 4.2234073
1.8564428 -0.084364176 4.1116219
0.47933283 0.012079256 1.2801902
1.8020176 0.095018782 4.214921
1.8606941 0.0036969259 4.1081347
1.9255576 -0.082810089 4.0103221
1.795338 0.18104738 4.2156024
1.8619342 0.088769339 4.1046491
1.923607 0.0014541224 3.9968781
1.9884487 -0.081017397 3.8971384
1.8573133 0.17071906 4.1092191
1.9269994 0.082357228 4.0022802
1.9887668 -3.118068e-05 3.898598
2.0546575 -0.07954298 3.8008931
1.9266509 0.16202161 4.0217342
1.9901439 0.076879777 3.9039655
2.0550163 -0.0026103482 3.8052793
2.1199226 -0.078119248 3.7076654
1.9847057 0.15263513 3.9194429
2.0564377 0.071246862 3.8135917
2.1202843 -0.0052040331 3.7129791
2.1831472 -0.077651992 3.6124578
2.0479655 0.14303176 3.828054
2.1176987 0.06666787 3.7213304
2.1815989 -0.0058198534 3.6227896
2.2413573 -0.076148868 3.5163624
2.1051931 0.13448589 3.734796
2.1749606 0.062103249 3.6291447
2.2419093 -0.0074319355 3.5326006
2.3017209 -0.0737978 3.4282448
2.1656299 0.12673011 3.6524963
2.233391 0.057372242 3.5459368
2.2982767 -0.0090839267 3.4454861
2.3590853 -0.071435966 3.3401837
2.2219737 0.11907917 3.5652735
2.2855787 0.052897926 3.449846
2.3484771 -0.010551572 3.3494871
2.4175205 -0.070149913 3.2560844
2.2763178 0.11143536 3.4780881
2.3430319 0.049152244 3.3676751
2.4079599 -0.011323038 3.2683315
2.4708855 -0.06777373 3.1680987
2.3265879 0.10387829 3.3869793
2.3974626 0.044435587 3.2845423
2.4644251 -0.012065638 3.1862335
2.5273249 -0.065480657 3.0840547
2.3861372 0.096017584 3.3106966
2.4508417 0.040776607 3.1984477
2.5157788 -0.012681756 3.0982308
2.5837977 -0.064223602 3.0019925
2.4355237 0.089355394 3.2256224
2.5043142 0.037027195 3.1173513
2.5723372 -0.013514813 3.0211306
2.6362565 -0.061934274 2.9190235
2.4849477 0.082657024 3.1425478
2.5609212 0.034140225 3.0432141
2.6238031 -0.014239468 2.9391263
2.6837201 -0.058627166 2.8361666
2.5395994 0.076723456 3.071393
2.6094131 0.030390654 2.9632113
2.6733294 -0.014011387 2.8601763
2.7393095 -0.056475222 2.760139
2.5890837 0.070970654 2.9913354
2.6599276 0.02761567 2.8841887
2.7218149 -0.014743377 2.779228
2.7857318 -0.054128185 2.6752837
2.6365454 0.064243279 2.9102974
2.7145538 0.024717767 2.8110886
2.7693038 -0.01447193 2.6983163
2.832233 -0.050853662 2.5944448
2.6922345 0.058269955 2.8411236
2.7600315 0.021996908 2.7301605
2.821882 -0.015308712 2.6222908
2.8848045 -0.048672866 2.5174739
2.7376816 0.052567683 2.7591417
2.8004315 0.018366504 2.6453094
2.8694277 -0.015091537 2.5443783
2.9902163 -0.045493044 2.4845467
2.7832413 0.046756882 2.6831579
2.8500023 0.015540827 2.5693045
2.9657583 -0.013806719 2.5075855
3.0285878 -0.042063192 2.3968606
2.833838 0.040891945 2.6090791
2.9169145 0.014328182 2.5110102
3.0143034 -0.013593134 2.4296541
3.0822377 -0.038958505 2.3238873
2.8784204 0.036066446 2.5341318
2.9949524 0.01194964 2.4594886
3.0669231 -0.013466265 2.3556461
3.1327906 -0.036752444 2.2459545
2.9686949 0.032409847 2.4953623
3.0496199 0.010015398 2.3884058
3.1114545 -0.012220409 2.2768083
3.1864252 -0.03262984 2.1719999
3.0203099 0.026523232 2.4222648
3.0992134 0.0081714652 2.3134189
3.1640549 -0.012075458 2.2018006
3.2380195 -0.02946372 2.0960655
3.0679107 0.0216689 2.3482606
3.1427476 0.0054035001 2.2355273
3.2136791 -0.010937991 2.127867
4.6470594 -0.012151711 2.8262451
3.1145153 0.017817974 2.2742934
3.1953781 0.0035126209 2.1624827
3.262243 -0.010742497 2.0509353
4.726151 -0.0065980069 2.7228296
3.163116 0.012960058 2.2002707
3.2429717 0.001675874 2.087533
4.7011857 0.011569537 2.7746432
4.8041859 -0.00098645315 2.6164341
3.2117167 0.0081021413 2.1262479
4.6581135 0.025892805 2.8217247
4.7752242 0.013178036 2.6692505
