# .PCD v0.7 - Point Cloud Data file format
VERSION 0.7
FIELDS x y z
SIZE 4 4 4
TYPE F F F
COUNT 1 1 1
WIDTH 1395
HEIGHT 1
VIEWPOINT 0 0 0 1 0 0 0
POINTS 1395
DATA ascii
2.8770728 0.53223759 2.4741123
3.0111747 0.52854115 2.3724999
3.1687827 0.5302909 2.2965548
3.2897749 0.52674967 2.1891892
2.9480746 0.52992034 2.4207225
3.0953097 0.53206772 2.3249726
3.2436988 0.5350666 2.2372189
3.3636277 0.53460073 2.1259272
3.0393167 0.53231341 2.3790436
3.1692517 0.53381139 2.2676001
3.2831028 0.53243959 2.1524045
3.3908882 0.5331614 2.0333593
3.1275218 0.53475332 2.3354213
3.2522554 0.53746802 2.2130938
3.3316705 0.53363496 2.075491
3.4384084 0.53641427 1.9535013
3.2207072 0.53719348 2.2907057
3.2866714 0.53284138 2.1293373
3.3832569 0.53480148 1.9995204
3.470773 0.53786594 1.8658919
3.2996631 0.53790128 2.234221
3.3686199 0.53655595 2.0718505
3.4439428 0.53784472 1.9284151
3.5001156 0.53834677 1.7773213
3.3279519 0.52940524 2.1445074
3.4374166 0.53946203 2.006593
3.4823775 0.53820282 1.8446736
3.5355442 0.54173309 1.6926905
3.4493389 0.53656316 2.1093524
3.5000942 0.54049861 1.9354142
3.52689 0.53946674 1.7648361
3.5538101 0.54132587 1.6003098
3.5190866 0.53650242 2.0420225
3.557694 0.54062557 1.8603127
3.5804651 0.54264385 1.6878643
3.5872388 0.54471934 1.5157168
3.5948327 0.53642011 1.97458
3.6273968 0.54361856 1.7900379
3.6229217 0.54396915 1.6050653
3.6005058 0.54433006 1.42343
3.6887789 0.54009157 1.9168679
3.6728451 0.54293352 1.7071465
3.6603417 0.5453487 1.5203609
3.6480374 0.55058241 1.3436261
3.7472956 0.53828776 1.8377128
3.710216 0.54134977 1.6203889
3.6987805 0.5467065 1.4366375
3.6583273 0.55118561 1.2524135
3.81183 0.53644425 1.7594448
3.7586865 0.54163569 1.5384587
3.7291646 0.54814738 1.3500654
3.6817169 0.55365133 1.1659908
3.8925309 0.53939772 1.6889634
3.8091605 0.54291427 1.456509
3.7706065 0.55049425 1.2663034
3.7040913 0.55713862 1.0786054
3.9550135 0.53861552 1.6077517
3.8576121 0.54321831 1.3735791
3.797935 0.55200005 1.1767887
3.7154038 0.55871999 0.98839164
4.0345798 0.54069948 1.5302734
3.931195 0.54932308 1.2962857
3.8262815 0.55348426 1.0882548
3.7176952 0.55935186 0.89732927
4.1161313 0.54379404 1.451776
3.9524114 0.54594171 1.2017955
3.8415709 0.55406952 0.99694818
3.7420924 0.56381381 0.81092393
4.1825233 0.54408777 1.365509
4.0138764 0.55019838 1.1186935
3.8900237 0.55939078 0.91310894
3.7484472 0.56637669 0.72282153
4.2438598 0.54445368 1.276337
4.0541835 0.55167568 1.0279349
3.920378 0.5628674 0.82457352
3.755779 0.5679543 0.63368255
4.3132033 0.54679048 1.1870507
4.106534 0.55507338 0.93898594
3.9416888 0.56441289 0.73417175
3.766156 0.57148463 0.54652256
4.3865042 0.54814935 1.095672
4.1407866 0.55662644 0.84534097
3.9760275 0.56889307 0.64457953
3.76349 0.57309812 0.45757151
4.4497366 0.55061626 1.0005004
4.1961026 0.5610494 0.75435454
3.9662158 0.56665903 0.54869032
3.7668452 0.57567191 0.36952537
4.520967 0.55305451 0.90517861
4.2152562 0.56074709 0.65595704
3.9845164 0.57023305 0.4573814
3.7652016 0.57826364 0.28157324
4.5660219 0.55274934 0.80129433
4.263495 0.56426769 0.56108546
3.9927511 0.5708977 0.36320731
-0.02611593 -0.059798401 0.050936799
4.6200986 0.5533936 0.69825864
4.3056784 0.56786412 0.46332756
4.0110326 0.57448977 0.27089876
3.5256882 0.54440928 0.10338479
4.6811624 0.55603051 0.59412777
4.3338232 0.5705471 0.36381543
-0.02611593 -0.059798401 0.050936799
-0.02611593 -0.059798401 0.050936799
4.7461739 0.55970716 0.48694074
4.4090247 0.580024 0.26554561
3.5320876 0.50180745 0.079486266
2.9725587 0.45616663 -0.040904272
4.8021221 0.56147069 0.37688786
3.5480459 0.45465803 0.13935487
2.9682786 0.41434136 0.0054349899
2.9752593 0.46041796 -0.11090167
3.6272364 0.40704733 0.21103528
3.5374594 0.45221052 0.05548038
2.9929979 0.41949549 -0.063958108
2.7461407 0.42421952 -0.16128381
-0.02611593 -0.059798401 0.050936799
2.9827552 0.37263831 -0.014597205
2.8107564 0.39227155 -0.12305854
2.775912 0.43331888 -0.22869946
-0.02611593 -0.059798401 0.050936799
3.018435 0.37778917 -0.086196318
2.7755632 0.38853404 -0.1854884
2.5140941 0.39093235 -0.2615754
2.9352622 0.31207064 -0.028808428
2.7622237 0.34077823 -0.14108746
2.6325293 0.36798799 -0.23519892
2.5170009 0.39498475 -0.32057649
2.9599319 0.31426147 -0.1002549
2.5981672 0.31832606 -0.19143908
2.5355146 0.35427576 -0.28564769
2.4121559 0.38113835 -0.36187804
2.6937718 0.28024974 -0.15290475
2.6040051 0.31942245 -0.25354961
2.336834 0.32557032 -0.31445688
2.2974131 0.36421987 -0.3970477
2.6615894 0.27448371 -0.21442738
1.9341171 0.22348189 -0.22273251
2.3098531 0.32360473 -0.36600477
2.3362656 0.37521422 -0.46059775
2.7082858 0.27957702 -0.28523353
2.306355 0.27897537 -0.33073461
2.3327448 0.32960311 -0.42634529
2.3581507 0.38423371 -0.52186513
1.9476658 0.18572752 -0.23967487
2.331224 0.28398481 -0.3921304
2.357584 0.33664837 -0.4897044
2.5791709 0.43046981 -0.6382063
2.344722 0.23427717 -0.35627013
2.3640392 0.29001963 -0.45665753
2.4780421 0.36076227 -0.57755327
2.4834445 0.41848227 -0.67364287
2.3655648 0.23731944 -0.41862649
2.3978205 0.29708689 -0.52318472
2.550571 0.37695938 -0.65964603
2.4992187 0.42763188 -0.74079549
2.391336 0.24141586 -0.48505738
2.6406744 0.33537203 -0.64708102
2.4458945 0.36295018 -0.69195056
2.4324129 0.42062986 -0.78168523
2.6800425 0.27766287 -0.61685181
2.5209591 0.32045302 -0.68112105
2.4735911 0.37212908 -0.76332724
2.349767 0.41052294 -0.81333143
2.6130493 0.27084172 -0.66773814
2.4451475 0.31148365 -0.72187769
2.423682 0.36817405 -0.81048036
-0.02611593 -0.059798401 0.050936799
2.4883728 0.25590453 -0.69968486
2.4539027 0.3156592 -0.78898883
-0.02611593 -0.059798401 0.050936799
0.17947197 -0.018064976 -0.034186296
2.2225914 0.22357535 -0.67928666
-0.02611593 -0.059798401 0.050936799
0.18743607 -0.022074919 -0.035408344
-0.02611593 -0.059798401 0.050936799
2.4411707 0.25318328 -0.81588966
-0.02611593 -0.059798401 0.050936799
-0.02611593 -0.059798401 0.050936799
0.15744156 -0.021967251 -0.034844629
-0.02611593 -0.059798401 0.050936799
0.18437953 -0.027027123 -0.037441399
0.16935661 -0.023937622 -0.039104804
-0.02611593 -0.059798401 0.050936799
0.18243122 -0.033091281 -0.033513278
-0.02611593 -0.059798401 0.050936799
-0.02611593 -0.059798401 0.050936799
0.1344488 -0.025902113 -0.033484872
-0.02611593 -0.059798401 0.050936799
0.1573875 -0.030947631 -0.036006466
0.14636384 -0.027872484 -0.037745036
-0.02611593 -0.059798401 0.050936799
0.15243974 -0.037001029 -0.032021977
-0.02611593 -0.059798401 0.050936799
-0.02611593 -0.059798401 0.050936799
0.11646294 -0.027855262 -0.03218301
-0.02611593 -0.059798401 0.050936799
0.13537973 -0.033868164 -0.035647128
0.12537462 -0.030814696 -0.036404833
-0.02611593 -0.059798401 0.050936799
0.13738239 -0.037892751 -0.034757115
-0.02611593 -0.059798401 0.050936799
-0.02611593 -0.059798401 0.050936799
0.10245765 -0.02980468 -0.03195598
-0.02611593 -0.059798401 0.050936799
0.11739388 -0.035821315 -0.034345269
0.11235043 -0.032749612 -0.037196252
-0.02611593 -0.059798401 0.050936799
0.11739296 -0.040838551 -0.03343571
-0.02611593 -0.059798401 0.050936799
-0.02611593 -0.059798401 0.050936799
0.090451986 -0.03176127 -0.03176653
-0.02611593 -0.059798401 0.050936799
0.10140768 -0.037781641 -0.033081003
0.10032997 -0.033688284 -0.037988443
-0.02611593 -0.059798401 0.050936799
0.10141069 -0.04179905 -0.032153409
-0.02611593 -0.059798401 0.050936799
-0.02611593 -0.059798401 0.050936799
0.077465229 -0.033732362 -0.030558631
-0.02611593 -0.059798401 0.050936799
0.089383297 -0.039720144 -0.033891208
0.088324308 -0.035644878 -0.037798997
-0.02611593 -0.059798401 0.050936799
0.089386307 -0.043737553 -0.03296363
-0.02611593 -0.059798401 0.050936799
-0.02611593 -0.059798401 0.050936799
0.068462953 -0.034699894 -0.030407537
-0.02611593 -0.059798401 0.050936799
0.077400289 -0.040694993 -0.032684088
0.074375175 -0.037648559 -0.034572978
-0.02611593 -0.059798401 0.050936799
0.080350526 -0.043669075 -0.034793831
-0.02611593 -0.059798401 0.050936799
-0.02611593 -0.059798401 0.050936799
0.061441585 -0.035656516 -0.031293679
-0.02611593 -0.059798401 0.050936799
0.065436013 -0.041687936 -0.030477289
0.067339018 -0.037587259 -0.036440771
-0.02611593 -0.059798401 0.050936799
0.0683823 -0.045661848 -0.032605067
-0.02611593 -0.059798401 0.050936799
-0.02611593 -0.059798401 0.050936799
0.051491734 -0.03767455 -0.028142832
-0.02611593 -0.059798401 0.050936799
0.061339203 -0.042582966 -0.035418458
0.056389343 -0.03960171 -0.033271119
-0.02611593 -0.059798401 0.050936799
0.05643674 -0.046672873 -0.029398609
-0.02611593 -0.059798401 0.050936799
-0.02611593 -0.059798401 0.050936799
0.046455201 -0.037620425 -0.030048199
-0.02611593 -0.059798401 0.050936799
0.050412174 -0.043615676 -0.031231131
0.052315179 -0.039514996 -0.03719461
-0.02611593 -0.059798401 0.050936799
0.050400391 -0.046615165 -0.031285185
-0.02611593 -0.059798401 0.050936799
-0.02611593 -0.059798401 0.050936799
0.039471269 -0.038613223 -0.028935023
-0.02611593 -0.059798401 0.050936799
0.045375645 -0.043561552 -0.033136494
0.042387981 -0.04055129 -0.033026069
-0.02611593 -0.059798401 0.050936799
0.043379024 -0.047571782 -0.032171335
-0.02611593 -0.059798401 0.050936799
-0.02611593 -0.059798401 0.050936799
0.033468448 -0.039591521 -0.0288403
-0.02611593 -0.059798401 0.050936799
0.038373001 -0.044536259 -0.033022981
0.037328798 -0.04147891 -0.035949126
-0.02611593 -0.059798401 0.050936799
0.036399029 -0.047564749 -0.031040136
-0.02611593 -0.059798401 0.050936799
-0.02611593 -0.059798401 0.050936799
0.030394102 -0.039508399 -0.032782566
-0.02611593 -0.059798401 0.050936799
0.031389073 -0.045529056 -0.031909816
0.033273362 -0.04141029 -0.03887295
-0.02611593 -0.059798401 0.050936799
0.030396193 -0.048543047 -0.030945413
-0.02611593 -0.059798401 0.050936799
-0.02611593 -0.059798401 0.050936799
0.024413925 -0.039504953 -0.031670168
-0.02611593 -0.059798401 0.050936799
0.026389994 -0.045511112 -0.031815864
0.026326885 -0.042439263 -0.035760451
-0.02611593 -0.059798401 0.050936799
-0.02611593 -0.059798401 0.050936799
-0.02611593 -0.059798401 0.050936799
-0.02611593 -0.059798401 0.050936799
-0.02611593 -0.059798401 0.050936799
-0.02611593 -0.059798401 0.050936799
0.022334555 -0.045442492 -0.034739684
0.023256468 -0.04135631 -0.039684702
-0.02611593 -0.059798401 0.050936799
-0.02611593 -0.059798401 0.050936799
-0.02611593 -0.059798401 0.050936799
-0.02611593 -0.059798401 0.050936799
-0.02611593 -0.059798401 0.050936799
-0.02611593 -0.059798401 0.050936799
-0.02611593 -0.059798401 0.050936799
0.018234732 -0.042320106 -0.040608428
-0.02611593 -0.059798401 0.050936799
-0.02611593 -0.059798401 0.050936799
-0.02611593 -0.059798401 0.050936799
-0.02611593 -0.059798401 0.050936799
-0.02611593 -0.059798401 0.050936799
-0.02611593 -0.059798401 0.050936799
-0.02611593 -0.059798401 0.050936799
-0.02611593 -0.059798401 0.050936799
-0.02611593 -0.059798401 0.050936799
-0.02611593 -0.059798401 0.050936799
-0.02611593 -0.059798401 0.050936799
-0.02611593 -0.059798401 0.050936799
-0.02611593 -0.059798401 0.050936799
-0.02611593 -0.059798401 0.050936799
-0.02611593 -0.059798401 0.050936799
-0.02611593 -0.059798401 0.050936799
-0.02611593 -0.059798401 0.050936799
-0.02611593 -0.059798401 0.050936799
-0.02611593 -0.059798401 0.050936799
-0.02611593 -0.059798401 0.050936799
-0.02611593 -0.059798401 0.050936799
-0.02611593 -0.059798401 0.050936799
-0.02611593 -0.059798401 0.050936799
-0.02611593 -0.059798401 0.050936799
-0.02611593 -0.059798401 0.050936799
-0.02611593 -0.059798401 0.050936799
-0.02611593 -0.059798401 0.050936799
-0.02611593 -0.059798401 0.050936799
-0.02611593 -0.059798401 0.050936799
-0.02611593 -0.059798401 0.050936799
-0.02611593 -0.059798401 0.050936799
-0.02611593 -0.059798401 0.050936799
-0.02611593 -0.059798401 0.050936799
-0.02611593 -0.059798401 0.050936799
-0.02611593 -0.059798401 0.050936799
-0.02611593 -0.059798401 0.050936799
-0.02611593 -0.059798401 0.050936799
-0.02611593 -0.059798401 0.050936799
-0.02611593 -0.059798401 0.050936799
-0.02611593 -0.059798401 0.050936799
-0.02611593 -0.059798401 0.050936799
-0.02611593 -0.059798401 0.050936799
-0.02611593 -0.059798401 0.050936799
-0.02611593 -0.059798401 0.050936799
-0.02611593 -0.059798401 0.050936799
-0.02611593 -0.059798401 0.050936799
-0.02611593 -0.059798401 0.050936799
-0.02611593 -0.059798401 0.050936799
-0.02611593 -0.059798401 0.050936799
-0.02611593 -0.059798401 0.050936799
-0.02611593 -0.059798401 0.050936799
-0.02611593 -0.059798401 0.050936799
-0.02611593 -0.059798401 0.050936799
-0.02611593 -0.059798401 0.050936799
-0.02611593 -0.059798401 0.050936799
-0.02611593 -0.059798401 0.050936799
-0.02611593 -0.059798401 0.050936799
-0.02611593 -0.059798401 0.050936799
-0.02611593 -0.059798401 0.050936799
-0.02611593 -0.059798401 0.050936799
-0.02611593 -0.059798401 0.050936799
-0.02611593 -0.059798401 0.050936799
-0.02611593 -0.059798401 0.050936799
-0.02611593 -0.059798401 0.050936799
-0.02611593 -0.059798401 0.050936799
-0.02611593 -0.059798401 0.050936799
-0.02611593 -0.059798401 0.050936799
-0.02611593 -0.059798401 0.050936799
-0.02611593 -0.059798401 0.050936799
-0.02611593 -0.059798401 0.050936799
-0.02611593 -0.059798401 0.050936799
-0.02611593 -0.059798401 0.050936799
-0.02611593 -0.059798401 0.050936799
-0.02611593 -0.059798401 0.050936799
-0.02611593 -0.059798401 0.050936799
-0.02611593 -0.059798401 0.050936799
-0.02611593 -0.059798401 0.050936799
-0.02611593 -0.059798401 0.050936799
-0.02611593 -0.059798401 0.050936799
-0.02611593 -0.059798401 0.050936799
-0.02611593 -0.059798401 0.050936799
-0.02611593 -0.059798401 0.050936799
-0.02611593 -0.059798401 0.050936799
-0.02611593 -0.059798401 0.050936799
-0.02611593 -0.059798401 0.050936799
-0.02611593 -0.059798401 0.050936799
-0.02611593 -0.059798401 0.050936799
-0.02611593 -0.059798401 0.050936799
-0.02611593 -0.059798401 0.050936799
-0.02611593 -0.059798401 0.050936799
-0.02611593 -0.059798401 0.050936799
-0.02611593 -0.059798401 0.050936799
-0.02611593 -0.059798401 0.050936799
-0.02611593 -0.059798401 0.050936799
-0.02611593 -0.059798401 0.050936799
-0.02611593 -0.059798401 0.050936799
-0.02611593 -0.059798401 0.050936799
-0.02611593 -0.059798401 0.050936799
-0.02611593 -0.059798401 0.050936799
-0.02611593 -0.059798401 0.050936799
-0.02611593 -0.059798401 0.050936799
-0.02611593 -0.059798401 0.050936799
-0.02611593 -0.059798401 0.050936799
-0.02611593 -0.059798401 0.050936799
-0.02611593 -0.059798401 0.050936799
-0.02611593 -0.059798401 0.050936799
-0.02611593 -0.059798401 0.050936799
-0.02611593 -0.059798401 0.050936799
-0.02611593 -0.059798401 0.050936799
-0.02611593 -0.059798401 0.050936799
-0.02611593 -0.059798401 0.050936799
-0.02611593 -0.059798401 0.050936799
-0.02611593 -0.059798401 0.050936799
-0.02611593 -0.059798401 0.050936799
-0.02611593 -0.059798401 0.050936799
-0.02611593 -0.059798401 0.050936799
-0.02611593 -0.059798401 0.050936799
-0.02611593 -0.059798401 0.050936799
-0.02611593 -0.059798401 0.050936799
-0.02611593 -0.059798401 0.050936799
-0.02611593 -0.059798401 0.050936799
-0.02611593 -0.059798401 0.050936799
-0.02611593 -0.059798401 0.050936799
-0.02611593 -0.059798401 0.050936799
-0.02611593 -0.059798401 0.050936799
-0.02611593 -0.059798401 0.050936799
-0.02611593 -0.059798401 0.050936799
-0.02611593 -0.059798401 0.050936799
-0.02611593 -0.059798401 0.050936799
-0.02611593 -0.059798401 0.050936799
-0.02611593 -0.059798401 0.050936799
-0.02611593 -0.059798401 0.050936799
-0.02611593 -0.059798401 0.050936799
-0.02611593 -0.059798401 0.050936799
-0.02611593 -0.059798401 0.050936799
-0.02611593 -0.059798401 0.050936799
-0.02611593 -0.059798401 0.050936799
-0.02611593 -0.059798401 0.050936799
-0.02611593 -0.059798401 0.050936799
-0.02611593 -0.059798401 0.050936799
-0.02611593 -0.059798401 0.050936799
-0.02611593 -0.059798401 0.050936799
-0.02611593 -0.059798401 0.050936799
-0.02611593 -0.059798401 0.050936799
-0.02611593 -0.059798401 0.050936799
-0.02611593 -0.059798401 0.050936799
-0.02611593 -0.059798401 0.050936799
-0.02611593 -0.059798401 0.050936799
-0.02611593 -0.059798401 0.050936799
-0.02611593 -0.059798401 0.050936799
-0.02611593 -0.059798401 0.050936799
-0.064772733 -0.043003969 -0.040066492
-0.02611593 -0.059798401 0.050936799
-0.02611593 -0.059798401 0.050936799
-0.02611593 -0.059798401 0.050936799
-0.02611593 -0.059798401 0.050936799
-0.02611593 -0.059798401 0.050936799
-0.02611593 -0.059798401 0.050936799
-0.02611593 -0.059798401 0.050936799
-0.068734556 -0.043025792 -0.037992012
-0.02611593 -0.059798401 0.050936799
-0.02611593 -0.059798401 0.050936799
-0.02611593 -0.059798401 0.050936799
-0.02611593 -0.059798401 0.050936799
-0.02611593 -0.059798401 0.050936799
-0.02611593 -0.059798401 0.050936799
-0.02611593 -0.059798401 0.050936799
-0.075766787 -0.041964661 -0.039841779
-0.02611593 -0.059798401 0.050936799
-0.02611593 -0.059798401 0.050936799
-0.02611593 -0.059798401 0.050936799
-0.02611593 -0.059798401 0.050936799
-0.02611593 -0.059798401 0.050936799
-0.02611593 -0.059798401 0.050936799
-0.02611593 -0.059798401 0.050936799
-0.079728611 -0.041986484 -0.037767299
-0.02611593 -0.059798401 0.050936799
-0.083646052 -0.045062065 -0.032747887
-0.02611593 -0.059798401 0.050936799
-0.02611593 -0.059798401 0.050936799
-0.02611593 -0.059798401 0.050936799
-0.02611593 -0.059798401 0.050936799
-0.081586324 -0.044123679 -0.029768463
-0.085746236 -0.041946858 -0.038654212
-0.02611593 -0.059798401 0.050936799
-0.087589152 -0.045101974 -0.02967374
-0.02611593 -0.059798401 0.050936799
-0.02611593 -0.059798401 0.050936799
-0.081615917 -0.042087838 -0.031731743
-0.02611593 -0.059798401 0.050936799
-0.087585218 -0.044102143 -0.029655721
-0.088670798 -0.042008448 -0.034599196
-0.02611593 -0.059798401 0.050936799
-0.091532253 -0.045141887 -0.026599593
-0.02611593 -0.059798401 0.050936799
-0.02611593 -0.059798401 0.050936799
-0.086596273 -0.042087983 -0.030638125
-0.02611593 -0.059798401 0.050936799
-0.093580194 -0.043080781 -0.02952496
-0.094650969 -0.042005006 -0.033486795
-0.02611593 -0.059798401 0.050936799
-0.10060157 -0.044037398 -0.030411094
-0.02611593 -0.059798401 0.050936799
-0.02611593 -0.059798401 0.050936799
-0.09057682 -0.042091716 -0.029563311
-0.02611593 -0.059798401 0.050936799
-0.09956038 -0.043077338 -0.028412551
-0.098594077 -0.042044915 -0.03041264
-0.02611593 -0.059798401 0.050936799
-0.1065591 -0.043052215 -0.028281014
-0.02611593 -0.059798401 0.050936799
-0.02611593 -0.059798401 0.050936799
-0.097590335 -0.041048676 -0.030413412
-0.02611593 -0.059798401 0.050936799
-0.10553662 -0.042074062 -0.027282126
-0.10967782 -0.039915334 -0.035168219
-0.02611593 -0.059798401 0.050936799
-0.11659078 -0.041980315 -0.03007441
-0.02611593 -0.059798401 0.050936799
-0.02611593 -0.059798401 0.050936799
-0.10357051 -0.04104523 -0.029301014
-0.02611593 -0.059798401 0.050936799
-0.1176054 -0.040958807 -0.031037267
-0.11870969 -0.038847025 -0.036980413
-0.02611593 -0.059798401 0.050936799
-0.12254831 -0.040995132 -0.027944326
-0.02611593 -0.059798401 0.050936799
-0.02611593 -0.059798401 0.050936799
-0.10955069 -0.041041788 -0.028188605
-0.02611593 -0.059798401 0.050936799
-0.12152977 -0.04101681 -0.026963457
-0.12465243 -0.03887976 -0.033868682
-0.02611593 -0.059798401 0.050936799
-0.13457963 -0.039916053 -0.029700145
-0.02611593 -0.059798401 0.050936799
-0.02611593 -0.059798401 0.050936799
-0.11856384 -0.039991565 -0.029001143
-0.02611593 -0.059798401 0.050936799
-0.12950566 -0.040006354 -0.02579546
-0.12855807 -0.038955849 -0.028795216
-0.02611593 -0.059798401 0.050936799
-0.13848136 -0.038992316 -0.024608668
-0.02611593 -0.059798401 0.050936799
-0.02611593 -0.059798401 0.050936799
-0.12350675 -0.040027887 -0.025908202
-0.02611593 -0.059798401 0.050936799
-0.14153305 -0.037927452 -0.027533256
-0.14260384 -0.036851678 -0.031495094
-0.02611593 -0.059798401 0.050936799
-0.15654509 -0.036855698 -0.028233044
-0.02611593 -0.059798401 0.050936799
-0.02611593 -0.059798401 0.050936799
-0.13351971 -0.038974084 -0.026701938
-0.02611593 -0.059798401 0.050936799
-0.15047131 -0.03694959 -0.024347141
-0.15158346 -0.036837466 -0.030326314
-0.02611593 -0.059798401 0.050936799
-0.17053469 -0.034805797 -0.02793394
-0.02611593 -0.059798401 0.050936799
-0.02611593 -0.059798401 0.050936799
-0.14451377 -0.037934773 -0.026477221
-0.02611593 -0.059798401 0.050936799
-0.1624652 -0.035906695 -0.024103634
-0.16255881 -0.035816249 -0.029101931
-0.02611593 -0.059798401 0.050936799
-0.18448682 -0.032792069 -0.025635507
-0.02611593 -0.059798401 0.050936799
-0.02611593 -0.059798401 0.050936799
-0.15347077 -0.036938824 -0.02429077
-0.02611593 -0.059798401 0.050936799
-0.18550538 -0.032770392 -0.026616376
-0.1775482 -0.033762753 -0.02878404
-0.02611593 -0.059798401 0.050936799
-0.20850807 -0.029670265 -0.027129807
-0.02611593 -0.059798401 0.050936799
-0.02611593 -0.059798401 0.050936799
-0.16948263 -0.035863481 -0.024971761
-0.02611593 -0.059798401 0.050936799
-0.21154106 -0.028623493 -0.029054735
-0.19553705 -0.031698491 -0.028409772
-0.02611593 -0.059798401 0.050936799
-0.23752451 -0.025530688 -0.028512124
-0.02611593 -0.059798401 0.050936799
-0.02611593 -0.059798401 0.050936799
-0.1874902 -0.033781134 -0.025597155
-0.02611593 -0.059798401 0.050936799
-0.02611593 -0.059798401 0.050936799
-0.22659056 -0.027515562 -0.031753842
-0.02611593 -0.059798401 0.050936799
-0.26546624 -0.021467058 -0.025914595
-0.02611593 -0.059798401 0.050936799
-0.02611593 -0.059798401 0.050936799
-0.20849721 -0.031688016 -0.026166175
-0.02611593 -0.059798401 0.050936799
-0.26650348 -0.021427292 -0.027895126
-0.24854124 -0.025473122 -0.029305093
-0.02611593 -0.059798401 0.050936799
-0.97461605 0.0936298 -0.20861736
-0.02611593 -0.059798401 0.050936799
-0.02611593 -0.059798401 0.050936799
-0.24255019 -0.027494315 -0.029453877
-0.98523563 0.094307341 -0.1883994
-0.97274834 0.088732012 -0.21474302
-0.95419514 0.081063151 -0.23723669
-0.02611593 -0.059798401 0.050936799
-0.99685109 0.095988281 -0.16814466
-0.98437166 0.088413298 -0.19452429
-0.96785557 0.080787793 -0.21897972
-0.25843099 -0.026545597 -0.023137238
-1.0044378 0.095619038 -0.1460018
-0.9989906 0.089105189 -0.1742312
-0.98147464 0.081476077 -0.19870546
-0.02611593 -0.059798401 0.050936799
-1.0260623 0.099353611 -0.12652278
-1.0045776 0.088728763 -0.1521259
-0.9941166 0.081179045 -0.17946759
-0.97361296 0.070539691 -0.20405227
-1.0316492 0.098977178 -0.10441749
-1.0252101 0.090460099 -0.13270169
-0.99768913 0.079777531 -0.15641823
-0.99027282 0.070275098 -0.18573891
-1.0492412 0.10166141 -0.083032325
-1.0358109 0.091119528 -0.1114841
-1.0213438 0.080537878 -0.13795535
-0.99384934 0.067873739 -0.1627076
-1.0568238 0.102292 -0.06087143
-1.0353656 0.089685574 -0.087510258
-1.0259123 0.080139779 -0.11486921
-1.0104904 0.067591056 -0.14339459
-1.0814103 0.10600117 -0.039336711
-1.0539612 0.091373533 -0.06612432
-1.0315031 0.07876353 -0.092781931
-1.0270942 0.067272201 -0.12208228
-1.0949693 0.10763501 -0.016045406
-1.0865649 0.095129527 -0.045438938
-1.0471032 0.079440907 -0.071470372
-1.0326852 0.065895952 -0.09999501
-1.1025145 0.10822944 0.0081147999
-1.0931103 0.095720336 -0.021297514
-1.074697 0.081161186 -0.049915321
-1.0502887 0.065580688 -0.078663886
-1.1200501 0.11085938 0.032498956
-1.1026778 0.095340177 0.0018825978
-1.0872639 0.080791794 -0.026678838
-1.0658778 0.064240314 -0.056388706
-1.1355673 0.11346406 0.05784519
-1.1302077 0.099005848 0.026472677
-1.1038264 0.081436597 -0.0033491701
-1.0814403 0.064881518 -0.033077843
-1.141113 0.1140513 0.081967816
-1.1377343 0.099582158 0.051632542
-1.1163708 0.082048938 0.020904992
-1.0980105 0.063526653 -0.0097842142
-1.1536306 0.11664521 0.10725768
-1.1502787 0.10019451 0.075886704
-1.1389095 0.083697006 0.045365073
-1.1115587 0.063142762 0.014470719
-1.1731099 0.11922807 0.13467839
-1.1558057 0.10076364 0.101009
-1.1504203 0.08326976 0.071581744
-1.1281061 0.062769637 0.038782019
-1.18659 0.1217894 0.16198637
-1.1662941 0.10131456 0.12822455
-1.1509749 0.081839375 0.095574386
-1.1426166 0.062353157 0.065055065
-1.2000701 0.12435073 0.18929434
-1.1817777 0.10288322 0.15555209
-1.1824328 0.08444722 0.12422025
-1.1561648 0.061969262 0.089310005
-1.1965652 0.12385157 0.21622881
-1.1932474 0.10341963 0.18378611
-1.1919255 0.083994709 0.151399
-1.1656613 0.060516916 0.11647074
-1.2429072 0.13142194 0.25024492
-1.2057129 0.10495945 0.21205693
-1.2003957 0.084520333 0.17957665
-1.1911285 0.061103567 0.14496782
-0.02611593 -0.059798401 0.050936799
-1.2071884 0.10446014 0.24008504
-1.212869 0.084060498 0.20781144
-1.2065785 0.061636236 0.17427665
-1.2657373 0.13640362 0.31178334
-1.2286109 0.10699591 0.27054232
-1.2123449 0.083554 0.23580194
-0.02611593 -0.059798401 0.050936799
-1.2542377 0.13487591 0.33854949
-0.02611593 -0.059798401 0.050936799
-1.2178007 0.083050951 0.26490486
-1.2085412 0.057634518 0.23026
-0.02611593 -0.059798401 0.050936799
-1.3081635 0.11794598 0.34625548
-0.02611593 -0.059798401 0.050936799
-1.2438903 0.059148356 0.26496094
-0.02611593 -0.059798401 0.050936799
-1.2986449 0.11640736 0.37405887
-0.02611593 -0.059798401 0.050936799
-0.02611593 -0.059798401 0.050936799
-3.1101644 0.43538889 0.99495584
-1.3756324 0.12676288 0.42670545
-1.2987883 0.089448132 0.37157303
-0.02611593 -0.059798401 0.050936799
-3.0928342 0.43504697 1.0656493
-3.1105626 0.3675271 0.98673296
-1.3668308 0.095808208 0.4219791
-0.02611593 -0.059798401 0.050936799
-3.1599317 0.44751948 1.1651647
-3.0912406 0.36517832 1.0573527
-3.1188884 0.2986218 0.98264104
-1.3312222 0.059920289 0.4076584
-3.2348664 0.46287552 1.272882
-3.1563504 0.37464416 1.1567767
-3.0876176 0.29326665 1.0509819
-3.1183071 0.22073998 0.97521883
-3.2938344 0.4751927 1.3792448
-3.2282863 0.38497218 1.2653471
-3.159663 0.29968581 1.1544819
-3.0860221 0.21436334 1.0445225
-3.3656156 0.49139306 1.4949212
-3.2942085 0.39426076 1.3747864
-3.2256384 0.30501124 1.26185
-3.153084 0.2167652 1.1478566
-3.4491663 0.50841922 1.6228367
-3.3718922 0.40637481 1.4965012
-3.2915163 0.31124598 1.3742342
-3.2289572 0.21901849 1.2613564
-4.3180728 0.65753913 2.1399777
-3.4594016 0.41936174 1.627419
-3.3781395 0.31932065 1.5000447
-3.2978315 0.22124666 1.3747245
-4.2683072 0.65464854 2.2340255
-5.1179042 0.65365201 2.5300145
-3.4596694 0.32728696 1.6307596
-3.3784566 0.22428253 1.5013319
-4.2047381 0.64988905 2.3177776
-4.9845452 0.63678801 2.604238
-4.8002977 0.47808063 2.3798413
-3.4699254 0.22821303 1.6361613
-3.4686558 0.5293662 2.0187147
-4.6137428 0.58736575 2.546382
-4.6917734 0.46416116 2.4625857
-4.7996912 0.33493865 2.3862429
-4.1072402 0.64515108 2.5039296
-3.4590063 0.42629364 2.01967
-4.5753999 0.45035762 2.5371826
-4.667347 0.31909609 2.4595032
-4.0337706 0.63944626 2.5824776
-4.6619887 0.60007542 2.8506184
-3.4552016 0.32409757 2.028753
-4.5905199 0.30901936 2.5579159
-3.1320207 0.48637989 2.1106658
-4.555531 0.58823508 2.9294374
-3.5451417 0.33353508 2.1906626
-3.4424899 0.21292508 2.0345061
-4.2904496 0.69864398 3.0165012
-3.142988 0.38903794 2.1311171
-3.5390792 0.33253074 2.3005683
-4.6454949 0.30443156 2.8799713
-2.6065891 0.40453446 1.9312868
-4.3349156 0.5648151 3.0709314
-4.4264927 0.43219206 3.0132272
-3.4304967 0.20602582 2.2482293
-2.810914 0.44697148 2.1739624
-2.6056311 0.31725624 1.945695
-4.3161473 0.42044586 3.0859735
-4.4008594 0.27788976 3.0229595
-4.0153799 0.67462271 3.2349906
-2.7694759 0.34398302 2.1633198
-2.6016219 0.22891317 1.9630278
-3.2623394 0.18826193 2.3647988
-3.9309735 0.66793281 3.3103149
-2.7400172 0.34347144 2.2407854
-2.7545791 0.24667433 2.176285
-4.184052 0.25530303 3.1745431
-2.361656 0.38172069 2.0893419
-2.679074 0.3373163 2.2915502
-3.9903698 0.38647836 3.290329
-4.0697823 0.24361487 3.2432153
-1.8843141 0.2960045 1.7467382
-2.3958859 0.29881108 2.1465023
-2.3964455 0.2079808 2.0808477
-3.9585648 0.23299158 3.3089633
-1.8396974 0.29223207 1.7798457
-1.8674204 0.22177517 1.755082
-1.9010787 0.15328521 1.7334659
-2.4020944 0.11533058 2.1172895
-1.8706143 0.30439448 1.8886815
-1.8178649 0.21703921 1.7850786
-1.8504671 0.1484914 1.7664428
-1.8870802 0.076958448 1.747828
-2.0200517 0.3397077 2.1261985
-1.9428972 0.24078938 1.9929196
-1.8529005 0.15000387 1.8495438
-1.8275678 0.071222976 1.7756194
-2.2367396 0.39165559 2.4543064
-2.1254935 0.27341095 2.2760243
-2.0219777 0.17099327 2.1091771
-1.9300641 0.078273326 1.961729
-3.2729483 0.61457574 3.7411757
-3.3378313 0.47315523 3.7218258
-2.2425718 0.1987787 2.4469242
-2.1293581 0.091597363 2.2648041
-3.1779032 0.60719025 3.7972817
-3.2475755 0.46658844 3.7890401
-3.292799 0.32542181 3.7513206
-3.3459661 0.17921227 3.7176595
-3.0907364 0.60172462 3.8595717
-3.1494935 0.4591561 3.8470888
-3.1985853 0.31787705 3.816442
-3.2467008 0.17059551 3.7856684
-3.0035698 0.59625894 3.9218621
-3.0563879 0.45272329 3.9062495
-3.1053338 0.31029975 3.8835816
-3.1484692 0.16301836 3.8517144
-2.9173987 0.59179676 3.984189
-2.9691274 0.44716716 3.9735379
-3.0062518 0.30286378 3.9416118
-3.0463502 0.15553536 3.9116876
-2.8282695 0.58636004 4.0444427
-2.8740411 0.44074529 4.031661
-2.9110718 0.29635143 4.0047336
-2.9491332 0.14897972 3.9767706
-2.7411215 0.58091241 4.1057334
-2.7780294 0.43439227 4.0857668
-2.8178501 0.29080999 4.06991
-2.8528597 0.14237338 4.0448718
-2.6501052 0.57557714 4.1599512
-2.6887693 0.42882901 4.1530175
-2.7187867 0.28339201 4.1269403
-2.7507558 0.13590831 4.1038632
-2.5619347 0.57110769 4.2222404
-2.5966036 0.42334539 4.2152143
-2.6216781 0.27794474 4.1860437
-2.6544633 0.12928388 4.1729641
-2.4718583 0.56672162 4.2794943
-2.5034943 0.41791248 4.2743926
-2.5303438 0.27230194 4.2572556
-2.552393 0.12385484 4.2299743
-2.3817627 0.56231731 4.3377476
-2.4113429 0.41344678 4.3356075
-2.4351969 0.26682565 4.3183961
-2.4542134 0.11733178 4.2930393
-2.2964754 0.55874997 4.4061093
-2.3162899 0.40806091 4.3917494
-2.3370693 0.26135668 4.37848
-2.3569322 0.11272151 4.3611579
-2.2025158 0.55345815 4.4572716
-2.2221389 0.403588 4.4529266
-2.2428064 0.25677526 4.4456553
-2.2605796 0.10704266 4.4332752
-2.1133604 0.55000305 4.5185604
-2.1308944 0.39903551 4.5191584
-2.1446939 0.25232422 4.5047579
-2.1584303 0.10254108 4.4943023
-2.0193033 0.54562068 4.5747395
-2.0337815 0.39458805 4.5782795
-2.0425673 0.24684089 4.5647669
-2.0610406 0.096822463 4.5683999
-1.9252462 0.54123819 4.6309185
-1.9347441 0.39020571 4.6333647
-1.9491876 0.24315435 4.6379766
-1.9549484 0.092360787 4.6263528
-0.9744032 0.25409967 2.4861948
-0.977642 0.17405167 2.4888084
-0.97907925 0.096195132 2.4804242
-1.8507807 0.087833948 4.6883416
-0.89346153 0.24176629 2.4314377
-0.89186579 0.162863 2.4249783
-0.89316016 0.087879345 2.4236457
-0.90205604 0.013544351 2.4434743
-0.81744409 0.22937852 2.3807733
-0.81193089 0.1535508 2.3692944
-0.81123263 0.081577554 2.3669786
-0.812392 0.0074670985 2.3726616
-0.74351597 0.21808824 2.3251662
-0.73887843 0.14515503 2.3197579
-0.73523295 0.074225098 2.314405
-0.83248031 0.012851957 2.6332235
-0.67260998 0.20582691 2.2685976
-0.66690469 0.13583536 2.2662237
-0.66130394 0.067952029 2.2578881
-0.73528969 0.0061983988 2.5372508
-0.60841006 0.19631889 2.2272096
-0.59983248 0.12744306 2.2177997
-0.59413022 0.061468914 2.2144988
-0.64145046 0.00089911744 2.4223592
-0.54634082 0.18694466 2.1788611
-0.53950775 0.12084033 2.182539
-0.52806473 0.056097731 2.1651478
-0.52214473 -0.0070758723 2.1728969
-0.48998576 0.17832048 2.1456392
-0.47839299 0.1134332 2.136245
-0.46776959 0.051530872 2.1279235
-0.46086457 -0.010628406 2.1346722
-0.43383652 0.16989526 2.1014204
-0.4211987 0.10696788 2.0940433
-0.4114362 0.046942182 2.0927742
-0.40605098 -0.012662664 2.1246059
-0.38147682 0.16228528 2.0682912
-0.36596662 0.10047356 2.0538778
-0.35611743 0.043374997 2.0566616
-0.34431392 -0.015694199 2.0573721
-0.33195886 0.15654099 2.0432518
-0.3164635 0.095747188 2.0278566
-0.30542335 0.039463993 2.0406361
-0.29089335 -0.017344991 2.0263317
-0.28353828 0.1498909 2.0132146
-0.27131104 0.093423225 2.0359719
-0.26088846 0.038781498 2.0687993
-0.94019765 0.11282426 8.4310141
-0.2445786 0.15183146 2.0635371
-0.23033305 0.095338523 2.0872569
-0.2196857 0.040479723 2.1320803
-0.70429647 0.10070242 8.0532503
-0.20448411 0.15464166 2.120857
-0.18822412 0.097123615 2.1455204
-0.17364153 0.040305059 2.1872339
-0.49039078 0.089704081 7.7289362
-0.16421719 0.15828888 2.1871915
-0.14486805 0.099669784 2.216779
-0.37016732 0.28763026 7.542202
-0.29235113 0.078636542 7.4119205
-0.26741701 0.50687915 5.6766119
-0.25734782 0.46180367 7.2321353
-0.18657589 0.26805711 7.2563138
-0.11154751 0.069909543 7.1352839
-0.14428511 0.50938189 5.7883897
-0.092849538 0.44452298 7.1006985
-0.017543331 0.25012147 6.9937358
0.058673933 0.06182386 6.8808646
-0.02611593 -0.059798401 0.050936799
0.06591434 0.42090404 6.8782229
0.13789679 0.23485565 6.7524676
0.21420163 0.054502442 6.6427393
0.13263756 0.59253895 6.8300629
0.21272177 0.39829189 6.6579905
0.28763756 0.219322 6.5273066
0.36199683 0.047956318 6.4187779
0.24000612 0.49669701 5.9090061
0.35266548 0.37657803 6.4449058
0.42482311 0.2064184 6.3254361
0.50013483 0.04212027 6.2130165
0.39559469 0.52594209 6.305757
0.48188508 0.35764995 6.2460771
0.55403274 0.19452526 6.1247339
0.62820363 0.037392341 6.0034618
0.51572835 0.49910188 6.1039538
0.60341358 0.34046072 6.0634284
0.67539757 0.18351592 5.9321976
0.74763376 0.033352852 5.8130879
0.637474 0.48074049 5.9863019
0.71999919 0.32323524 5.8838735
0.7900672 0.17324215 5.755805
0.8634578 0.028947815 5.6437826
0.74617249 0.45841798 5.8138046
0.82864237 0.30598414 5.7074671
-0.02611593 -0.059798401 0.050936799
-0.02611593 -0.059798401 0.050936799
-0.02611593 -0.059798401 0.050936799
-0.02611593 -0.059798401 0.050936799
1.0050162 0.15416923 5.4353266
1.078514 0.022818409 5.3265381
0.17765111 0.039924406 1.1883112
1.0348424 0.27867359 5.402009
0.26117072 -0.0079368558 1.383948
0.28708166 -0.039061077 1.3849001
1.0516779 0.40020698 5.3698812
0.27148184 0.023840915 1.3943332
1.1983554 0.13781291 5.1353097
1.2688595 0.017507233 5.0247755
0.27662137 0.054799605 1.3957976
1.2193538 0.25315219 5.1129951
1.2877609 0.13194424 4.9974823
1.3572061 0.015713781 4.8830409
1.2283427 0.36553502 5.0908523
1.3046991 0.24133503 4.9731359
1.3731443 0.12510814 4.8587132
1.4459082 0.013576634 4.7603002
1.3139944 0.35041082 4.9679332
1.3881794 0.23039824 4.8403301
1.4609808 0.11883055 4.7439165
1.5305402 0.01252605 4.6336536
1.3935497 0.33439881 4.8401108
1.4720986 0.22104508 4.7305527
1.5395569 0.11283854 4.615293
-0.02611593 -0.059798401 0.050936799
1.4733 0.32020554 4.722321
1.5497713 0.21094881 4.6078739
-0.02611593 -0.059798401 0.050936799
0.43815449 -0.040827371 1.2279865
1.5480325 0.30604833 4.6036253
-0.02611593 -0.059798401 0.050936799
0.43077803 -0.017353943 1.2035409
1.7619457 0.008968398 4.281137
-0.02611593 -0.059798401 0.050936799
0.40454668 0.0029987898 1.1343769
1.7651449 0.098087229 4.2746868
1.8286184 0.0079462528 4.1568284
0.38685283 0.021798389 1.0940346
0.49847913 0.011866355 1.2878305
1.8309559 0.093924433 4.1583405
1.8986917 0.0085330978 4.0534916
0.49240211 0.035046779 1.2793608
1.8292447 0.17695367 4.1578741
1.9000697 0.090461291 4.0579495
1.964668 0.0082249194 3.9452143
1.8248634 0.25766844 4.1754222
1.8973618 0.16947672 4.0584302
1.9651281 0.087066755 3.9546354
2.0308168 0.0087537542 3.845952
1.8868909 0.24628605 4.0720201
1.9584051 0.16209723 3.9551187
2.0251124 0.083762541 3.8474159
2.0939624 0.0082935616 3.7467277
1.9510717 0.23575161 3.9765956
2.019546 0.15562713 3.8568234
2.0924928 0.08105316 3.7610762
2.1593213 0.0096268579 3.658498
2.0102351 0.22525315 3.8802652
2.0859337 0.14990374 3.7714479
2.154799 0.07843408 3.6708319
2.2215643 0.010079607 3.5643089
2.0725737 0.21658084 3.7929115
2.1462281 0.14429237 3.6811869
2.2130084 0.074919969 3.5756459
2.278846 0.01051414 3.4722133
2.1318717 0.20695561 3.7035968
2.203505 0.13870983 3.5899827
2.2713568 0.073278882 3.4874942
2.3350902 0.010988425 3.3781369
2.187156 0.19836268 3.6133757
2.2618752 0.13303325 3.503758
2.3266644 0.07068494 3.3973811
2.3945434 0.012252808 3.2950184
2.2445142 0.18969022 3.5271158
2.3162315 0.12838893 3.4166267
2.380976 0.069094375 3.3073051
2.44683 0.013705112 3.2030349
2.2978547 0.18105014 3.4399314
2.3716021 0.12272312 3.3304584
2.4364185 0.067373633 3.2242076
2.5043025 0.014958579 3.1209536
2.3482144 0.17240278 3.3538027
2.4281108 0.11892678 3.2513049
2.4939582 0.066555083 3.1460888
2.5587573 0.016240895 3.0379291
2.404731 0.16558887 3.2755949
2.477468 0.1143004 3.1642675
2.5453267 0.064921029 3.0590682
2.6152902 0.018443529 2.9588833
2.458225 0.15780394 3.1964257
2.5289373 0.10955836 3.0831904
2.6029596 0.064012051 2.9859478
2.6677864 0.02069667 2.877914
2.5066304 0.15112725 3.1123703
2.583503 0.1057149 3.0070736
2.6513851 0.062334493 2.9019823
2.7182603 0.021975264 2.7959642
2.5612407 0.14423007 3.0391982
2.6309204 0.10204129 2.9230909
2.692703 0.061790433 2.8121686
2.772831 0.024148889 2.7189558
2.6097212 0.13748097 2.9591413
2.68045 0.098251954 2.8450689
2.7513924 0.060823601 2.7420285
2.8142169 0.026550047 2.632195
2.6602573 0.1306705 2.8820457
2.7381315 0.095289022 2.7749116
2.7988777 0.06009521 2.661099
2.8657656 0.02775269 2.5542252
2.7098351 0.12482726 2.8069863
2.7876835 0.092481442 2.697907
2.8413262 0.059420921 2.5782638
2.967145 0.031982888 2.519392
2.7604313 0.11896233 2.7329078
2.8260651 0.088876307 2.6120937
2.907172 0.060283896 2.5160255
3.0177014 0.035188779 2.4414768
2.7998757 0.11228175 2.6510205
2.8746731 0.086018056 2.5381069
2.991318 0.061792683 2.4694614
3.0672543 0.037398428 2.3635628
2.848495 0.10740575 2.5779974
2.9761119 0.086176567 2.5072
3.0398631 0.062006254 2.3915303
3.1117375 0.040698215 2.2817616
2.9133358 0.10225523 2.5166695
3.0236642 0.083376147 2.430233
3.094501 0.062107872 2.3184843
3.1613314 0.043871518 2.2058649
2.9853294 0.097934723 2.4632254
3.0783126 0.081459999 2.3581507
3.1359911 0.062400825 2.2376854
3.2169437 0.047005203 2.1308551
3.0379667 0.093026266 2.3911266
3.1218286 0.078710124 2.2792594
3.1865737 0.062571064 2.1617155
3.2665005 0.050214667 2.052959
3.086586 0.08815024 2.3181033
3.1673625 0.075934991 2.2013307
3.2402158 0.063676089 2.0887067
4.7004972 0.10059416 2.7742662
3.1382046 0.083263464 2.245024
3.2159748 0.074076556 2.1273618
4.6564302 0.11592085 2.8213847
4.7714968 0.10626702 2.666003
3.1878426 0.078365766 2.1729815
3.2625318 0.07227955 2.0504315
4.7264323 0.11757988 2.7140677
4.607132 0.10305737 2.4359443
3.2303693 0.073601745 2.0950725
4.6915188 0.12469474 2.7708693
4.8115854 0.12004022 2.6144841
4.6358123 0.10718881 2.31144
3.2840476 0.069653355 2.0249724
4.7706385 0.12319535 2.6703267
4.5927768 0.11144142 2.3623397
4.7099419 0.11272427 2.2101176
4.7288957 0.11612066 2.7390034
4.6820493 0.11493938 2.4817722
4.6699457 0.11291254 2.2638881
5.0603795 0.12904905 2.2268574
4.7979083 0.11074831 2.6335785
4.6228976 0.10916276 2.3157187
4.9760866 0.12366758 2.2663517
5.1292663 0.13483763 2.1126339
4.582109 0.095103748 2.383251
4.6990743 0.10761988 2.2182317
5.0863743 0.12791122 2.1733322
11.205172 0.37371993 4.2379179
4.6532745 0.090579338 2.2858038
5.0525541 0.11586291 2.2387695
5.1522312 0.13072914 2.058111
11.174379 0.38141698 3.9285293
4.9110026 0.089870468 2.26896
5.1134152 0.11468136 2.1245699
11.576252 0.36722654 4.2398534
11.137623 0.38809952 3.6212339
5.0747852 0.088418245 2.2028446
12.403572 0.3541379 4.7302933
11.766799 0.37581292 3.9993596
11.136265 0.39727598 3.3343282
5.1447034 0.083132744 2.0924027
12.623909 0.35378098 4.4800768
11.852554 0.37953335 3.7187266
11.033436 0.40226811 3.0242383
13.53545 0.29604515 5.0431566
12.835061 0.35363725 4.2200327
11.882054 0.38270822 3.4251323
11.024173 0.41138291 2.7424812
13.756215 0.28419319 4.7647152
13.275423 0.36049798 4.0208449
11.995041 0.38911411 3.1560414
10.971894 0.41967019 2.4605145
13.946684 0.27173844 4.4708238
14.232358 0.38401404 3.9503298
12.009508 0.39237902 2.8607297
10.998951 0.43034798 2.195111
14.136039 0.25939587 4.1709533
14.42655 0.38285062 3.6395674
12.185723 0.4023411 2.6025229
10.910671 0.43676487 1.9137847
14.33336 0.24806054 3.8689518
14.53032 0.38042665 3.3074682
12.488274 0.41652444 2.3600328
10.756299 0.44050959 1.6286459
14.530489 0.23590633 3.5569355
14.122996 0.36387646 2.8716474
12.976258 0.43962619 2.1372387
10.826681 0.45472479 1.3795009
14.546789 0.22021298 3.2032266
13.366783 0.33544594 2.3941295
12.395768 0.42192286 1.7476547
10.761762 0.46271515 1.1167719
13.831328 0.19287023 2.7119606
12.723738 0.31249067 1.9766126
11.802764 0.40279609 1.3842883
6.0997524 0.24288765 0.51187563
13.138588 0.16776071 2.2583227
12.139465 0.29258502 1.5990636
11.305551 0.38856754 1.0612305
5.9879379 0.24401064 0.36293894
12.520804 0.1454623 1.854349
11.596774 0.27397102 1.2517698
6.0243249 0.18232146 0.44817066
6.0163531 0.25241274 0.22351167
11.943698 0.12536868 1.4856656
6.1288662 0.11520823 0.54203117
6.0526829 0.1857606 0.30665398
3.6736236 0.13535649 0.070204452
11.437265 0.10737211 1.1517086
5.9789414 0.11055906 0.38870212
6.0400262 0.18836513 0.16489002
3.0790191 0.10802758 -0.0041825287
6.0685797 0.024340071 0.49149907
6.0233226 0.11090508 0.24883002
3.0766525 0.068285227 0.037156887
3.1156609 0.11321103 -0.077799752
6.0098019 0.018201683 0.34543899
6.0786867 0.11222957 0.10776961
3.1142867 0.071465425 -0.036515161
2.9704094 0.10894081 -0.14217933
6.026094 0.01372142 0.20200431
3.112942 0.027683999 0.0067327106
3.1479068 0.075677894 -0.1110937
2.7324171 0.099751972 -0.1909062
3.8798654 -0.015234265 0.056614403
3.1635282 0.028854053 -0.069218978
2.7319531 0.059093069 -0.15462069
2.7661531 0.10485574 -0.25946876
3.8121543 -0.018350443 -0.033204671
3.4179173 0.036471676 -0.15887442
2.7656813 0.062197175 -0.22321928
2.8098581 0.11195944 -0.33018249
3.6095536 -0.023072219 -0.11552475
3.3964155 0.035990916 -0.23850754
2.8013945 0.066312015 -0.29283708
2.3757269 0.088629819 -0.32847583
4.0524578 -0.020716008 -0.23181391
3.2870677 0.032681778 -0.30854386
1.9501835 0.029616665 -0.2355445
2.4025767 0.09365017 -0.39090887
-0.02611593 -0.059798401 0.050936799
1.9455564 -0.0048480136 -0.20907232
2.4129758 0.05207859 -0.3618457
2.4284081 0.098692194 -0.45432281
3.815237 -0.027763013 -0.39955685
1.9336934 -0.0049762665 -0.25486809
2.4547439 0.056117635 -0.42857727
2.5598021 0.1117866 -0.54357624
1.9311023 -0.044501536 -0.22552456
3.0004816 0.026172411 -0.49535924
2.4934752 0.060203616 -0.49725181
2.838418 0.13410802 -0.67743427
4.2724037 -0.027844053 -0.66120636
2.928359 0.024513084 -0.55405885
2.8099935 0.078461707 -0.6358946
2.7903442 0.13632569 -0.7345134
3.4511664 -0.036525212 -0.61097062
2.8742189 0.023807067 -0.61407828
2.8594646 0.083761297 -0.71875298
2.5393543 0.1232108 -0.72904962
3.5531547 -0.036980681 -0.71892494
2.8798282 0.024120703 -0.68820274
2.6392407 0.074769624 -0.72679526
2.425812 0.11914177 -0.75600654
3.3334117 -0.039452374 -0.75586802
2.8924029 0.025445227 -0.76444012
2.500741 0.070754156 -0.75128311
3.0100172 0.16772324 -1.0261573
3.4601855 -0.040798411 -0.87530637
2.5797052 0.017298754 -0.7437259
3.0502038 0.1021566 -1.0040882
-0.02611593 -0.059798401 0.050936799
2.6388404 -0.04628215 -0.72497684
2.4422469 0.014243339 -0.76621521
3.0159369 0.10350509 -1.071445
0.18536875 -0.044082087 -0.03476752
2.5440824 -0.047202796 -0.7642327
3.1147118 0.036106914 -1.0715135
-0.02611593 -0.059798401 0.050936799
-0.02611593 -0.059798401 0.050936799
2.4255304 -0.049236126 -0.79205924
-0.02611593 -0.059798401 0.050936799
0.1813124 -0.049030706 -0.036781769
0.1623316 -0.044963196 -0.036352675
-0.02611593 -0.059798401 0.050936799
0.18034913 -0.054080535 -0.033854086
-0.02611593 -0.059798401 0.050936799
-0.02611593 -0.059798401 0.050936799
0.18634711 -0.059119307 -0.033057261
-0.02611593 -0.059798401 0.050936799
0.15135142 -0.049959045 -0.034236755
0.14431223 -0.045880336 -0.037032131
-0.02611593 -0.059798401 0.050936799
0.16129643 -0.053958073 -0.036496051
-0.02611593 -0.059798401 0.050936799
-0.02611593 -0.059798401 0.050936799
0.15735242 -0.059015229 -0.032512337
-0.02611593 -0.059798401 0.050936799
0.13135113 -0.050887093 -0.033878963
0.12433066 -0.046826474 -0.035674669
-0.02611593 -0.059798401 0.050936799
0.13929652 -0.05487895 -0.036100678
-0.02611593 -0.059798401 0.050936799
-0.02611593 -0.059798401 0.050936799
0.13239442 -0.058961682 -0.030043256
-0.02611593 -0.059798401 0.050936799
0.11831606 -0.050804257 -0.035634004
0.10734859 -0.047783382 -0.034373581
-0.02611593 -0.059798401 0.050936799
0.1183378 -0.05483976 -0.033706758
-0.02611593 -0.059798401 0.050936799
-0.02611593 -0.059798401 0.050936799
0.12032174 -0.058846258 -0.033816412
-0.02611593 -0.059798401 0.050936799
0.1033336 -0.051768344 -0.034370493
0.094350971 -0.047736727 -0.034129307
-0.02611593 -0.059798401 0.050936799
0.10433644 -0.055789348 -0.033461709
-0.02611593 -0.059798401 0.050936799
-0.02611593 -0.059798401 0.050936799
0.10730539 -0.058781512 -0.034571789
-0.02611593 -0.059798401 0.050936799
0.090335988 -0.051721688 -0.034126218
0.086314984 -0.04767184 -0.035978317
-0.02611593 -0.059798401 0.050936799
0.090339005 -0.055739101 -0.033198643
-0.02611593 -0.059798401 0.050936799
-0.02611593 -0.059798401 0.050936799
0.091345757 -0.05876027 -0.032271821
-0.02611593 -0.059798401 0.050936799
0.080337822 -0.051685799 -0.033938311
0.073350884 -0.048661191 -0.033752725
-0.02611593 -0.059798401 0.050936799
0.080322117 -0.055685122 -0.034010388
-0.02611593 -0.059798401 0.050936799
-0.02611593 -0.059798401 0.050936799
0.07442376 -0.058771614 -0.027953736
-0.02611593 -0.059798401 0.050936799
0.066392615 -0.052689657 -0.030694284
0.063386232 -0.049661312 -0.031583518
-0.02611593 -0.059798401 0.050936799
0.068357825 -0.056678064 -0.0318036
-0.02611593 -0.059798401 0.050936799
-0.02611593 -0.059798401 0.050936799
0.066406496 -0.058724813 -0.02880308
-0.02611593 -0.059798401 0.050936799
0.058394089 -0.052660942 -0.030543961
0.057349883 -0.049603596 -0.033470094
-0.02611593 -0.059798401 0.050936799
0.056416187 -0.056689262 -0.028579134
-0.02611593 -0.059798401 0.050936799
-0.02611593 -0.059798401 0.050936799
0.058370523 -0.058659926 -0.030652072
-0.02611593 -0.059798401 0.050936799
0.053338837 -0.052588731 -0.033448987
0.048370246 -0.049589388 -0.032301329
-0.02611593 -0.059798401 0.050936799
0.051360939 -0.056617051 -0.031484161
-0.02611593 -0.059798401 0.050936799
-0.02611593 -0.059798401 0.050936799
0.050390705 -0.058649302 -0.02950209
-0.02611593 -0.059798401 0.050936799
0.046336193 -0.053563438 -0.033335473
0.042371351 -0.049567852 -0.032188583
-0.02611593 -0.059798401 0.050936799
0.047305502 -0.056548424 -0.034407984
-0.02611593 -0.059798401 0.050936799
-0.02611593 -0.059798401 0.050936799
0.046316553 -0.058562588 -0.033425566
-0.02611593 -0.059798401 0.050936799
0.038356371 -0.053552818 -0.032185495
0.038315915 -0.049499232 -0.035112407
-0.02611593 -0.059798401 0.050936799
0.038363311 -0.056570396 -0.031239882
-0.02611593 -0.059798401 0.050936799
-0.02611593 -0.059798401 0.050936799
0.039317828 -0.058537465 -0.03329403
-0.02611593 -0.059798401 0.050936799
0.034300938 -0.053484194 -0.035109319
0.030350896 -0.050506525 -0.03298077
-0.02611593 -0.059798401 0.050936799
0.031364594 -0.056545272 -0.03110835
-0.02611593 -0.059798401 0.050936799
-0.02611593 -0.059798401 0.050936799
-0.02611593 -0.059798401 0.050936799
-0.02611593 -0.059798401 0.050936799
0.028339481 -0.053498838 -0.032997243
0.026314188 -0.050455991 -0.034904942
-0.02611593 -0.059798401 0.050936799
-0.02611593 -0.059798401 0.050936799
-0.02611593 -0.059798401 0.050936799
-0.02611593 -0.059798401 0.050936799
-0.02611593 -0.059798401 0.050936799
-0.02611593 -0.059798401 0.050936799
-0.02611593 -0.059798401 0.050936799
0.022277473 -0.050405458 -0.036829095
-0.02611593 -0.059798401 0.050936799
-0.02611593 -0.059798401 0.050936799
-0.02611593 -0.059798401 0.050936799
-0.02611593 -0.059798401 0.050936799
-0.02611593 -0.059798401 0.050936799
-0.02611593 -0.059798401 0.050936799
-0.02611593 -0.059798401 0.050936799
-0.02611593 -0.059798401 0.050936799
-0.02611593 -0.059798401 0.050936799
-0.02611593 -0.059798401 0.050936799
-0.02611593 -0.059798401 0.050936799
-0.02611593 -0.059798401 0.050936799
-0.02611593 -0.059798401 0.050936799
-0.02611593 -0.059798401 0.050936799
-0.02611593 -0.059798401 0.050936799
