# .PCD v0.7 - Point Cloud Data file format
VERSION 0.7
FIELDS x y z
SIZE 4 4 4
TYPE F F F
COUNT 1 1 1
WIDTH 1399
HEIGHT 1
VIEWPOINT 0 0 0 1 0 0 0
POINTS 1399
DATA ascii
-0.02611593 -0.059798401 0.050936799
-0.12447451 -0.0079392958 -0.030311123
-0.02611593 -0.059798401 0.050936799
-0.02611593 -0.059798401 0.050936799
-0.13443129 -0.0069397576 -0.028105881
-0.02611593 -0.059798401 0.050936799
-0.11740876 -0.010036436 -0.026480053
-0.11854656 -0.0068886457 -0.034404494
-0.02611593 -0.059798401 0.050936799
-0.13244645 -0.005929016 -0.029125094
-0.02611593 -0.059798401 0.050936799
-0.02611593 -0.059798401 0.050936799
-0.14644691 -0.0018613595 -0.029789619
-0.02611593 -0.059798401 0.050936799
-0.13044682 -0.0059361937 -0.029162675
-0.12550391 -0.0058998712 -0.03225562
-0.02611593 -0.059798401 0.050936799
-0.13939989 -0.0039404104 -0.026958209
-0.02611593 -0.059798401 0.050936799
-0.02611593 -0.059798401 0.050936799
-0.15234828 -0.00093044422 -0.024660554
-0.02611593 -0.059798401 0.050936799
-0.13943733 -0.0039042323 -0.028957527
-0.13347587 -0.0038895877 -0.031069603
-0.02611593 -0.059798401 0.050936799
-0.15240051 0.00012364995 -0.027641524
-0.02611593 -0.059798401 0.050936799
-0.02611593 -0.059798401 0.050936799
-0.16634479 0.0041370392 -0.025307052
-0.02611593 -0.059798401 0.050936799
-0.14940105 0.00011288316 -0.027697895
-0.14346619 -0.0018540369 -0.030845657
-0.02611593 -0.059798401 0.050936799
-0.16436389 0.0041479506 -0.026344292
-0.02611593 -0.059798401 0.050936799
-0.02611593 -0.059798401 0.050936799
-0.18331811 0.010197035 -0.024879508
-0.02611593 -0.059798401 0.050936799
-0.15935393 0.0021122554 -0.025474627
-0.15443365 0.0011668402 -0.029585242
-0.02611593 -0.059798401 0.050936799
-0.18135592 0.010226035 -0.026916414
-0.02611593 -0.059798401 0.050936799
-0.02611593 -0.059798401 0.050936799
-0.20933418 0.019343082 -0.027227759
-0.02611593 -0.059798401 0.050936799
-0.17333564 0.0061618229 -0.025139485
-0.16639704 0.0051911371 -0.028288014
-0.02611593 -0.059798401 0.050936799
-0.20234331 0.017318297 -0.027395334
-0.02611593 -0.059798401 0.050936799
-0.02611593 -0.059798401 0.050936799
-0.23129873 0.027420677 -0.026670221
-0.02611593 -0.059798401 0.050936799
-0.19232343 0.013246909 -0.025655992
-0.17934541 0.0082011074 -0.025990363
-0.02611593 -0.059798401 0.050936799
-0.22832194 0.026428169 -0.027744278
-0.02611593 -0.059798401 0.050936799
-0.02611593 -0.059798401 0.050936799
-0.25923169 0.038501207 -0.024946231
-0.02611593 -0.059798401 0.050936799
-0.21933928 0.022396546 -0.027985469
-0.20338452 0.016358234 -0.029393896
-0.02611593 -0.059798401 0.050936799
-0.25326329 0.035498273 -0.026112683
-0.02611593 -0.059798401 0.050936799
-0.02611593 -0.059798401 0.050936799
-0.96881324 0.33169803 -0.21142054
-0.02611593 -0.059798401 0.050936799
-0.23925197 0.029412862 -0.024484541
-0.22533427 0.023417909 -0.027854703
-0.97842908 0.33337176 -0.19120337
-0.96002573 0.32584763 -0.22169438
-0.02611593 -0.059798401 0.050936799
-0.02611593 -0.059798401 0.050936799
-0.98804498 0.33504558 -0.17098619
-0.97567397 0.32857895 -0.20334578
-0.02611593 -0.059798401 0.050936799
-0.25229791 0.031513453 -0.027203213
-0.99664229 0.33669764 -0.14978817
-0.98527497 0.32923481 -0.18214694
-0.97088957 0.3217431 -0.21356246
-0.02611593 -0.059798401 0.050936799
-1.0112681 0.34040713 -0.13044068
-0.99589068 0.33091214 -0.16191101
-0.97749913 0.3203885 -0.19245607
-0.96916473 0.31397241 -0.22673978
-1.0248754 0.34409493 -0.11011232
-1.0105164 0.33462161 -0.14256351
-0.98911452 0.32206947 -0.17220131
-0.9767741 0.31262144 -0.20561457
-1.03846 0.34876445 -0.088766254
-1.0261234 0.33831659 -0.12219757
-1.0037256 0.324761 -0.15187217
-0.98035443 0.30922025 -0.18260127
-1.0450429 0.3493914 -0.066624172
-1.0337062 0.33894715 -0.10003668
-1.0103164 0.32338831 -0.12976612
-0.99798363 0.31194064 -0.16321543
-1.0596273 0.35406452 -0.045259349
-1.0502902 0.34362748 -0.07863427
-1.0329329 0.32912615 -0.11023228
-1.01158 0.3136107 -0.14192344
-1.0801989 0.36175868 -0.023727708
-1.0628643 0.34627566 -0.056343392
-1.0445296 0.33078903 -0.088977851
-1.0151753 0.31122741 -0.11989177
-1.081764 0.36234963 -0.00067990273
-1.0684474 0.34689903 -0.034220085
-1.0551078 0.33243018 -0.066742577
-1.0317672 0.31390807 -0.098525405
-1.0923196 0.3649725 0.02257305
-1.0719972 0.34647927 -0.010153055
-1.0626758 0.33204284 -0.043600053
-1.0443491 0.31455657 -0.076270558
-1.104867 0.36960232 0.04589963
-1.0905583 0.3521485 0.012304619
-1.0712357 0.33365878 -0.020402692
-1.0489026 0.31314057 -0.052202754
-1.1253971 0.37826011 0.069448598
-1.0990993 0.35374629 0.036501639
-1.0927774 0.33932066 0.0031110123
-1.0704858 0.31783882 -0.030706391
-0.02611593 -0.059798401 0.050936799
-1.1166419 0.35939381 0.059940185
-1.0973271 0.33890447 0.027196832
-1.0860218 0.32046154 -0.006359823
-1.1524314 0.38847235 0.11915633
-1.1441482 0.36905849 0.084638365
-1.1158508 0.34453753 0.051653828
-1.0835658 0.31700268 0.018540069
-0.02611593 -0.059798401 0.050936799
-1.1476754 0.36962044 0.10972308
-1.1143907 0.34208202 0.076590523
-1.0961024 0.31961468 0.042830262
-1.20632 0.41068903 0.17458594
-1.1741257 0.37922722 0.13740146
-1.1478733 0.35274997 0.10241914
-1.1275933 0.3282758 0.068585262
-1.1998569 0.40921542 0.19944671
-0.02611593 -0.059798401 0.050936799
-1.1603683 0.3563256 0.12872668
-1.1431103 0.33088043 0.093931481
-1.2302386 0.42178181 0.23025328
-1.2120299 0.39336979 0.19338593
-1.1878037 0.36491805 0.15740548
-0.02611593 -0.059798401 0.050936799
-1.2167846 0.41828343 0.25494647
-1.2354246 0.40291154 0.22400692
-0.02611593 -0.059798401 0.050936799
-1.2009804 0.34807613 0.15134549
-0.02611593 -0.059798401 0.050936799
-1.2518321 0.40942866 0.25444233
-1.2326277 0.38001317 0.21753816
-0.02611593 -0.059798401 0.050936799
-0.02611593 -0.059798401 0.050936799
-1.2811618 0.42093736 0.28821105
-1.2609841 0.38953674 0.25025243
-1.2407875 0.358118 0.21329343
-1.2947899 0.45379156 0.35508317
-1.29056 0.42541167 0.31947857
-1.2664135 0.3910152 0.28039104
-1.2671483 0.36663452 0.2459521
-1.3200748 0.46724936 0.39081213
-1.3138797 0.43488106 0.3540982
-1.2957095 0.40148792 0.3161411
-0.02611593 -0.059798401 0.050936799
-1.3661972 0.48765475 0.43405944
-1.34908 0.450302 0.3940497
-1.3020934 0.40493351 0.34833384
-1.2680097 0.36453843 0.30695099
-1.7458776 0.64646953 0.58409172
-1.3594179 0.45572549 0.42835301
-1.3055042 0.40638676 0.37943456
-0.02611593 -0.059798401 0.050936799
-1.7321912 0.64475375 0.62081689
-1.8434144 0.64538729 0.60990709
-1.333707 0.41676542 0.42016411
-0.02611593 -0.059798401 0.050936799
-1.7224776 0.64503396 0.65865296
-1.8316526 0.64360636 0.65066844
-1.9597859 0.647228 0.64413077
-1.3427778 0.38876629 0.42182803
-1.7048144 0.64232206 0.69428521
-1.8218679 0.64281434 0.69248515
-1.9628146 0.65031916 0.69526076
-2.1019654 0.64898115 0.68883961
-1.6911467 0.64062434 0.73001075
-1.8100837 0.6420151 0.73426419
-1.9490011 0.64747697 0.73896551
-2.0930159 0.64703012 0.739654
-1.6794522 0.64091545 0.76680952
-1.7963409 0.64024502 0.77398831
-1.9331731 0.64360958 0.78361434
-2.0830481 0.64505726 0.79144919
-1.6637809 0.64021039 0.80251545
-1.7805989 0.63846779 0.81367487
-1.9232908 0.64372689 0.83044732
-2.0790334 0.6450696 0.84539253
-1.6500906 0.63949442 0.83925867
-1.7727872 0.63966453 0.85656482
-1.911413 0.64283717 0.87722462
-2.0690429 0.64407861 0.89820552
-1.6304613 0.63781136 0.87287211
-1.7550452 0.63788009 0.89621377
-1.8975767 0.64097679 0.92194712
-2.0580525 0.64308399 0.95099962
-1.6157712 0.63709182 0.90959644
-1.7363223 0.63611025 0.93484432
-1.8757873 0.63712406 0.96448386
-2.0519974 0.64405268 1.0069227
-1.5981189 0.63639766 0.94426519
-1.7205762 0.63533282 0.97454894
-1.8668634 0.63820869 1.013353
-2.0330536 0.6410659 1.0575311
-1.5765316 0.63374382 0.9758237
-1.707788 0.63552982 1.0163273
-1.8470471 0.63634479 1.056963
-2.0161057 0.63908607 1.1081952
-1.5588754 0.63404953 1.0105104
-1.6850884 0.6327638 1.0538648
-1.83117 0.63544071 1.1036654
-2.0090089 0.64101487 1.166117
-1.5382652 0.63238096 1.0431054
-1.6663429 0.63197559 1.0935131
-1.8083726 0.63358408 1.1462194
-1.9831264 0.6370573 1.2135768
-1.5166551 0.63070887 1.0756817
-1.6476121 0.63220549 1.1321797
-1.7895148 0.63268739 1.1918654
-1.9680767 0.636994 1.2693129
-1.4950264 0.6290186 1.1092575
-1.6150423 0.62551278 1.1634595
-1.7686759 0.63180161 1.2364744
-1.9471067 0.63598162 1.3209193
-1.4763892 0.6293388 1.1429257
-1.6002281 0.62768418 1.2062359
-1.7409251 0.62796354 1.276899
-1.9192209 0.63301671 1.3683597
-1.4518209 0.62669224 1.1734282
-1.5736041 0.62497616 1.2396997
-1.718124 0.62710679 1.3194711
-1.8982284 0.63298601 1.420984
-1.4262865 0.62507814 1.2019306
-1.5498967 0.62420619 1.2772546
-1.6884108 0.62329775 1.3578589
-1.872282 0.63097394 1.4714789
-1.4046537 0.62438768 1.2355245
-1.5252497 0.62248719 1.3117739
-1.6655684 0.62340456 1.4024482
-1.8423777 0.62798387 1.5198812
-1.3801003 0.6227591 1.2650454
-1.4976034 0.6207574 1.3462366
-1.6387681 0.62253344 1.4449451
-1.809549 0.62505537 1.5642287
-1.3535661 0.62114143 1.2935289
-1.46898 0.61804211 1.3796629
-1.6060929 0.61874986 1.4812773
-1.7786598 0.62307954 1.6116307
-1.3299899 0.62049812 1.3240862
-1.4433104 0.61730117 1.415181
-1.5891029 0.62275094 1.5330491
-1.7644364 0.62887406 1.6754909
-1.2995204 0.61692059 1.3494596
-1.4185994 0.61752748 1.4527352
-1.555405 0.61994547 1.5703801
-1.723673 0.6239714 1.7166529
-1.2759215 0.61725903 1.3810346
-1.3870325 0.61485583 1.4831061
-1.519768 0.61618727 1.6046566
-1.6819661 0.61911947 1.7547972
-1.2484062 0.61565578 1.4084998
-1.3584011 0.61414033 1.5165683
-1.4900018 0.61634135 1.6451157
-1.6402364 0.61524928 1.7939593
-1.2208909 0.61405259 1.4359649
-1.3258344 0.6114651 1.5469205
-1.4474674 0.61064875 1.6742263
-1.6024233 0.61332077 1.837231
-1.19433 0.61441642 1.4654843
-1.2942636 0.60979319 1.5773095
-1.4157429 0.60983205 1.7126305
-1.5635916 0.61137056 1.8814838
-1.1697085 0.61573303 1.4980581
-1.2665678 0.6110267 1.6138257
-1.3800604 0.60803735 1.7489423
-1.5198998 0.60752934 1.9186088
-1.1421707 0.61511153 1.5265409
-1.2310618 0.60739505 1.6411045
-1.3472948 0.60818064 1.789345
-1.4859393 0.60948789 1.9690255
-1.1087579 0.61157757 1.548859
-1.1975102 0.60573411 1.6704563
-1.3096502 0.60641497 1.82362
-1.4393041 0.60569012 2.0030951
-1.0782952 0.6110177 1.5732868
-1.1629773 0.60408771 1.6987894
-1.2719829 0.60563093 1.8589125
-1.3965482 0.60379791 2.0432742
-1.0487763 0.61040705 1.6007323
-1.1293803 0.6043902 1.7301766
-1.2323762 0.60389417 1.8911504
-1.3537468 0.60386914 2.0854883
-1.017314 0.60984361 1.6251414
-1.0967832 0.60469639 1.7615824
-1.1927468 0.60313916 1.9244062
-1.3080474 0.60202044 2.1226118
-0.98391986 0.60632777 1.6464599
-1.0602695 0.60306084 1.7888784
-1.1512004 0.60044968 1.9535894
-1.2623255 0.60115349 2.160753
-0.95047659 0.60577518 1.6698315
-1.0227746 0.60143983 1.8151561
-1.1076694 0.59877092 1.9817537
-1.2098078 0.59644294 2.188694
-0.91999525 0.60519719 1.6952591
-0.98531723 0.59985501 1.8394343
-1.066059 0.59802687 2.013972
-1.1602029 0.59467036 2.2207441
-0.88559347 0.60367733 1.7165947
-0.95166022 0.60110307 1.8738384
-1.0283465 0.59920639 2.0513
-1.1144543 0.59578496 2.2599211
-0.85315007 0.60312837 1.7399853
-0.91319907 0.60051447 1.8981158
-0.97997373 0.59565479 2.0713367
-1.0648307 0.5939942 2.2929707
-0.8197028 0.60357565 1.763375
-0.87084401 0.59700245 1.9172659
-0.93546152 0.59399045 2.0984824
-1.0132034 0.59319615 2.3260007
-0.78242183 0.60015398 1.7786204
-0.83140182 0.59642839 1.9405248
-0.88708502 0.59143871 2.1185377
-0.95973414 0.590536 2.35096
-0.74608046 0.5976814 1.7969015
-0.79382038 0.59773451 1.9708551
-0.84153152 0.5907346 2.1476817
-0.90806162 0.59170139 2.3860257
-0.70971656 0.59619057 1.8162001
-0.74864227 0.59237486 1.9809158
-0.7998119 0.59389931 2.1849706
-0.8535887 0.59003741 2.410984
-0.67526555 0.59763402 1.8395892
-0.71007967 0.59369546 2.0102277
-0.75421315 0.59515864 2.21615
-0.7773701 0.5714336 2.3722076
-0.63892037 0.59616137 1.8578882
-0.66867131 0.59415019 2.0314677
-0.70297217 0.59172291 2.2291334
-0.69944847 0.54909462 2.3183262
-0.60439062 0.59853232 1.885294
-0.62530869 0.59263426 2.0506349
-0.6564337 0.59203303 2.2572768
-0.62371761 0.52594393 2.254468
-0.56606054 0.59807032 1.9025738
-0.58382547 0.59301662 2.0758739
-0.59862942 0.58297116 2.2480276
-0.55373049 0.50557899 2.2037718
-0.52685469 0.59471381 1.9137828
-0.53955662 0.59158754 2.0900238
-0.53172445 0.56068969 2.1933534
-0.48867452 0.48817733 2.1562231
-0.48848724 0.59421563 1.933062
-0.49520892 0.59108597 2.1081908
-0.46957827 0.54220849 2.150841
-0.42752028 0.4716993 2.1137657
-0.44919482 0.5937863 1.9483238
-0.44800466 0.58770072 2.1192496
-0.41142738 0.52474141 2.108422
-0.36835781 0.45722821 2.0713816
-0.40892524 0.59237152 1.962549
-0.39735678 0.57680893 2.1020985
-0.35427237 0.50827783 2.0660398
-0.31407419 0.44466615 2.035126
-0.36969292 0.59099662 1.9747938
-0.34502453 0.56220019 2.0688429
-0.30295476 0.49469054 2.0318217
-0.26603863 0.44144017 2.037169
-0.3275212 0.58866525 1.9839652
-0.29289517 0.54377294 2.0255189
-0.25756195 0.49614882 2.0520048
-0.2236727 0.45602402 2.106663
-0.28814605 0.59016323 2.0032616
-0.25123861 0.55000955 2.0588632
-0.21633083 0.50986308 2.1145022
-0.17834871 0.46963346 2.1740835
-0.24683133 0.59070837 2.0195034
-0.21108219 0.5637998 2.1173809
-0.1729385 0.526425 2.1850131
-0.13234884 0.49262628 2.2756727
-0.20463699 0.58935887 2.0296926
-0.16870843 0.5803833 2.1869109
-0.12859644 0.5551163 2.3037424
-0.08613646 0.56877071 2.5912917
-0.16246139 0.58802736 2.038882
-0.12143224 0.58094317 2.2010405
-0.07802511 0.57448983 2.383173
-0.024016745 0.5684216 2.5971243
-0.12014685 0.58856899 2.055105
-0.074373819 0.57870245 2.2041202
-0.023964036 0.57322383 2.3861387
0.034987252 0.5671919 2.5969973
-0.077087685 0.58634257 2.0582595
-0.025293104 0.57743633 2.2081795
0.029097231 0.57196146 2.3891234
0.097148336 0.56780648 2.6048474
-0.033908334 0.58600736 2.0674481
0.022926716 0.57804686 2.2192917
0.084120691 0.570728 2.3900712
0.15811452 0.56660575 2.6026833
0.010128001 0.5827958 2.0695662
0.072104976 0.57769006 2.2283676
0.13916287 0.56947654 2.3920188
0.21898316 0.56449574 2.5955033
0.053247258 0.58151495 2.075738
0.12222688 0.57738405 2.2344255
0.19411141 0.56831551 2.388968
0.28083685 0.56340003 2.5873227
0.098430179 0.58217239 2.0849071
0.17113516 0.57528085 2.22947
0.2480188 0.56619442 2.3839188
-0.02611593 -0.059798401 0.050936799
0.14239162 0.57903308 2.0830264
0.22011834 0.57310534 2.2285132
-0.02611593 -0.059798401 0.050936799
0.40148461 0.56027377 2.5680008
0.18859699 0.58066869 2.0931945
-0.02611593 -0.059798401 0.050936799
0.19315268 0.29647616 1.3787262
0.46124506 0.55927569 2.5548592
-0.02611593 -0.059798401 0.050936799
0.32235485 0.57550353 2.2396464
0.23082177 0.30572665 1.4121995
0.2804122 0.28590283 1.4469243
0.14130668 0.29134014 1.1755352
0.37226295 0.57339686 2.2346721
0.27149421 0.31596622 1.4456347
0.58400184 0.56005108 2.5405703
0.32577002 0.57797831 2.1015804
0.26173013 0.34688827 1.4523792
0.30334944 0.31397831 1.4379998
0.64274764 0.56007457 2.5264659
0.36948022 0.57307458 2.0866683
0.47422558 0.57304889 2.2317557
0.33946696 0.31674007 1.4433753
0.70251197 0.56007624 2.5133424
0.279957 0.37671003 1.4585794
0.52405882 0.57101452 2.2227831
0.37340853 0.31767213 1.4397554
0.76321602 0.55912888 2.4971833
0.46573657 0.57547623 2.0989137
0.57381707 0.56905246 2.2098114
0.40732738 0.31762248 1.4351178
0.81980848 0.55830437 2.4751015
0.51582891 0.57720602 2.1030085
0.62473285 0.56894171 2.2048545
0.43485326 0.31295696 1.4105098
0.87842321 0.55845439 2.4539995
0.56170028 0.57514983 2.0961099
0.67445379 0.56701589 2.1898837
0.46455911 0.31112099 1.3949151
-0.02611593 -0.059798401 0.050936799
0.60857534 0.57408983 2.089211
0.72741055 0.56786168 2.1869066
-0.02611593 -0.059798401 0.050936799
0.51572901 0.26853007 1.3051564
0.65750635 0.57296842 2.0852733
0.77931136 0.56876534 2.180949
0.39172694 0.21961521 1.0495064
1.0471112 0.55707455 2.382792
0.70432532 0.57196271 2.0753751
-0.02611593 -0.059798401 0.050936799
0.53386533 0.29442486 1.3072858
1.0984948 0.55546719 2.3497899
0.74904323 0.5690549 2.0604804
0.46566141 0.28074473 1.1932766
1.0145111 0.56371409 2.2434754
1.1550763 0.55666041 2.3267441
-0.02611593 -0.059798401 0.050936799
0.52593529 0.30137151 1.2565428
1.0619251 0.56008512 2.2125115
1.2085196 0.55599141 2.2967215
0.52612925 0.33735585 1.3132093
0.98125535 0.56701392 2.123117
1.1114252 0.55937618 2.1855628
1.2619666 0.55632216 2.2667165
0.53195262 0.32040107 1.2537733
1.0288457 0.56522191 2.1011863
1.1661007 0.56048608 2.1675529
1.3133581 0.55671436 2.2337503
0.95270324 0.57262963 2.0397248
1.0815924 0.56526685 2.0871947
1.2145824 0.5597989 2.1396234
1.3637456 0.55611038 2.2007847
1.0004472 0.57169276 2.0258093
1.1281266 0.56353265 2.0622833
1.2640224 0.55814439 2.1096578
1.4120173 0.55462223 2.1618407
1.0450113 0.5679298 2.0028992
1.1767206 0.56273675 2.0403519
1.3176459 0.56031197 2.088686
1.4624128 0.55601788 2.1289115
1.0958374 0.56890941 1.9929618
1.2284155 0.56383944 2.0233982
1.3640116 0.55874062 2.0547776
1.5128084 0.55741352 2.0959821
1.1445061 0.56804127 1.9750289
1.2718151 0.56124282 1.9915278
1.4155793 0.56096965 2.0308444
1.553965 0.55505925 2.0511534
1.1890782 0.5662781 1.9521545
1.3234913 0.56236351 1.9735745
1.4588854 0.55846345 1.993976
1.604327 0.55749089 2.0162427
1.2377096 0.56544608 1.9322222
1.3709958 0.56266159 1.9466814
1.5052778 0.55887359 1.9611037
1.6465288 0.55709648 1.9734311
1.2915202 0.56743288 1.9212471
1.4246341 0.56381124 1.9266912
1.5506328 0.55932361 1.9262507
1.6928128 0.55861497 1.9345789
1.3390732 0.56567693 1.8973168
1.4741795 0.5650658 1.9017777
1.5970023 0.55875206 1.8923608
1.7360144 0.55821699 1.8917482
1.3866713 0.56588453 1.875422
1.5237062 0.56633842 1.8758647
1.6423573 0.55920196 1.8575079
1.7751833 0.55886936 1.8470114
1.439347 0.5670017 1.8574499
1.5650541 0.564803 1.841051
1.6856792 0.56069511 1.8207114
1.8204485 0.56040955 1.8071784
1.4838067 0.56534702 1.8285779
1.6135209 0.56513369 1.8121396
1.7289746 0.56020665 1.7828791
1.8565619 0.56112695 1.7594991
1.5333484 0.56560165 1.8036463
1.6568911 0.56457287 1.7783061
1.7743148 0.56167448 1.7470447
1.8926712 0.56084448 1.7118018
1.585972 0.56777298 1.7826934
1.6971455 0.56313157 1.7385129
1.8114988 0.56131613 1.7033271
1.9288032 0.56154388 1.665122
1.6314168 0.56713259 1.7528207
1.7445791 0.56450182 1.7076391
1.8537647 0.56286705 1.6635505
1.965935 0.56223953 1.6184237
1.6819394 0.56740177 1.7268709
1.7919937 0.56589013 1.6757658
1.8919673 0.56248701 1.6208137
2.00003 0.5629822 1.5697823
1.7263093 0.56683737 1.6930184
1.8312337 0.56547028 1.6350096
1.9382964 0.56596905 1.5839969
2.0361657 0.56468129 1.5231205
1.777817 0.56812096 1.6660682
1.8836927 0.56880414 1.6050776
1.9785025 0.56658167 1.5412407
2.064183 0.56451809 1.4705752
1.823168 0.56757098 1.6311975
1.9269921 0.56931555 1.5672634
2.0156758 0.568241 1.4965596
2.0962636 0.56628579 1.4209898
1.8766644 0.57086509 1.6032459
1.9580944 0.56705141 1.519624
2.0538635 0.56887883 1.4528413
2.1273251 0.5680753 1.3704236
1.9219967 0.57033336 1.5673754
2.0033972 0.56855541 1.4817902
2.0758364 0.56677365 1.3983734
2.1503248 0.56794798 1.3169724
1.9602141 0.56893528 1.5256205
2.0486851 0.57107735 1.4429748
2.1150322 0.56940758 1.3546724
2.1834278 0.57069391 1.2683859
2.010591 0.5703491 1.4916912
2.0929544 0.57362103 1.4031785
2.1511679 0.57110673 1.3080108
2.2064123 0.57158464 1.2139531
2.0507932 0.56996179 1.448917
2.1209824 0.57143998 1.3515967
2.1812446 0.57188177 1.2584448
2.2324338 0.57242835 1.1614635
2.0960734 0.5704841 1.4100655
2.1591704 0.57207781 1.3078785
2.208281 0.57170403 1.2069179
2.2534187 0.57332623 1.1070684
2.1473787 0.57296652 1.3721371
2.1952839 0.57279515 1.2601991
2.2393427 0.57349348 1.1563516
2.2774446 0.57517689 1.0546341
2.1875434 0.57261539 1.3273635
2.2293973 0.57351977 1.2125574
2.2734642 0.57621771 1.1087459
2.3024554 0.57804203 1.0011996
2.2378345 0.57611924 1.2884722
2.2655141 0.57523704 1.1648961
2.2984672 0.57708317 1.0552754
2.3214445 0.57994688 0.94686013
2.2799654 0.57679701 1.2416798
2.3005903 0.57599425 1.1152362
2.3275108 0.57889783 1.003747
2.3474741 0.58279026 0.8944065
2.3170557 0.57652909 1.192964
2.3427331 0.57967144 1.0684979
2.3555357 0.58073419 0.95123768
2.3503377 0.58086175 0.8342976
2.3601677 0.57722139 1.145153
2.3667095 0.57855892 1.0140104
2.3694582 0.57971179 0.89393902
2.370331 0.58376282 0.77995735
2.4053247 0.57986987 1.0993401
2.3977342 0.58038449 0.96144468
2.3995094 0.58352256 0.84242785
2.3903239 0.5866639 0.72561711
2.442363 0.58065605 1.0476433
2.4317768 0.58218127 0.90982234
2.4154351 0.58349282 0.78510976
2.4002547 0.58765554 0.66842973
2.4813819 0.58145314 0.99490923
2.4537199 0.5821119 0.85339117
2.4344015 0.58441597 0.7297526
2.4041641 0.58768696 0.61033738
2.5083208 0.58036602 0.93836606
2.4897704 0.58590114 0.80176723
2.4553759 0.58733153 0.67439389
2.4231613 0.59159142 0.55603391
2.5523694 0.58412653 0.88659185
2.5147173 0.58682084 0.74529767
2.4773498 0.59024352 0.61901635
2.4270892 0.59160477 0.4989413
2.5772667 0.58208293 0.82806891
2.5376458 0.58776575 0.68786597
2.4902573 0.59024262 0.56075495
2.4310212 0.59261787 0.4418667
2.6263039 0.58784324 0.77523708
2.560559 0.58972859 0.62945271
2.5072134 0.59319067 0.50447172
2.4429781 0.59558386 0.3856774
2.6511679 0.58683562 0.71473283
2.5834875 0.59067351 0.57202107
2.516103 0.5932222 0.4452858
2.4379039 0.59462965 0.32873586
2.6810389 0.58780968 0.65417069
2.608386 0.59364712 0.5125885
2.5199935 0.59327167 0.38619381
2.4498646 0.5985955 0.27256462
2.7038884 0.58782715 0.5927223
2.617234 0.59271502 0.45138523
2.5359311 0.59624147 0.32892975
2.4548228 0.60158658 0.21650688
2.7427654 0.59076864 0.53202713
2.6431324 0.59568506 0.39193392
2.5468283 0.59826547 0.26974225
2.4327173 0.59671211 0.15881303
2.769604 0.59278953 0.46953997
2.6519663 0.5957709 0.32974902
2.5026054 0.58656156 0.20733736
2.4577143 0.60561234 0.10348727
2.7994223 0.59481764 0.40599686
2.6397462 0.59096909 0.26586929
2.4494178 0.57385403 0.1470829
2.4516437 0.60566151 0.04658252
2.8051319 0.59202325 0.3378163
2.5523717 0.5675301 0.1980582
2.4713662 0.57980168 0.089760125
2.4456377 0.60765612 -0.0072872136
2.8339174 0.59509104 0.27231064
2.66242 0.59312242 0.14144155
2.456286 0.57688373 0.032970436
2.3315485 0.57902551 -0.058686472
2.8566816 0.59719867 0.20590003
2.6832669 0.59716439 0.079103231
2.4462271 0.57492954 -0.022895526
2.3025563 0.57406759 -0.11025082
2.8694017 0.59737861 0.137642
2.7121055 0.60419536 0.015668973
2.3141439 0.54234612 -0.073028974
-0.02611593 -0.059798401 0.050936799
2.8871067 0.59855855 0.068308368
2.7058964 0.60237151 -0.048269432
1.2125031 0.26007482 -0.042498954
1.0568233 0.23823191 -0.072989658
2.9148436 0.60368389 -0.0001414381
1.2948103 0.2604728 -0.027027525
1.1200323 0.2367889 -0.062195558
1.0473716 0.2376985 -0.096830435
2.8625021 0.59011757 -0.068430007
1.1902778 0.23528463 -0.049533643
1.1145426 0.23627736 -0.088110805
2.3675051 0.6078307 -0.33293158
1.2895819 0.23562162 -0.034381662
1.1887311 0.23481293 -0.078523055
2.4009724 0.57513887 -0.3021391
-0.02611593 -0.059798401 0.050936799
2.7020111 0.55197078 -0.19215715
2.3345957 0.51557535 -0.25695848
2.3909216 0.57518435 -0.35796905
1.0390179 0.24204361 -0.16962011
2.5838928 0.52539039 -0.24544454
2.4822719 0.55342716 -0.3360655
-0.02611593 -0.059798401 0.050936799
1.0345733 0.24349195 -0.19351879
2.486865 0.50366133 -0.29503778
2.3424752 0.52160096 -0.3710357
2.2651722 0.55024391 -0.4450953
-0.02611593 -0.059798401 0.050936799
2.5266201 0.51374274 -0.36362299
2.2586293 0.50366181 -0.41180417
2.2860799 0.56024873 -0.50532627
1.0286684 0.24739574 -0.24235418
2.2700832 0.4570151 -0.37885126
2.2914829 0.51467764 -0.47524154
2.310935 0.57129329 -0.56861323
1.0301931 0.25085837 -0.26832891
2.2929375 0.46304965 -0.44119114
2.3202958 0.52474427 -0.54062104
2.434339 0.61050242 -0.66224617
1.0217639 0.25130314 -0.29117078
2.3247459 0.47210565 -0.50664502
2.4407141 0.55792898 -0.63230634
2.4521165 0.62064463 -0.72941828
0.20266743 0.0087574469 -0.02913367
2.4411495 0.5013054 -0.59832722
2.4873412 0.57412893 -0.70891225
2.3912792 0.61063975 -0.77147454
0.19658969 0.0078515057 -0.033037588
2.4499235 0.50546288 -0.66443878
2.4174941 0.56115675 -0.75085348
-0.02611593 -0.059798401 0.050936799
-0.02611593 -0.059798401 0.050936799
2.4756021 0.51466697 -0.73677754
2.3646066 0.553177 -0.79602289
-0.02611593 -0.059798401 0.050936799
0.17255181 0.0019567446 -0.033694394
2.4037364 0.50172013 -0.77968085
-0.02611593 -0.059798401 0.050936799
0.17952001 -0.0010497808 -0.034879636
-0.02611593 -0.059798401 0.050936799
-0.02611593 -0.059798401 0.050936799
0.1835223 -0.0050815409 -0.034027219
-0.02611593 -0.059798401 0.050936799
0.15151729 -0.0029489449 -0.034389537
0.19148639 -0.0090914816 -0.03524927
-0.02611593 -0.059798401 0.050936799
0.1525162 -0.0079697762 -0.033498768
-0.02611593 -0.059798401 0.050936799
-0.02611593 -0.059798401 0.050936799
0.15650366 -0.01098362 -0.033627987
-0.02611593 -0.059798401 0.050936799
0.12755036 -0.009915893 -0.031065714
0.16545281 -0.013979231 -0.035850473
-0.02611593 -0.059798401 0.050936799
0.13448505 -0.011886406 -0.034232263
-0.02611593 -0.059798401 0.050936799
-0.02611593 -0.059798401 0.050936799
0.13746879 -0.015896492 -0.034360711
-0.02611593 -0.059798401 0.050936799
0.11252259 -0.012843459 -0.031837571
0.14243737 -0.018895838 -0.035508383
-0.02611593 -0.059798401 0.050936799
0.11352543 -0.016864456 -0.030928776
-0.02611593 -0.059798401 0.050936799
-0.02611593 -0.059798401 0.050936799
0.11550935 -0.020870956 -0.031038433
-0.02611593 -0.059798401 0.050936799
0.097528346 -0.016807033 -0.030628126
0.12342513 -0.022826968 -0.035223436
-0.02611593 -0.059798401 0.050936799
0.1014971 -0.019802786 -0.031757005
-0.02611593 -0.059798401 0.050936799
-0.02611593 -0.059798401 0.050936799
0.10248514 -0.02280587 -0.031829849
-0.02611593 -0.059798401 0.050936799
0.085537478 -0.019781543 -0.029457036
0.10741627 -0.025769034 -0.034976847
-0.02611593 -0.059798401 0.050936799
0.087506615 -0.022770124 -0.030548334
-0.02611593 -0.059798401 0.050936799
-0.02611593 -0.059798401 0.050936799
0.089475729 -0.025758702 -0.031639632
-0.02611593 -0.059798401 0.050936799
0.07947848 -0.020705577 -0.032361299
0.095391892 -0.027707539 -0.035787061
-0.02611593 -0.059798401 0.050936799
0.080447793 -0.023690566 -0.033433795
-0.02611593 -0.059798401 0.050936799
-0.02611593 -0.059798401 0.050936799
0.083398014 -0.026664641 -0.035543554
-0.02611593 -0.059798401 0.050936799
0.069472462 -0.022669345 -0.03220943
0.084367335 -0.029649634 -0.036616061
-0.02611593 -0.059798401 0.050936799
0.073407695 -0.02462909 -0.035319615
-0.02611593 -0.059798401 0.050936799
-0.02611593 -0.059798401 0.050936799
0.069444969 -0.029668156 -0.032335561
-0.02611593 -0.059798401 0.050936799
0.057537757 -0.025698123 -0.028039355
0.076327428 -0.030584572 -0.038483076
-0.02611593 -0.059798401 0.050936799
0.062439311 -0.026625454 -0.033149619
-0.02611593 -0.059798401 0.050936799
-0.02611593 -0.059798401 0.050936799
0.060442682 -0.030635681 -0.032184463
-0.02611593 -0.059798401 0.050936799
0.055448443 -0.02460067 -0.032982051
0.060430899 -0.033635173 -0.032238517
-0.02611593 -0.059798401 0.050936799
0.052466795 -0.029625233 -0.031016454
-0.02611593 -0.059798401 0.050936799
-0.02611593 -0.059798401 0.050936799
0.053440034 -0.031610392 -0.032070946
-0.02611593 -0.059798401 0.050936799
0.043528542 -0.028647371 -0.02783034
0.056334089 -0.034530204 -0.037179679
-0.02611593 -0.059798401 0.050936799
0.045464147 -0.030599941 -0.030902937
-0.02611593 -0.059798401 0.050936799
-0.02611593 -0.059798401 0.050936799
0.04543364 -0.033581343 -0.031956658
-0.02611593 -0.059798401 0.050936799
0.041439217 -0.027549915 -0.032773037
0.044422042 -0.036577243 -0.031991921
-0.02611593 -0.059798401 0.050936799
0.036514111 -0.032621566 -0.027770881
-0.02611593 -0.059798401 0.050936799
-0.02611593 -0.059798401 0.050936799
0.037468627 -0.034588635 -0.029825028
-0.02611593 -0.059798401 0.050936799
0.031541605 -0.030622048 -0.026641227
0.040366612 -0.036508624 -0.034915745
-0.02611593 -0.059798401 0.050936799
0.034443513 -0.031542201 -0.031713925
-0.02611593 -0.059798401 0.050936799
-0.02611593 -0.059798401 0.050936799
0.036341678 -0.033458594 -0.036785848
-0.02611593 -0.059798401 0.050936799
0.027504887 -0.030571517 -0.028565392
0.036311172 -0.03644 -0.037839562
-0.02611593 -0.059798401 0.050936799
0.031350445 -0.031440988 -0.036655858
-0.02611593 -0.059798401 0.050936799
-0.02611593 -0.059798401 0.050936799
0.026444063 -0.036530733 -0.030654028
-0.02611593 -0.059798401 0.050936799
-0.02611593 -0.059798401 0.050936799
0.027379854 -0.038479716 -0.033707842
-0.02611593 -0.059798401 0.050936799
0.024385249 -0.032451876 -0.034543023
-0.02611593 -0.059798401 0.050936799
-0.02611593 -0.059798401 0.050936799
0.022407347 -0.0364802 -0.032578181
-0.02611593 -0.059798401 0.050936799
-0.02611593 -0.059798401 0.050936799
0.022324603 -0.038407501 -0.036612872
-0.02611593 -0.059798401 0.050936799
0.020363327 -0.033419263 -0.03548554
-0.02611593 -0.059798401 0.050936799
-0.02611593 -0.059798401 0.050936799
-0.02611593 -0.059798401 0.050936799
-0.02611593 -0.059798401 0.050936799
-0.02611593 -0.059798401 0.050936799
0.018287886 -0.038356967 -0.038537037
-0.02611593 -0.059798401 0.050936799
-0.02611593 -0.059798401 0.050936799
-0.02611593 -0.059798401 0.050936799
-0.02611593 -0.059798401 0.050936799
-0.02611593 -0.059798401 0.050936799
-0.02611593 -0.059798401 0.050936799
-0.02611593 -0.059798401 0.050936799
-0.02611593 -0.059798401 0.050936799
-0.02611593 -0.059798401 0.050936799
-0.02611593 -0.059798401 0.050936799
-0.02611593 -0.059798401 0.050936799
-0.02611593 -0.059798401 0.050936799
-0.02611593 -0.059798401 0.050936799
-0.02611593 -0.059798401 0.050936799
-0.02611593 -0.059798401 0.050936799
-0.02611593 -0.059798401 0.050936799
-0.02611593 -0.059798401 0.050936799
-0.02611593 -0.059798401 0.050936799
-0.02611593 -0.059798401 0.050936799
-0.02611593 -0.059798401 0.050936799
-0.02611593 -0.059798401 0.050936799
-0.02611593 -0.059798401 0.050936799
-0.02611593 -0.059798401 0.050936799
-0.02611593 -0.059798401 0.050936799
-0.02611593 -0.059798401 0.050936799
-0.02611593 -0.059798401 0.050936799
-0.02611593 -0.059798401 0.050936799
-0.02611593 -0.059798401 0.050936799
-0.02611593 -0.059798401 0.050936799
-0.02611593 -0.059798401 0.050936799
-0.02611593 -0.059798401 0.050936799
-0.02611593 -0.059798401 0.050936799
-0.02611593 -0.059798401 0.050936799
-0.02611593 -0.059798401 0.050936799
-0.02611593 -0.059798401 0.050936799
-0.02611593 -0.059798401 0.050936799
-0.02611593 -0.059798401 0.050936799
-0.02611593 -0.059798401 0.050936799
-0.02611593 -0.059798401 0.050936799
-0.02611593 -0.059798401 0.050936799
-0.02611593 -0.059798401 0.050936799
-0.02611593 -0.059798401 0.050936799
-0.02611593 -0.059798401 0.050936799
-0.02611593 -0.059798401 0.050936799
-0.02611593 -0.059798401 0.050936799
-0.02611593 -0.059798401 0.050936799
-0.02611593 -0.059798401 0.050936799
-0.02611593 -0.059798401 0.050936799
-0.02611593 -0.059798401 0.050936799
-0.02611593 -0.059798401 0.050936799
-0.02611593 -0.059798401 0.050936799
-0.02611593 -0.059798401 0.050936799
-0.02611593 -0.059798401 0.050936799
-0.02611593 -0.059798401 0.050936799
-0.02611593 -0.059798401 0.050936799
-0.02611593 -0.059798401 0.050936799
-0.02611593 -0.059798401 0.050936799
-0.02611593 -0.059798401 0.050936799
-0.02611593 -0.059798401 0.050936799
-0.02611593 -0.059798401 0.050936799
-0.02611593 -0.059798401 0.050936799
-0.02611593 -0.059798401 0.050936799
-0.02611593 -0.059798401 0.050936799
-0.02611593 -0.059798401 0.050936799
-0.02611593 -0.059798401 0.050936799
-0.02611593 -0.059798401 0.050936799
-0.02611593 -0.059798401 0.050936799
-0.02611593 -0.059798401 0.050936799
-0.02611593 -0.059798401 0.050936799
-0.02611593 -0.059798401 0.050936799
-0.02611593 -0.059798401 0.050936799
-0.02611593 -0.059798401 0.050936799
-0.02611593 -0.059798401 0.050936799
-0.02611593 -0.059798401 0.050936799
-0.02611593 -0.059798401 0.050936799
-0.02611593 -0.059798401 0.050936799
-0.02611593 -0.059798401 0.050936799
-0.02611593 -0.059798401 0.050936799
-0.02611593 -0.059798401 0.050936799
-0.02611593 -0.059798401 0.050936799
-0.02611593 -0.059798401 0.050936799
-0.02611593 -0.059798401 0.050936799
-0.02611593 -0.059798401 0.050936799
-0.02611593 -0.059798401 0.050936799
-0.02611593 -0.059798401 0.050936799
-0.02611593 -0.059798401 0.050936799
-0.02611593 -0.059798401 0.050936799
-0.02611593 -0.059798401 0.050936799
-0.02611593 -0.059798401 0.050936799
-0.02611593 -0.059798401 0.050936799
-0.02611593 -0.059798401 0.050936799
-0.02611593 -0.059798401 0.050936799
-0.02611593 -0.059798401 0.050936799
-0.02611593 -0.059798401 0.050936799
-0.02611593 -0.059798401 0.050936799
-0.02611593 -0.059798401 0.050936799
-0.02611593 -0.059798401 0.050936799
-0.02611593 -0.059798401 0.050936799
-0.02611593 -0.059798401 0.050936799
-0.02611593 -0.059798401 0.050936799
-0.02611593 -0.059798401 0.050936799
-0.02611593 -0.059798401 0.050936799
-0.02611593 -0.059798401 0.050936799
-0.02611593 -0.059798401 0.050936799
-0.02611593 -0.059798401 0.050936799
-0.02611593 -0.059798401 0.050936799
-0.02611593 -0.059798401 0.050936799
-0.02611593 -0.059798401 0.050936799
-0.02611593 -0.059798401 0.050936799
-0.02611593 -0.059798401 0.050936799
-0.02611593 -0.059798401 0.050936799
-0.02611593 -0.059798401 0.050936799
-0.02611593 -0.059798401 0.050936799
-0.02611593 -0.059798401 0.050936799
-0.02611593 -0.059798401 0.050936799
-0.02611593 -0.059798401 0.050936799
-0.02611593 -0.059798401 0.050936799
-0.02611593 -0.059798401 0.050936799
-0.02611593 -0.059798401 0.050936799
-0.02611593 -0.059798401 0.050936799
-0.02611593 -0.059798401 0.050936799
-0.02611593 -0.059798401 0.050936799
-0.02611593 -0.059798401 0.050936799
-0.02611593 -0.059798401 0.050936799
-0.02611593 -0.059798401 0.050936799
-0.02611593 -0.059798401 0.050936799
-0.02611593 -0.059798401 0.050936799
-0.02611593 -0.059798401 0.050936799
-0.02611593 -0.059798401 0.050936799
-0.02611593 -0.059798401 0.050936799
-0.02611593 -0.059798401 0.050936799
-0.02611593 -0.059798401 0.050936799
-0.02611593 -0.059798401 0.050936799
-0.02611593 -0.059798401 0.050936799
-0.02611593 -0.059798401 0.050936799
-0.02611593 -0.059798401 0.050936799
-0.02611593 -0.059798401 0.050936799
-0.02611593 -0.059798401 0.050936799
-0.02611593 -0.059798401 0.050936799
-0.02611593 -0.059798401 0.050936799
-0.02611593 -0.059798401 0.050936799
-0.02611593 -0.059798401 0.050936799
-0.02611593 -0.059798401 0.050936799
-0.02611593 -0.059798401 0.050936799
-0.02611593 -0.059798401 0.050936799
-0.02611593 -0.059798401 0.050936799
-0.02611593 -0.059798401 0.050936799
-0.02611593 -0.059798401 0.050936799
-0.02611593 -0.059798401 0.050936799
-0.02611593 -0.059798401 0.050936799
-0.02611593 -0.059798401 0.050936799
-0.02611593 -0.059798401 0.050936799
-0.02611593 -0.059798401 0.050936799
-0.02611593 -0.059798401 0.050936799
-0.02611593 -0.059798401 0.050936799
-0.02611593 -0.059798401 0.050936799
-0.02611593 -0.059798401 0.050936799
-0.02611593 -0.059798401 0.050936799
-0.02611593 -0.059798401 0.050936799
-0.073691346 -0.037026957 -0.036790289
-0.02611593 -0.059798401 0.050936799
-0.02611593 -0.059798401 0.050936799
-0.02611593 -0.059798401 0.050936799
-0.02611593 -0.059798401 0.050936799
-0.02611593 -0.059798401 0.050936799
-0.02611593 -0.059798401 0.050936799
-0.02611593 -0.059798401 0.050936799
-0.07763052 -0.036067039 -0.033698123
-0.02611593 -0.059798401 0.050936799
-0.02611593 -0.059798401 0.050936799
-0.02611593 -0.059798401 0.050936799
-0.02611593 -0.059798401 0.050936799
-0.075593449 -0.036110394 -0.031736378
-0.02611593 -0.059798401 0.050936799
-0.02611593 -0.059798401 0.050936799
-0.083644219 -0.035027586 -0.034567021
-0.02611593 -0.059798401 0.050936799
-0.02611593 -0.059798401 0.050936799
-0.02611593 -0.059798401 0.050936799
-0.02611593 -0.059798401 0.050936799
-0.081607148 -0.035070945 -0.032605283
-0.02611593 -0.059798401 0.050936799
-0.075562939 -0.033128992 -0.030682657
-0.087587319 -0.035067499 -0.031492874
-0.02611593 -0.059798401 0.050936799
-0.084669694 -0.03198833 -0.036493499
-0.02611593 -0.059798401 0.050936799
-0.02611593 -0.059798401 0.050936799
-0.086564854 -0.034089345 -0.030493978
-0.02611593 -0.059798401 0.050936799
-0.02611593 -0.059798401 0.050936799
-0.093586221 -0.035045967 -0.031380132
-0.02611593 -0.059798401 0.050936799
-0.086579651 -0.033071429 -0.031475626
-0.02611593 -0.059798401 0.050936799
-0.02611593 -0.059798401 0.050936799
-0.090507954 -0.034129255 -0.027419839
-0.02611593 -0.059798401 0.050936799
-0.08350531 -0.033154547 -0.027533352
-0.098543935 -0.034064367 -0.029268842
-0.02611593 -0.059798401 0.050936799
-0.09154129 -0.03308966 -0.029382356
-0.02611593 -0.059798401 0.050936799
-0.02611593 -0.059798401 0.050936799
-0.097521469 -0.033086218 -0.028269947
-0.02611593 -0.059798401 0.050936799
-0.090537548 -0.032093417 -0.029383127
-0.10757188 -0.031996228 -0.031063005
-0.02611593 -0.059798401 0.050936799
-0.095503114 -0.033111483 -0.027307868
-0.02611593 -0.059798401 0.050936799
-0.02611593 -0.059798401 0.050936799
-0.10453498 -0.032043174 -0.029120058
-0.02611593 -0.059798401 0.050936799
-0.097551063 -0.031050377 -0.030233227
-0.11454795 -0.030989364 -0.029913787
-0.02611593 -0.059798401 0.050936799
-0.10353123 -0.031046931 -0.029120829
-0.02611593 -0.059798401 0.050936799
-0.02611593 -0.059798401 0.050936799
-0.11354421 -0.029993121 -0.029914562
-0.02611593 -0.059798401 0.050936799
-0.10253143 -0.031050522 -0.029139619
-0.12659013 -0.027892541 -0.032633238
-0.02611593 -0.059798401 0.050936799
-0.10847416 -0.031083252 -0.026027892
-0.02611593 -0.059798401 0.050936799
-0.02611593 -0.059798401 0.050936799
-0.11850584 -0.030011356 -0.027821291
-0.02611593 -0.059798401 0.050936799
-0.10850768 -0.030047245 -0.028009195
-0.13354748 -0.026903767 -0.03048436
-0.02611593 -0.059798401 0.050936799
-0.11648748 -0.030036623 -0.026859213
-0.02611593 -0.059798401 0.050936799
-0.02611593 -0.059798401 0.050936799
-0.12951469 -0.027954131 -0.028578222
-0.02611593 -0.059798401 0.050936799
-0.11752082 -0.028997028 -0.028821729
-0.1425232 -0.025889724 -0.02929756
-0.02611593 -0.059798401 0.050936799
-0.13154392 -0.025911113 -0.030503921
-0.02611593 -0.059798401 0.050936799
-0.02611593 -0.059798401 0.050936799
-0.13545351 -0.026987033 -0.025448475
-0.02611593 -0.059798401 0.050936799
-0.12246373 -0.029033352 -0.025728788
-0.15249477 -0.023872264 -0.028073967
-0.02611593 -0.059798401 0.050936799
-0.13648684 -0.025947437 -0.027410984
-0.02611593 -0.059798401 0.050936799
-0.02611593 -0.059798401 0.050936799
-0.15149103 -0.022876026 -0.028074738
-0.02611593 -0.059798401 0.050936799
-0.13347259 -0.026976123 -0.026485715
-0.16344747 -0.021869306 -0.025831904
-0.02611593 -0.059798401 0.050936799
-0.14546253 -0.024933394 -0.026224192
-0.02611593 -0.059798401 0.050936799
-0.02611593 -0.059798401 0.050936799
-0.15842965 -0.021905338 -0.024926201
-0.02611593 -0.059798401 0.050936799
-0.14244831 -0.025962081 -0.025298923
-0.18044735 -0.017790888 -0.026440054
-0.02611593 -0.059798401 0.050936799
-0.15036801 -0.025005896 -0.021131936
-0.02611593 -0.059798401 0.050936799
-0.02611593 -0.059798401 0.050936799
-0.17441495 -0.018848425 -0.024571497
-0.02611593 -0.059798401 0.050936799
-0.14130262 -0.027110213 -0.01733844
-0.20042406 -0.012719955 -0.025974151
-0.02611593 -0.059798401 0.050936799
-0.17241922 -0.019855436 -0.024627097
-0.02611593 -0.059798401 0.050936799
-0.02611593 -0.059798401 0.050936799
-0.19441429 -0.014759239 -0.025123272
-0.02611593 -0.059798401 0.050936799
-0.15631074 -0.02503863 -0.018020209
-0.23046596 -0.0055411239 -0.029282954
-0.02611593 -0.059798401 0.050936799
-0.19345585 -0.015726481 -0.027159404
-0.02611593 -0.059798401 0.050936799
-0.02611593 -0.059798401 0.050936799
-0.22244176 -0.0086055053 -0.027488004
-0.02611593 -0.059798401 0.050936799
-0.17634754 -0.020913264 -0.020571306
-0.25741875 0.00053666404 -0.027667835
-0.02611593 -0.059798401 0.050936799
-0.21846908 -0.010601429 -0.028598867
-0.02611593 -0.059798401 0.050936799
-0.02611593 -0.059798401 0.050936799
-0.24739882 -0.0035347184 -0.025928497
-0.02611593 -0.059798401 0.050936799
-0.21345913 -0.012637121 -0.027729191
-0.97256637 0.18289693 -0.22304587
-0.02611593 -0.059798401 0.050936799
-0.24442595 -0.0055270577 -0.027020555
-0.02611593 -0.059798401 0.050936799
-0.97213966 0.18148105 -0.20007166
-0.96370792 0.17597434 -0.22933906
-0.02611593 -0.059798401 0.050936799
-0.24347147 -0.0074941255 -0.029074717
-0.99078357 0.18522295 -0.18164867
-0.9733277 0.17664829 -0.20913994
-0.95685291 0.16805911 -0.23561272
-0.02611593 -0.059798401 0.050936799
-0.99737036 0.18485011 -0.1595246
-0.98997968 0.17838335 -0.19079056
-0.97250509 0.1697906 -0.21728213
-0.26136273 -0.0045204824 -0.023684122
-1.0180099 0.18959902 -0.14104602
-1.0005805 0.17904279 -0.16957295
-0.98412848 0.16947189 -0.19706345
-0.02611593 -0.059798401 0.050936799
-1.0085552 0.18611501 -0.11627766
-1.0151956 0.1807345 -0.14926185
-0.99776626 0.17017828 -0.17778878
-0.98034096 0.15862219 -0.20633376
-1.0141423 0.18573858 -0.094172366
-1.0288107 0.18242262 -0.12896951
-1.0073713 0.16983429 -0.156608
-0.99597836 0.15933575 -0.18702149
-1.0307488 0.18943715 -0.073787645
-1.0203558 0.17894219 -0.10418238
-1.0179722 0.17049374 -0.13539042
-1.0086014 0.15902063 -0.166784
-1.0403273 0.19107473 -0.051571146
-1.0299382 0.17957996 -0.081983909
-1.0235444 0.16909939 -0.11230348
-1.0121779 0.1566193 -0.14375269
-1.0679243 0.19681241 -0.030943677
-1.0425348 0.1812464 -0.060710713
-1.0241175 0.1676871 -0.089310497
-1.0067453 0.15216789 -0.11992685
-1.0884889 0.20148899 -0.0084664375
-1.0601077 0.18391255 -0.038325876
-1.0397174 0.16836448 -0.067998938
-1.0193459 0.15283449 -0.098671675
-1.0950303 0.20307961 0.015692994
-1.0846903 0.18862154 -0.016773134
-1.0603086 0.17105944 -0.046557404
-1.0309317 0.1524796 -0.076453641
-1.1105812 0.20672031 0.039057925
-1.0892401 0.18820535 0.0073126778
-1.0788815 0.17372918 -0.024153784
-1.0625355 0.15623198 -0.055787042
-1.1181225 0.20831455 0.063236147
-1.1007808 0.18981394 0.03156608
-1.0954398 0.17537381 -0.00080610067
-1.0751173 0.15688051 -0.03353221
-1.1376499 0.21295133 0.087693922
-1.1263218 0.19549018 0.055154942
-1.1149938 0.17802902 0.022615965
-1.0916799 0.15752532 -0.010202549
-1.1461723 0.21453106 0.1128906
-1.134867 0.19608817 0.079333946
-1.119525 0.17759474 0.047701448
-1.1042054 0.15811956 0.015051275
-0.02611593 -0.059798401 0.050936799
-1.1324031 0.19462894 0.10426988
-1.1210604 0.17614985 0.072712541
-1.1127397 0.15669982 0.040193897
-1.1931013 0.22672431 0.16800848
-1.159869 0.20024002 0.13189498
-1.1495674 0.18080086 0.098339088
-1.1222659 0.15728329 0.065391354
-0.02611593 -0.059798401 0.050936799
-1.1763445 0.20381194 0.15927733
-1.138113 0.17730968 0.12306986
-1.1368098 0.15790284 0.089683093
-1.2289842 0.23682415 0.22588262
-1.1928015 0.20736575 0.18765935
-1.1625687 0.18089223 0.15160221
-0.02611593 -0.059798401 0.050936799
-0.02611593 -0.059798401 0.050936799
-0.02611593 -0.059798401 0.050936799
-1.1840246 0.18446401 0.18007818
-1.1587907 0.15800838 0.144115
-1.2548431 0.24385244 0.28551412
-1.2366494 0.21645832 0.24766511
-1.1934907 0.18599305 0.20829263
-0.02611593 -0.059798401 0.050936799
-1.2791892 0.25134388 0.31911683
-0.02611593 -0.059798401 0.050936799
-0.02611593 -0.059798401 0.050936799
-1.202673 0.16311972 0.20304902
-0.02611593 -0.059798401 0.050936799
-1.272409 0.22443187 0.31250083
-1.2452621 0.19504197 0.27244738
-0.02611593 -0.059798401 0.050936799
-0.02611593 -0.059798401 0.050936799
-1.3017168 0.23190506 0.34819683
-1.2506955 0.19552064 0.30256796
-1.2484573 0.16914758 0.26703694
-1.3202504 0.26468676 0.42016122
-1.3210382 0.23634285 0.38365087
-1.2939258 0.20297173 0.34252569
-0.02611593 -0.059798401 0.050936799
-2.9162583 0.66859365 0.94352639
-1.321435 0.23676746 0.41567683
-1.2834113 0.20042971 0.37029225
-0.02611593 -0.059798401 0.050936799
-2.8801572 0.66338331 1.0027764
-3.1104217 0.64844668 0.99381429
-1.3494453 0.21379951 0.4197872
-0.02611593 -0.059798401 0.050936799
-2.8560088 0.66017962 1.0642872
-3.0950758 0.64709401 1.0655268
-3.1217198 0.58153373 0.99081445
-1.3218017 0.17690428 0.40759814
-2.8258984 0.65699059 1.1236858
-3.1293597 0.65661138 1.1553713
-3.0944338 0.57517499 1.060212
-3.1201351 0.50464821 0.98339146
-2.7948072 0.65381593 1.182066
-3.1526725 0.66410774 1.2439735
-3.1574907 0.58859688 1.1616697
-3.1007688 0.49924564 1.0569562
-2.7627196 0.64963794 1.2404096
-3.1303282 0.66273004 1.3155544
-3.2284071 0.6039204 1.2703116
-3.1687615 0.50961363 1.1624525
-2.7257085 0.64551437 1.2946603
-3.1040113 0.65935624 1.3860246
-3.30023 0.61915714 1.3839705
-3.2287412 0.51893485 1.26878
-2.7174022 0.64824045 1.3635775
-3.0558865 0.6510672 1.4469942
-3.3709366 0.63528156 1.5036265
-3.2955618 0.53013623 1.3832725
-2.6833489 0.64509124 1.4199021
-2.9988611 0.64183658 1.5027785
-3.4415271 0.65229726 1.6292987
-3.3880584 0.54614067 1.5143383
-2.6502957 0.6419456 1.4762454
-2.979475 0.64143324 1.5764333
-3.4417136 0.65456718 1.7253757
-3.4744666 0.56103319 1.6502714
-2.627131 0.64274484 1.537847
-2.9620471 0.64200068 1.6521429
-3.3715713 0.64216381 1.7878592
-3.9578557 0.64882487 1.990025
-2.5960357 0.6405701 1.5962453
-2.9268067 0.63866705 1.7184453
-3.3667252 0.64337975 1.8858236
-3.9566758 0.6487298 2.1060407
-2.5550625 0.63646829 1.6484215
-2.9034212 0.63824934 1.7920249
-3.3668103 0.64755887 1.9869351
-3.9326618 0.6456973 2.2135725
-2.5289171 0.63727486 1.7089673
-2.8730972 0.63686091 1.8624558
-3.2956975 0.63718778 2.0474367
-3.8770103 0.63787657 2.3024192
-2.4978368 0.63611794 1.7663839
-2.8388155 0.63449448 1.9307944
-3.2611389 0.63355017 2.1307521
-3.8806117 0.64059991 2.4295793
-2.4598362 0.63400853 1.8196523
-2.7581656 0.62152207 1.967062
-3.1940029 0.62417501 2.1923463
-3.5711164 0.58668685 2.3567843
-2.4178822 0.62992132 1.8708103
-2.7593887 0.62884903 2.0602491
-2.6357405 0.50816369 1.9036978
-3.8254123 0.63534701 2.6535263
-2.3857977 0.62976068 1.9282262
-2.7536168 0.63515103 2.1532865
-3.1691704 0.629426 2.395045
-2.6177831 0.41680706 1.918714
-2.3448169 0.62765861 1.9804385
-2.6858177 0.62609792 2.1968679
-3.059654 0.61245871 2.4246976
-3.2013776 0.52842188 2.4568422
-2.3067975 0.62553114 2.0347066
-2.6435938 0.62375706 2.2620571
-3.0653856 0.62033314 2.5439882
-3.9613492 0.674348 3.1829565
-1.8994254 0.511989 1.7529302
-2.4942257 0.59369409 2.2327068
-3.0356188 0.62153178 2.6374841
-3.8580627 0.66168141 3.2528172
-1.8459756 0.50432962 1.7777994
-1.8706394 0.43480757 1.7559961
-1.9060904 0.37114304 1.7445042
-2.3486958 0.38171023 2.0870981
-1.822957 0.50627339 1.8314216
-1.8240271 0.43002817 1.7890482
-1.8496039 0.36343676 1.7713163
-1.8752072 0.29486382 1.7525491
-1.9890342 0.57040751 2.0827763
-1.907807 0.46136802 1.9552399
-1.8372982 0.3661485 1.8401583
-1.8265203 0.29000488 1.7895621
-2.0930588 0.61615092 2.2866204
-2.0972137 0.52293736 2.2429974
-2.004292 0.41314438 2.0992229
-1.9347951 0.31492895 1.9841061
-2.0403163 0.61122328 2.3265574
-2.3263142 0.59945726 2.5977912
-2.2247941 0.47396034 2.4355655
-2.1309676 0.35923699 2.2876832
-1.9934298 0.60919011 2.3736589
-2.2977042 0.60382181 2.682363
-2.7050111 0.60196638 3.0960958
-3.3164065 0.60614771 3.7188294
-1.9475435 0.60716051 2.4207792
-2.2504914 0.60348082 2.7464948
-2.6485236 0.60032189 3.175035
-3.212281 0.59563994 3.7797103
-1.8957554 0.60419995 2.4627702
-2.1875825 0.59835458 2.7952409
-2.5783308 0.59589899 3.2386627
-3.1150155 0.58703035 3.8477566
-1.8527482 0.60407221 2.5159805
-2.129586 0.59617329 2.8481333
-2.5247076 0.59513837 3.3246739
-3.0255911 0.5803045 3.9239867
-1.8029186 0.60208255 2.5600266
-2.0754573 0.59387982 2.9080987
-2.9083929 0.71424055 4.014246
-2.9264154 0.57277793 3.987015
-1.7559869 0.60201281 2.6091633
-2.0145028 0.59072423 2.9589176
-2.8112731 0.70677555 4.0743127
-2.8272212 0.56523335 4.051043
-1.7012557 0.59909582 2.6480989
-1.9603477 0.59041226 3.0199189
-2.7199574 0.70115077 4.1445251
