# .PCD v0.7 - Point Cloud Data file format
VERSION 0.7
FIELDS x y z
SIZE 4 4 4
TYPE F F F
COUNT 1 1 1
WIDTH 1398
HEIGHT 1
VIEWPOINT 0 0 0 1 0 0 0
POINTS 1398
DATA ascii
3.1423802 0.33001173 2.2604141
2.5644889 0.53569525 2.072891
2.9793465 0.51636964 2.2778435
3.276922 0.45652622 2.3702211
3.1929369 0.33321765 2.1824992
2.6155283 0.53743106 2.0209491
3.0310864 0.51839125 2.2098885
3.3081856 0.45607236 2.277596
3.2454932 0.33641633 2.1045468
2.6634936 0.53924996 1.9650651
3.0838261 0.52040929 2.1419146
3.2584355 0.44284853 2.1342397
4.3636332 0.46901715 2.6611996
2.7155144 0.54100019 1.9121048
3.1446848 0.52428967 2.0798242
3.7311149 0.50978857 2.3126614
4.3922796 0.46916744 2.5356231
2.7665167 0.54277217 1.8581637
3.1781723 0.52361149 1.9991577
3.7764027 0.51126599 2.220809
4.5089154 0.48108059 2.4596291
2.8053484 0.54375011 1.795433
3.2207978 0.52477413 1.9253556
3.8145978 0.51285899 2.12409
4.5911121 0.48953265 2.3612096
2.8380985 0.54282224 1.7287805
3.2725227 0.52781361 1.8564186
3.8376341 0.51165092 2.0196011
4.6571717 0.496169 2.2560575
2.8789489 0.54377496 1.667012
3.3161514 0.52997243 1.7826159
3.8869891 0.51605928 1.9307269
4.7474074 0.50555587 2.1595051
2.925858 0.54565167 1.6081476
3.3577247 0.53219271 1.7058517
3.9020269 0.51488 1.8263887
4.8628087 0.5197075 2.0705702
2.9677122 0.54760069 1.5463784
3.3932762 0.53345275 1.6281825
3.9524004 0.51926672 1.7384951
4.6898837 0.49904469 1.8673652
3.0105469 0.54956412 1.4835907
3.419728 0.53283596 1.5456481
3.9503067 0.51727521 1.6274605
4.7076197 0.5021615 1.7460485
3.0412831 0.5496614 1.4159942
3.468364 0.5369764 1.4717875
3.9966619 0.52169436 1.5386425
4.7394342 0.50715542 1.6285033
3.0780401 0.5507189 1.3493024
3.5008638 0.53930146 1.3911936
4.0208077 0.52439165 1.4392054
4.7561541 0.51129377 1.5062237
3.1218829 0.55467832 1.2865318
3.5464814 0.5434708 1.3163896
4.0339098 0.52516502 1.3379399
4.7367158 0.51170659 1.376551
3.1626437 0.55672133 1.2197831
3.5568385 0.54200208 1.2291396
4.0450497 0.52590936 1.2387111
4.7525444 0.51474017 1.2602701
3.1873057 0.55691248 1.1483006
3.6054597 0.54716045 1.1542972
4.0682564 0.5295558 1.1423099
4.7402062 0.51703715 1.1355006
3.2250481 0.55898434 1.0806084
3.626864 0.54861546 1.0688939
4.0884395 0.53223127 1.0449474
4.7801661 0.52587503 1.0248746
3.2597575 0.56210297 1.0109915
3.6483059 0.55003428 0.98548973
4.1186709 0.53783429 0.94945037
4.7628627 0.52715403 0.90218019
3.2823822 0.56233752 0.93754715
3.6606894 0.55053985 0.89923787
4.1187568 0.53867227 0.84742934
4.7375636 0.5294615 0.77965403
3.3090103 0.56355757 0.8640458
3.6881192 0.55395496 0.81475747
4.1249061 0.54143423 0.74833059
4.7444248 0.53550881 0.66459596
3.3386419 0.56576657 0.79050601
3.7085278 0.55641347 0.72939086
4.135077 0.54516363 0.65017438
4.7332397 0.53865737 0.54782283
3.3572299 0.56605166 0.71513766
3.7299585 0.55985004 0.64502323
4.1422629 0.54788578 0.55305618
4.7331209 0.54471165 0.43389592
3.3898835 0.56923169 0.64255917
3.7433457 0.5613519 0.55877048
4.1624589 0.55356079 0.45574772
4.723 0.54980201 0.32013893
3.4134791 0.57149845 0.56713289
3.7517149 0.5628897 0.47161204
4.1565866 0.55538404 0.35585681
-0.02611593 -0.059798401 0.050936799
3.4300299 0.57182693 0.48980272
3.7771153 0.56834775 0.38520592
4.1137028 0.55234092 0.25657099
-0.02611593 -0.059798401 0.050936799
3.4605939 0.5761044 0.41228157
3.781467 0.56991804 0.29712301
3.5251613 0.46868399 0.1430383
3.0010273 0.34219894 0.0055168942
3.471113 0.57749033 0.33308285
3.7097099 0.55983555 0.20625332
3.5506299 0.47708726 0.059685223
3.009716 0.34844658 -0.065556854
3.4796245 0.57688385 0.25388566
3.5288801 0.53116548 0.11608977
2.9738958 0.39361277 -0.011050719
2.7605014 0.32044515 -0.12241669
3.5061891 0.58117574 0.1764397
3.5814075 0.5414173 0.035264362
3.0026031 0.40077034 -0.081482604
2.6903484 0.31579721 -0.18220755
3.5076642 0.58063048 0.095374733
2.9667072 0.44099167 -0.03006554
2.7654078 0.36869034 -0.13664067
2.5912786 0.30716363 -0.23652731
3.5081437 0.58108866 0.014346587
2.9794056 0.44520721 -0.10025083
2.7831738 0.37583312 -0.20386687
2.5481925 0.30636385 -0.29375449
2.9565291 0.4813464 -0.047150794
2.7412434 0.40707755 -0.15249923
2.5342913 0.34148902 -0.24184124
2.3435135 0.28269717 -0.32336047
2.9102473 0.47372141 -0.11344469
2.7680073 0.414188 -0.21989454
2.5191705 0.3426246 -0.30155784
2.3254948 0.28575274 -0.37798637
2.7391043 0.44334993 -0.16680789
2.5221462 0.37579763 -0.25599805
2.3225162 0.31589356 -0.32936889
2.356349 0.29677582 -0.44138613
2.7279 0.44254389 -0.23063433
2.5310144 0.37986469 -0.31711122
2.3154767 0.31892774 -0.38520116
2.3791776 0.30584601 -0.50567132
2.5220206 0.4060277 -0.26845309
2.4939754 0.37698948 -0.37148818
2.3423419 0.32794744 -0.44756213
2.6370265 0.35311198 -0.63168657
2.5418715 0.41107318 -0.33075461
2.3133662 0.34814706 -0.39663696
2.3751581 0.33899948 -0.51299882
2.5322576 0.34421045 -0.66989905
2.3651605 0.38030723 -0.36101288
2.3392317 0.35717034 -0.45897913
2.5931592 0.38024721 -0.62937367
2.469373 0.34128389 -0.71579015
2.3092513 0.37135649 -0.40714362
2.3650563 0.36522993 -0.52333868
2.5033538 0.37232786 -0.66984922
2.4463258 0.3463932 -0.77228534
2.3410783 0.38039437 -0.47159788
2.5800617 0.40748823 -0.63963914
2.5001717 0.37749204 -0.73371792
2.406378 0.34745568 -0.82253522
2.3728831 0.38845053 -0.5370698
2.4743295 0.3935369 -0.6749239
2.4413054 0.374533 -0.7786845
-0.02611593 -0.059798401 0.050936799
2.5450749 0.42366537 -0.64169216
2.4930613 0.40171206 -0.74415016
2.3904188 0.37156332 -0.82480115
0.17946713 -0.024082046 -0.033294741
2.4622486 0.41072181 -0.68238938
2.4312212 0.39572808 -0.78711516
-0.02611593 -0.059798401 0.050936799
-0.02611593 -0.059798401 0.050936799
2.4869418 0.41891161 -0.75372773
-0.02611593 -0.059798401 0.050936799
0.17845644 -0.022060707 -0.034239579
0.15444119 -0.026973723 -0.033878699
2.4230945 0.41093519 -0.79669118
0.18748531 -0.019111607 -0.033354972
-0.02611593 -0.059798401 0.050936799
-0.02611593 -0.059798401 0.050936799
-0.02611593 -0.059798401 0.050936799
-0.02611593 -0.059798401 0.050936799
0.14948349 -0.025992125 -0.031767406
0.13345197 -0.029915936 -0.032538489
0.1894514 -0.018082775 -0.035373852
0.17436749 -0.020956079 -0.039144706
-0.02611593 -0.059798401 0.050936799
-0.02611593 -0.059798401 0.050936799
-0.02611593 -0.059798401 0.050936799
-0.02611593 -0.059798401 0.050936799
0.13740295 -0.027876362 -0.035576597
-0.02611593 -0.059798401 0.050936799
0.16145562 -0.022999525 -0.033938158
0.14937507 -0.02488376 -0.037747353
-0.02611593 -0.059798401 0.050936799
-0.02611593 -0.059798401 0.050936799
-0.02611593 -0.059798401 0.050936799
-0.02611593 -0.059798401 0.050936799
0.11445153 -0.030847576 -0.032199487
0.10440805 -0.032775167 -0.034046933
0.1434097 -0.025898235 -0.035653304
0.13036679 -0.027815063 -0.03744439
-0.02611593 -0.059798401 0.050936799
-0.02611593 -0.059798401 0.050936799
-0.02611593 -0.059798401 0.050936799
-0.02611593 -0.059798401 0.050936799
0.10441197 -0.031775337 -0.034028914
0.089440383 -0.034757175 -0.031801797
0.12143937 -0.028854949 -0.033294648
0.11632403 -0.029728299 -0.039216679
-0.02611593 -0.059798401 0.050936799
-0.02611593 -0.059798401 0.050936799
-0.02611593 -0.059798401 0.050936799
-0.02611593 -0.059798401 0.050936799
0.088444494 -0.033753753 -0.031764988
0.081404403 -0.034692284 -0.033650789
0.10643033 -0.031800605 -0.033066843
0.10231873 -0.031677715 -0.038989644
-0.02611593 -0.059798401 0.050936799
-0.02611593 -0.059798401 0.050936799
-0.02611593 -0.059798401 0.050936799
-0.02611593 -0.059798401 0.050936799
-0.02611593 -0.059798401 0.050936799
0.072383404 -0.035641722 -0.034499362
0.096390791 -0.032728367 -0.034896277
0.091316819 -0.032638069 -0.03880097
-0.02611593 -0.059798401 0.050936799
-0.02611593 -0.059798401 0.050936799
-0.02611593 -0.059798401 0.050936799
-0.02611593 -0.059798401 0.050936799
0.068417646 -0.03666338 -0.032442898
0.060419116 -0.036634665 -0.032292571
0.086366042 -0.034674052 -0.035744078
0.079311162 -0.034594662 -0.03861152
-0.02611593 -0.059798401 0.050936799
-0.02611593 -0.059798401 0.050936799
-0.02611593 -0.059798401 0.050936799
-0.02611593 -0.059798401 0.050936799
0.056472089 -0.037674405 -0.029236443
0.055382587 -0.036580548 -0.034197938
0.071417101 -0.036674146 -0.032499269
0.067346878 -0.035587601 -0.036404736
-0.02611593 -0.059798401 0.050936799
-0.02611593 -0.059798401 0.050936799
-0.02611593 -0.059798401 0.050936799
-0.02611593 -0.059798401 0.050936799
0.053397752 -0.037591282 -0.033178709
0.046399035 -0.037566159 -0.033047177
0.062414832 -0.037641671 -0.032348171
0.061306596 -0.036529724 -0.038309325
-0.02611593 -0.059798401 0.050936799
-0.02611593 -0.059798401 0.050936799
-0.02611593 -0.059798401 0.050936799
-0.02611593 -0.059798401 0.050936799
0.047361404 -0.03753357 -0.035065301
0.042343594 -0.037497535 -0.035971005
0.054393638 -0.0385947 -0.033215519
0.052323036 -0.037515335 -0.037158571
-0.02611593 -0.059798401 0.050936799
-0.02611593 -0.059798401 0.050936799
-0.02611593 -0.059798401 0.050936799
-0.02611593 -0.059798401 0.050936799
0.039396379 -0.038540866 -0.03293366
0.037325785 -0.037461501 -0.036876712
0.045428798 -0.039598413 -0.031065106
0.047286514 -0.037461214 -0.039063945
-0.02611593 -0.059798401 0.050936799
-0.02611593 -0.059798401 0.050936799
-0.02611593 -0.059798401 0.050936799
-0.02611593 -0.059798401 0.050936799
0.033393558 -0.039519165 -0.032838937
0.031326883 -0.037439968 -0.03676397
0.041354638 -0.039511699 -0.034988593
0.036355559 -0.039493755 -0.034894641
-0.02611593 -0.059798401 0.050936799
-0.02611593 -0.059798401 0.050936799
-0.02611593 -0.059798401 0.050936799
-0.02611593 -0.059798401 0.050936799
0.028375747 -0.03948313 -0.033744652
0.024361683 -0.038450856 -0.034651138
0.037299208 -0.039443076 -0.03791241
0.032300122 -0.039425135 -0.037818458
-0.02611593 -0.059798401 0.050936799
-0.02611593 -0.059798401 0.050936799
-0.02611593 -0.059798401 0.050936799
-0.02611593 -0.059798401 0.050936799
0.025286607 -0.038382091 -0.038668573
0.019362593 -0.038432911 -0.034557182
0.031277657 -0.04040328 -0.038817354
0.027282313 -0.0393891 -0.038724173
-0.02611593 -0.059798401 0.050936799
-0.02611593 -0.059798401 0.050936799
-0.02611593 -0.059798401 0.050936799
-0.02611593 -0.059798401 0.050936799
-0.02611593 -0.059798401 0.050936799
-0.02611593 -0.059798401 0.050936799
0.023331357 -0.041428667 -0.035686057
-0.02611593 -0.059798401 0.050936799
-0.02611593 -0.059798401 0.050936799
-0.02611593 -0.059798401 0.050936799
-0.02611593 -0.059798401 0.050936799
-0.02611593 -0.059798401 0.050936799
-0.02611593 -0.059798401 0.050936799
-0.02611593 -0.059798401 0.050936799
0.018332271 -0.041410722 -0.035592105
-0.02611593 -0.059798401 0.050936799
-0.02611593 -0.059798401 0.050936799
-0.02611593 -0.059798401 0.050936799
-0.02611593 -0.059798401 0.050936799
-0.02611593 -0.059798401 0.050936799
-0.02611593 -0.059798401 0.050936799
-0.02611593 -0.059798401 0.050936799
-0.02611593 -0.059798401 0.050936799
-0.02611593 -0.059798401 0.050936799
-0.02611593 -0.059798401 0.050936799
-0.02611593 -0.059798401 0.050936799
-0.02611593 -0.059798401 0.050936799
-0.02611593 -0.059798401 0.050936799
-0.02611593 -0.059798401 0.050936799
-0.02611593 -0.059798401 0.050936799
-0.02611593 -0.059798401 0.050936799
-0.02611593 -0.059798401 0.050936799
-0.02611593 -0.059798401 0.050936799
-0.02611593 -0.059798401 0.050936799
-0.02611593 -0.059798401 0.050936799
-0.02611593 -0.059798401 0.050936799
-0.02611593 -0.059798401 0.050936799
-0.02611593 -0.059798401 0.050936799
-0.02611593 -0.059798401 0.050936799
-0.02611593 -0.059798401 0.050936799
-0.02611593 -0.059798401 0.050936799
-0.02611593 -0.059798401 0.050936799
-0.02611593 -0.059798401 0.050936799
-0.02611593 -0.059798401 0.050936799
-0.02611593 -0.059798401 0.050936799
-0.02611593 -0.059798401 0.050936799
-0.02611593 -0.059798401 0.050936799
-0.02611593 -0.059798401 0.050936799
-0.02611593 -0.059798401 0.050936799
-0.02611593 -0.059798401 0.050936799
-0.02611593 -0.059798401 0.050936799
-0.02611593 -0.059798401 0.050936799
-0.02611593 -0.059798401 0.050936799
-0.02611593 -0.059798401 0.050936799
-0.02611593 -0.059798401 0.050936799
-0.02611593 -0.059798401 0.050936799
-0.02611593 -0.059798401 0.050936799
-0.02611593 -0.059798401 0.050936799
-0.02611593 -0.059798401 0.050936799
-0.02611593 -0.059798401 0.050936799
-0.02611593 -0.059798401 0.050936799
-0.02611593 -0.059798401 0.050936799
-0.02611593 -0.059798401 0.050936799
-0.02611593 -0.059798401 0.050936799
-0.02611593 -0.059798401 0.050936799
-0.02611593 -0.059798401 0.050936799
-0.02611593 -0.059798401 0.050936799
-0.02611593 -0.059798401 0.050936799
-0.02611593 -0.059798401 0.050936799
-0.02611593 -0.059798401 0.050936799
-0.02611593 -0.059798401 0.050936799
-0.02611593 -0.059798401 0.050936799
-0.02611593 -0.059798401 0.050936799
-0.02611593 -0.059798401 0.050936799
-0.02611593 -0.059798401 0.050936799
-0.02611593 -0.059798401 0.050936799
-0.02611593 -0.059798401 0.050936799
-0.02611593 -0.059798401 0.050936799
-0.02611593 -0.059798401 0.050936799
-0.02611593 -0.059798401 0.050936799
-0.02611593 -0.059798401 0.050936799
-0.02611593 -0.059798401 0.050936799
-0.02611593 -0.059798401 0.050936799
-0.02611593 -0.059798401 0.050936799
-0.02611593 -0.059798401 0.050936799
-0.02611593 -0.059798401 0.050936799
-0.02611593 -0.059798401 0.050936799
-0.02611593 -0.059798401 0.050936799
-0.02611593 -0.059798401 0.050936799
-0.02611593 -0.059798401 0.050936799
-0.02611593 -0.059798401 0.050936799
-0.02611593 -0.059798401 0.050936799
-0.02611593 -0.059798401 0.050936799
-0.02611593 -0.059798401 0.050936799
-0.02611593 -0.059798401 0.050936799
-0.02611593 -0.059798401 0.050936799
-0.02611593 -0.059798401 0.050936799
-0.02611593 -0.059798401 0.050936799
-0.02611593 -0.059798401 0.050936799
-0.02611593 -0.059798401 0.050936799
-0.02611593 -0.059798401 0.050936799
-0.02611593 -0.059798401 0.050936799
-0.02611593 -0.059798401 0.050936799
-0.02611593 -0.059798401 0.050936799
-0.02611593 -0.059798401 0.050936799
-0.02611593 -0.059798401 0.050936799
-0.02611593 -0.059798401 0.050936799
-0.02611593 -0.059798401 0.050936799
-0.02611593 -0.059798401 0.050936799
-0.02611593 -0.059798401 0.050936799
-0.02611593 -0.059798401 0.050936799
-0.02611593 -0.059798401 0.050936799
-0.02611593 -0.059798401 0.050936799
-0.02611593 -0.059798401 0.050936799
-0.02611593 -0.059798401 0.050936799
-0.02611593 -0.059798401 0.050936799
-0.02611593 -0.059798401 0.050936799
-0.02611593 -0.059798401 0.050936799
-0.02611593 -0.059798401 0.050936799
-0.02611593 -0.059798401 0.050936799
-0.02611593 -0.059798401 0.050936799
-0.02611593 -0.059798401 0.050936799
-0.02611593 -0.059798401 0.050936799
-0.02611593 -0.059798401 0.050936799
-0.02611593 -0.059798401 0.050936799
-0.02611593 -0.059798401 0.050936799
-0.02611593 -0.059798401 0.050936799
-0.02611593 -0.059798401 0.050936799
-0.02611593 -0.059798401 0.050936799
-0.02611593 -0.059798401 0.050936799
-0.02611593 -0.059798401 0.050936799
-0.02611593 -0.059798401 0.050936799
-0.02611593 -0.059798401 0.050936799
-0.02611593 -0.059798401 0.050936799
-0.02611593 -0.059798401 0.050936799
-0.02611593 -0.059798401 0.050936799
-0.02611593 -0.059798401 0.050936799
-0.02611593 -0.059798401 0.050936799
-0.02611593 -0.059798401 0.050936799
-0.02611593 -0.059798401 0.050936799
-0.02611593 -0.059798401 0.050936799
-0.02611593 -0.059798401 0.050936799
-0.02611593 -0.059798401 0.050936799
-0.02611593 -0.059798401 0.050936799
-0.02611593 -0.059798401 0.050936799
-0.02611593 -0.059798401 0.050936799
-0.02611593 -0.059798401 0.050936799
-0.02611593 -0.059798401 0.050936799
-0.02611593 -0.059798401 0.050936799
-0.02611593 -0.059798401 0.050936799
-0.02611593 -0.059798401 0.050936799
-0.02611593 -0.059798401 0.050936799
-0.02611593 -0.059798401 0.050936799
-0.02611593 -0.059798401 0.050936799
-0.02611593 -0.059798401 0.050936799
-0.02611593 -0.059798401 0.050936799
-0.02611593 -0.059798401 0.050936799
-0.02611593 -0.059798401 0.050936799
-0.02611593 -0.059798401 0.050936799
-0.02611593 -0.059798401 0.050936799
-0.02611593 -0.059798401 0.050936799
-0.02611593 -0.059798401 0.050936799
-0.02611593 -0.059798401 0.050936799
-0.02611593 -0.059798401 0.050936799
-0.02611593 -0.059798401 0.050936799
-0.066654265 -0.03207102 -0.035832062
-0.067722946 -0.040029887 -0.037956748
-0.02611593 -0.059798401 0.050936799
-0.02611593 -0.059798401 0.050936799
-0.02611593 -0.059798401 0.050936799
-0.02611593 -0.059798401 0.050936799
-0.02611593 -0.059798401 0.050936799
-0.070642672 -0.034074411 -0.03479328
-0.070616089 -0.032092839 -0.033757582
-0.02611593 -0.059798401 0.050936799
-0.02611593 -0.059798401 0.050936799
-0.02611593 -0.059798401 0.050936799
-0.02611593 -0.059798401 0.050936799
-0.02611593 -0.059798401 0.050936799
-0.02611593 -0.059798401 0.050936799
-0.074604496 -0.034096237 -0.0327188
-0.07459271 -0.031096745 -0.032664742
-0.076642483 -0.039070118 -0.033770971
-0.077649243 -0.036048949 -0.034697782
-0.02611593 -0.059798401 0.050936799
-0.02611593 -0.059798401 0.050936799
-0.02611593 -0.059798401 0.050936799
-0.02611593 -0.059798401 0.050936799
-0.079603583 -0.034078293 -0.032624848
-0.078554533 -0.031118564 -0.030590247
-0.083655998 -0.038027074 -0.034621075
-0.084662758 -0.035005912 -0.03554789
-0.02611593 -0.059798401 0.050936799
-0.02611593 -0.059798401 0.050936799
-0.02611593 -0.059798401 0.050936799
-0.02611593 -0.059798401 0.050936799
-0.083542757 -0.033118371 -0.029532678
-0.084586956 -0.030061025 -0.032458819
-0.0896549 -0.038005542 -0.034508333
-0.092709608 -0.03292327 -0.038360514
-0.02611593 -0.059798401 0.050936799
-0.02611593 -0.059798401 0.050936799
-0.02611593 -0.059798401 0.050936799
-0.02611593 -0.059798401 0.050936799
-0.090593718 -0.032039151 -0.032382112
-0.089563392 -0.02906134 -0.031347182
-0.095631152 -0.037002265 -0.033377912
-0.098689787 -0.032919824 -0.037248112
-0.02611593 -0.059798401 0.050936799
-0.02611593 -0.059798401 0.050936799
-0.02611593 -0.059798401 0.050936799
-0.02611593 -0.059798401 0.050936799
-0.096569963 -0.031035876 -0.031251684
-0.096572973 -0.027018469 -0.032179277
-0.10262595 -0.035977319 -0.033228356
-0.10262896 -0.031959906 -0.034155942
-0.02611593 -0.059798401 0.050936799
-0.02611593 -0.059798401 0.050936799
-0.02611593 -0.059798401 0.050936799
-0.02611593 -0.059798401 0.050936799
-0.10256101 -0.029014684 -0.031102903
-0.099516258 -0.027061969 -0.029123921
-0.11163516 -0.033927266 -0.034022868
-0.1116569 -0.029891767 -0.035950121
-0.02611593 -0.059798401 0.050936799
-0.02611593 -0.059798401 0.050936799
-0.02611593 -0.059798401 0.050936799
-0.02611593 -0.059798401 0.050936799
-0.11158895 -0.026946545 -0.032897078
-0.10752566 -0.025015507 -0.029937211
-0.11555955 -0.033985268 -0.029949054
-0.11659981 -0.029928088 -0.032857183
-0.02611593 -0.059798401 0.050936799
-0.02611593 -0.059798401 0.050936799
-0.02611593 -0.059798401 0.050936799
-0.02611593 -0.059798401 0.050936799
-0.11754649 -0.025961358 -0.03076699
-0.11958656 -0.021900596 -0.033656321
-0.12658712 -0.03190995 -0.031705651
-0.12760475 -0.026871035 -0.033596087
-0.02611593 -0.059798401 0.050936799
-0.02611593 -0.059798401 0.050936799
-0.02611593 -0.059798401 0.050936799
-0.02611593 -0.059798401 0.050936799
-0.12755552 -0.023907721 -0.031542715
-0.12454429 -0.020918999 -0.031545028
-0.1355589 -0.029896079 -0.030500837
-0.13558064 -0.02586058 -0.032428086
-0.02611593 -0.059798401 0.050936799
-0.02611593 -0.059798401 0.050936799
-0.02611593 -0.059798401 0.050936799
-0.02611593 -0.059798401 0.050936799
-0.1314799 -0.02396572 -0.027468901
-0.13249752 -0.018926803 -0.029359337
-0.14756757 -0.027835265 -0.031238977
-0.14758538 -0.022799937 -0.033148203
-0.02611593 -0.059798401 0.050936799
-0.02611593 -0.059798401 0.050936799
-0.02611593 -0.059798401 0.050936799
-0.02611593 -0.059798401 0.050936799
-0.14348464 -0.020905076 -0.028189022
-0.14350636 -0.016869579 -0.030116268
-0.14841761 -0.027976386 -0.02322289
-0.15855677 -0.020778885 -0.031905811
-0.02611593 -0.059798401 0.050936799
-0.02611593 -0.059798401 0.050936799
-0.02611593 -0.059798401 0.050936799
-0.02611593 -0.059798401 0.050936799
-0.15041934 -0.018934559 -0.025022469
-0.15247422 -0.013855879 -0.028893434
-0.16946901 -0.022829514 -0.026736841
-0.17052409 -0.017754421 -0.03062661
-0.02611593 -0.059798401 0.050936799
-0.02611593 -0.059798401 0.050936799
-0.02611593 -0.059798401 0.050936799
-0.02611593 -0.059798401 0.050936799
-0.16440499 -0.015884826 -0.024705343
-0.1573797 -0.01392838 -0.023801185
-0.19048691 -0.018718645 -0.028269485
-0.18549085 -0.014719183 -0.02929103
-0.02611593 -0.059798401 0.050936799
-0.02611593 -0.059798401 0.050936799
-0.02611593 -0.059798401 0.050936799
-0.02611593 -0.059798401 0.050936799
-0.18140489 -0.011806406 -0.025313493
-0.17740865 -0.0078033507 -0.02631624
-0.2185144 -0.012564909 -0.030634232
-0.21453294 -0.0075439373 -0.03261862
-0.02611593 -0.059798401 0.050936799
-0.02611593 -0.059798401 0.050936799
-0.02611593 -0.059798401 0.050936799
-0.02611593 -0.059798401 0.050936799
-0.20946196 -0.0036168299 -0.02964152
-0.19640425 -0.0027179262 -0.026868794
-0.24748157 -0.0054620234 -0.029963173
-0.23447219 -0.0025091912 -0.030153397
-0.02611593 -0.059798401 0.050936799
-0.02611593 -0.059798401 0.050936799
-0.02611593 -0.059798401 0.050936799
-0.02611593 -0.059798401 0.050936799
-0.23040102 0.0014215086 -0.027157493
-0.22342405 0.005431883 -0.02921629
-0.97002989 0.17028633 -0.24532902
-0.26242083 0.0045720204 -0.028501473
-0.02611593 -0.059798401 0.050936799
-0.02611593 -0.059798401 0.050936799
-0.96856201 0.1698305 -0.2203563
-0.02611593 -0.059798401 0.050936799
-0.26038283 0.0095459064 -0.027449295
-0.24336332 0.010466637 -0.026751053
-0.979159 0.17148979 -0.1991207
-0.97046345 0.19483344 -0.21986826
-0.02611593 -0.059798401 0.050936799
-0.02611593 -0.059798401 0.050936799
-0.99576575 0.17518832 -0.17873593
-0.98509318 0.19754305 -0.20053875
-0.97035438 0.21781142 -0.21845414
-0.93853384 0.23091146 -0.23081714
-1.0003303 0.17579004 -0.15563177
-0.99668998 0.19920592 -0.17928436
-0.98097396 0.21848896 -0.19823624
-0.97027189 0.23880784 -0.21807575
-1.0099087 0.17742765 -0.13341528
-1.0143152 0.20292614 -0.15988049
-0.99659967 0.22220202 -0.17886993
-0.97687358 0.23945297 -0.19693333
-1.029511 0.18213679 -0.11295615
-1.0269079 0.20559241 -0.13858929
-1.0011868 0.22182199 -0.15678345
-0.99152207 0.24218066 -0.17860352
-1.0300387 0.182688 -0.087927803
-1.0204449 0.20411885 -0.11372851
-1.0097841 0.22347409 -0.1355854
-0.99812752 0.24182591 -0.15747909
-1.0426087 0.186336 -0.065618917
-1.0260092 0.20472413 -0.090605557
-1.0193814 0.22512977 -0.11436857
-1.0077434 0.24349968 -0.13726193
-1.0571597 0.1899731 -0.042272776
-1.0385832 0.20737235 -0.068314686
-1.0359881 0.22882833 -0.093983836
-1.0203588 0.24518424 -0.1169884
-1.0777204 0.19564949 -0.019777521
-1.0501573 0.21001694 -0.046042584
-1.0425708 0.22945531 -0.071841754
-1.0299559 0.24683991 -0.095771581
-1.0942483 0.20027551 0.004623875
-1.0837375 0.21977548 -0.025230311
-1.0511495 0.23108931 -0.049644053
-1.0485623 0.25054562 -0.075349256
-1.1127758 0.2049087 0.02906286
-1.1012838 0.2244232 -0.0018097758
-1.0637195 0.23473732 -0.027335159
-1.0581594 0.25220129 -0.054132424
-1.1212903 0.20848812 0.05429557
-1.1108022 0.22700635 0.02342372
-1.0852801 0.2404173 -0.0048211068
-1.0547184 0.24975672 -0.030232973
-1.1248137 0.2100499 0.079398297
-1.1243345 0.23062177 0.047750719
-1.0998309 0.24405441 0.01852503
-1.0843031 0.25850111 -0.0095138773
-0.02611593 -0.059798401 0.050936799
-1.1448351 0.23724373 0.073262982
-1.1143631 0.24767342 0.042870816
-1.0908674 0.25911003 0.013627887
-1.1747305 0.22525342 0.13462661
-1.1603445 0.24184807 0.098645248
-1.1348865 0.25331363 0.067365408
-1.106418 0.26275069 0.036992807
-0.02611593 -0.059798401 0.050936799
-0.02611593 -0.059798401 0.050936799
-1.1474003 0.25690737 0.092673287
-1.1249455 0.2673839 0.061431795
-1.2145782 0.23934881 0.19364765
-1.1982565 0.25399089 0.15459368
-1.1688819 0.26351482 0.11920399
-0.02611593 -0.059798401 0.050936799
-0.02611593 -0.059798401 0.050936799
-0.02611593 -0.059798401 0.050936799
-1.188368 0.2691153 0.1456791
-1.1579826 0.27661788 0.11123425
-0.02611593 -0.059798401 0.050936799
-1.2371083 0.26708293 0.2135779
-1.2088124 0.27568299 0.17419034
-0.02611593 -0.059798401 0.050936799
-1.2677218 0.25984216 0.28904569
-1.239557 0.26856875 0.24266049
-0.02611593 -0.059798401 0.050936799
-1.2089032 0.29082513 0.16646333
-0.02611593 -0.059798401 0.050936799
-1.2509695 0.27406818 0.27298391
-1.243654 0.28674287 0.23406303
-0.02611593 -0.059798401 0.050936799
-1.2725474 0.26675886 0.35028189
-1.2882376 0.28655112 0.30992001
-1.251094 0.29024637 0.26327559
-1.2497586 0.30292451 0.22546712
-0.02611593 -0.059798401 0.050936799
-1.3155191 0.29599872 0.34661409
-1.2893804 0.30275095 0.29923081
-1.2651743 0.3074384 0.25584769
-0.02611593 -0.059798401 0.050936799
-1.3039968 0.29545274 0.37439793
-1.3067317 0.30921742 0.33268398
-0.02611593 -0.059798401 0.050936799
-2.6237102 0.64179116 0.86853886
-1.3282602 0.30487147 0.41203535
-0.02611593 -0.059798401 0.050936799
-0.02611593 -0.059798401 0.050936799
-2.5847099 0.63967818 0.92178851
-2.523859 0.64553165 0.80571574
-1.3085507 0.31310585 0.39480942
-1.286427 0.31587315 0.34742922
-2.5397937 0.63561636 0.97089076
-2.4899032 0.64147305 0.85702401
-0.02611593 -0.059798401 0.050936799
-1.3156897 0.32530981 0.38516057
-2.5008309 0.6335395 1.0221411
-2.4609387 0.63943213 0.90846229
-2.4038858 0.63908392 0.80435246
-1.3459105 0.33571374 0.42492807
-2.4807518 0.63643956 1.0788368
-2.4379091 0.6393581 0.96304822
-2.3898547 0.6390422 0.85910755
-2.3625183 0.64254773 0.76962888
-2.4279344 0.63143957 1.1227725
-2.402987 0.63633192 1.0123564
-2.3777962 0.64098918 0.91493589
-2.3534822 0.64352375 0.82449591
-2.3910234 0.63042402 1.1710793
-2.3770139 0.63630146 1.063887
-2.3597844 0.64095122 0.96861625
-2.346427 0.64448887 0.88040024
-2.3570709 0.6303829 1.2214599
-2.3391299 0.63330072 1.1111394
-2.3278844 0.63695413 1.0169631
-2.3244839 0.64149129 0.93095231
-2.3063242 0.62646234 1.2614524
-2.3032644 0.63032526 1.1574298
-2.3078916 0.63692701 1.0696061
-2.3055215 0.63848639 0.9825604
-2.2714276 0.62647182 1.3088154
-2.2763104 0.63030928 1.207942
-2.2770102 0.63295162 1.1169721
-2.2914898 0.63844472 1.0373155
-2.2315924 0.62551785 1.3530673
-2.2414405 0.6283372 1.2542691
-2.253037 0.63292825 1.1685402
-2.2616124 0.63347298 1.0846822
-2.1878176 0.623604 1.394227
-2.2075665 0.62736857 1.3006332
-2.2251284 0.63094515 1.2169983
-2.2525122 0.6363945 1.1425843
-2.1450391 0.62269348 1.4354236
-2.1766696 0.62739253 1.3480711
-2.1971936 0.63094366 1.2664919
-2.2256074 0.6334151 1.1910431
-2.1012981 0.62181562 1.474602
-2.1329401 0.62351513 1.3871957
-2.1643646 0.62801516 1.3108394
-2.2085767 0.63336265 1.2457418
-2.0536404 0.61899608 1.5096706
-2.0892069 0.62063754 1.426338
-2.1354523 0.62702829 1.3592967
-2.1786723 0.63037252 1.2941444
-2.0089412 0.6171509 1.5468129
-2.0533895 0.61971605 1.4696655
-2.1035817 0.62506694 1.4056803
-2.1478057 0.627415 1.3405286
-1.9613209 0.6143676 1.5798823
-2.0146327 0.61783814 1.5099194
-2.0707264 0.62412 1.4510634
-2.1297526 0.62834066 1.3962262
-1.9166363 0.61354035 1.6160429
-1.9748909 0.61697465 1.549173
-2.038871 0.62317669 1.4964652
-2.0959053 0.62539053 1.4415545
-1.8710079 0.61276382 1.6491859
-1.9361304 0.61609656 1.5894451
-2.0000806 0.62026286 1.5387006
-2.0679555 0.62437105 1.4920299
-1.8411096 0.61780858 1.6957332
-1.8914909 0.61330593 1.6235703
-1.9632862 0.61835599 1.5809915
-2.0410051 0.62335527 1.542524
-1.7994392 0.61800998 1.7309685
-1.8517493 0.61244243 1.6628242
-1.9294496 0.61742353 1.6253563
-2.0031998 0.61942703 1.5857599
-1.7361974 0.61051381 1.7446536
-1.8306918 0.61937439 1.7175738
-1.8877536 0.61458933 1.662537
-1.9644324 0.61553138 1.6269774
-1.6808113 0.60591906 1.7655404
-1.783113 0.61562735 1.7486256
-1.8568524 0.6156131 1.7099929
-1.9384367 0.61648262 1.6795259
-1.6362576 0.60521853 1.7947035
-1.7296929 0.61000383 1.7715316
-1.8298867 0.61859655 1.7605592
-1.8986466 0.61356509 1.7217424
-1.5877837 0.60357612 1.8197747
-1.675288 0.60539466 1.793437
-1.779331 0.61385703 1.7905371
-1.8598565 0.61065131 1.7639778
-1.53737 0.60098094 1.8417914
-1.6336215 0.60459626 1.8286544
-1.7239194 0.60622662 1.8133694
-1.8161647 0.60681009 1.8011029
-1.4908917 0.60034549 1.8669182
-1.5851327 0.60193598 1.8547072
-1.6851735 0.60636652 1.8526598
-1.7910861 0.60969222 1.8577045
-1.4395719 0.59783727 1.8839178
-1.5386207 0.60026455 1.8818153
-1.6356552 0.60166681 1.8806571
-1.7444136 0.60585833 1.8937736
-1.3940932 0.59720546 1.9090635
-1.488211 0.59666967 1.9038141
-1.5939512 0.60083228 1.917874
-1.7056193 0.6039443 1.9360269
-1.3447504 0.59568608 1.9271182
-1.4446385 0.59595454 1.9339956
-1.5532433 0.60100114 1.9551274
-1.6599654 0.60013211 1.9711152
-1.2963885 0.59415215 1.9461914
-1.4040014 0.59719557 1.9672685
-1.5066791 0.5982756 1.9852164
-1.6181866 0.59922522 2.0123305
-1.2451249 0.59169811 1.960192
-1.3536066 0.59461856 1.9882853
-1.4532738 0.59367007 2.0071406
-1.576389 0.59830022 2.0545456
-1.196838 0.5902366 1.9752666
-1.3081092 0.59396863 2.0144308
-1.4232594 0.59960604 2.0597038
-1.5336103 0.59738976 2.095742
-1.1514305 0.59067702 1.9964315
-1.2645662 0.59528935 2.0426488
-1.3688917 0.59503305 2.0796101
-1.4859676 0.59558809 2.1298292
-1.1051019 0.5901863 2.013561
-1.2171293 0.59368676 2.0657396
-1.320403 0.59237278 2.1056626
-1.4402683 0.59373945 2.1669526
-1.055894 0.58779377 2.0246003
-1.1619906 0.58832735 2.0736129
-1.2806494 0.59450871 2.1449707
-1.3955461 0.59287602 2.2051125
-1.0105387 0.58928818 2.0427842
-1.1165042 0.58969522 2.0987947
-1.2292546 0.59192806 2.1659687
-1.3459225 0.59108531 2.2381625
-0.95942879 0.58597898 2.0487697
-1.0739384 0.59200132 2.1280494
-1.1739621 0.5874238 2.1818573
-1.2953178 0.5893091 2.2701936
-0.91121286 0.58558971 2.0598636
-1.0168974 0.58572543 2.1308687
-1.1244656 0.58675957 2.2079277
-1.2466524 0.58848566 2.3052795
-0.86591762 0.58613867 2.0750306
-0.96565264 0.5832895 2.1438694
-1.0788668 0.58801889 2.2391069
-1.1960438 0.58770931 2.3373289
-0.81776184 0.5848037 2.0831077
-0.91924131 0.5847261 2.1650338
-1.026487 0.58645248 2.259105
-1.1386952 0.58314353 2.3561788
-0.77060586 0.58347237 2.0912032
-0.87187546 0.58419561 2.184144
-0.97611088 0.5838936 2.2791224
-1.0890678 0.5823527 2.3892465
-0.72344589 0.58314091 2.0993171
-0.82358462 0.58373392 2.1992366
-0.92470837 0.58331263 2.3001564
-1.0374928 0.5826087 2.4192955
-0.67632747 0.58184576 2.1054134
-0.77054995 0.58048993 2.2011857
-0.87238479 0.58180058 2.3171551
-0.9848845 0.58182514 2.4513073
-0.63108444 0.58344877 2.1175997
-0.72407854 0.58287215 2.2253666
-0.81903875 0.5812667 2.3351529
-0.92558879 0.57830644 2.467139
-0.58400333 0.58218986 2.1216969
-0.67202497 0.57961363 2.2283344
-0.76861334 0.581671 2.3572235
-0.84264541 0.5569312 2.4141812
-0.53601992 0.58001792 2.120759
-0.62280524 0.58022058 2.2394273
-0.70030272 0.5670228 2.3226681
-0.76375747 0.53562462 2.3583002
-0.48891628 0.5797407 2.1258733
-0.56712776 0.57229227 2.2232363
-0.62842834 0.54675931 2.2659364
-0.69074428 0.51723057 2.3085835
-0.44290987 0.57855767 2.1259909
-0.50790912 0.55776685 2.1838515
-0.56245524 0.52742672 2.214334
-0.61793017 0.49601793 2.2488165
-0.3932648 0.57168692 2.1079311
-0.44882941 0.54136848 2.1374328
-0.5003534 0.51199919 2.1688771
-0.55083317 0.47957265 2.2032471
-0.34205556 0.55920792 2.0677328
-0.39262503 0.52787173 2.0971229
-0.44307432 0.49842653 2.1325464
-0.48679182 0.46319252 2.1547353
-0.29182741 0.54671454 2.0285532
-0.3402997 0.51628047 2.0629218
-0.38394928 0.48399159 2.0881636
-0.42662954 0.44871783 2.1123326
-0.25209469 0.55790323 2.0650241
-0.2909137 0.50564557 2.0317943
-0.33164266 0.47241843 2.0529628
-0.371286 0.43709767 2.0790751
-0.21308395 0.57284158 2.115581
-0.24918924 0.51482749 2.0681915
-0.28117806 0.46270749 2.0258334
-0.31605878 0.42458627 2.0398014
-0.16890776 0.5765202 2.1238234
-0.20902103 0.53161711 2.1267631
-0.24206284 0.4755376 2.0823522
-0.26904178 0.42138195 2.0408635
-0.12497592 0.57541674 2.1199796
-0.16769931 0.54925841 2.193331
-0.1999068 0.4893207 2.1408319
-0.22681472 0.43409279 2.1033242
-0.081021413 0.57529497 2.1171534
-0.12261478 0.56410283 2.2477741
-0.1555334 0.50589699 2.2103245
-0.18347163 0.44769138 2.1717818
-0.036247384 0.57233304 2.1052575
-0.073263161 0.5696004 2.264955
-0.1141215 0.56371987 2.4336708
-0.13672714 0.46791616 2.2603025
0.0085719507 0.57133442 2.0953968
-0.024411045 0.56755149 2.2570007
-0.058353398 0.55971855 2.4215503
-0.095084056 0.55875897 2.6492977
0.0514291 0.5703069 2.0875733
0.023403814 0.56554246 2.2470658
-0.0041869134 0.56136155 2.4295688
-0.034084361 0.55652225 2.6491153
0.094267517 0.56929749 2.0787497
0.072417498 0.56634825 2.2471631
0.049626842 0.55933094 2.4195209
0.027844198 0.55535418 2.6449332
0.13716997 0.57023346 2.0729618
0.12019098 0.56337541 2.2352104
0.10365441 0.55910093 2.4205055
0.088945374 0.55502671 2.649785
0.17998967 0.56924212 2.0631385
0.16694987 0.5614242 2.2222955
0.15750954 0.55803394 2.4124751
0.14985539 0.55388033 2.6446221
-0.02611593 -0.059798401 0.050936799
0.2158512 0.56233859 2.2163942
0.21142085 0.55691272 2.407444
0.21168642 0.55180287 2.6354237
0.13950306 0.29818329 1.1846957
-0.02611593 -0.059798401 0.050936799
0.26627973 0.55684197 2.3994129
0.27367505 0.55158037 2.6342587
0.16116506 0.29441255 1.1672162
0.31160894 0.5622111 2.2025943
-0.02611593 -0.059798401 0.050936799
-0.02611593 -0.059798401 0.050936799
0.34944612 0.57213801 2.0320077
0.35943559 0.56320149 2.1927137
0.20454384 0.29605684 1.3995123
0.39627025 0.54950106 2.6119182
0.2752986 0.39647132 1.473029
0.26097858 0.35267377 1.464502
0.24092048 0.30258274 1.4179556
0.4571842 0.54935449 2.6067734
0.43089899 0.57035047 2.0024405
0.45524263 0.56603742 2.1809671
0.27953711 0.3128837 1.4484293
0.27231035 0.27398786 1.4438595
0.47058427 0.56849676 1.9856583
0.4965896 0.55948472 2.147063
0.31353876 0.31476137 1.4478265
0.57978725 0.54927486 2.5844688
0.5123933 0.56952673 1.9748905
0.54233778 0.55955482 2.1332033
0.34749904 0.31567535 1.4452063
0.63933778 0.54747581 2.5603132
0.54996657 0.5677886 1.9521477
0.58902961 0.55967557 2.1163256
0.38250443 0.31854922 1.4446027
0.70014334 0.54843765 2.5491884
0.58969718 0.56789827 1.9374009
0.63371795 0.55880368 2.099467
0.41215014 0.31576768 1.4259911
0.75873148 0.54660612 2.527051
0.6283865 0.56704789 1.9206556
0.67735016 0.5579896 2.0796287
0.44187862 0.31491342 1.411414
0.81736493 0.54673803 2.5069487
0.66916221 0.56911761 1.9079252
0.71996391 0.55719721 2.0588095
0.46631142 0.31034911 1.3818638
0.8738786 0.54498613 2.48085
0.70677292 0.56734318 1.887182
-0.02611593 -0.059798401 0.050936799
0.37813148 0.22630247 1.0698888
-0.02611593 -0.059798401 0.050936799
-0.02611593 -0.059798401 0.050936799
0.39689705 0.25355533 1.0520244
0.45443901 0.26193213 1.1851437
0.51818496 0.26507118 1.3300561
0.44599906 0.30650562 1.1000792
0.54319805 0.34123987 1.3159609
0.53774917 0.29853645 1.3002852
1.0465175 0.54564595 2.4066048
0.81866241 0.56698704 1.8270601
0.50621116 0.29708326 1.1658038
0.99110925 0.55511522 2.1707332
1.1009792 0.54495525 2.3775625
0.85629976 0.56719434 1.8073525
0.94234717 0.56193024 1.9697013
1.0365312 0.55349314 2.139843
1.1564822 0.54522461 2.3505189
0.89501959 0.56932539 1.7916609
0.97765088 0.5584529 1.9329652
1.0830132 0.55281305 2.1119509
1.2088507 0.54463148 2.3165162
0.92853749 0.56765592 1.7659944
1.0202912 0.55964214 1.9131815
1.1316001 0.55503482 2.0890739
1.2633351 0.54492247 2.2884922
0.96203655 0.56600463 1.7393284
1.0597972 0.55996895 1.8864387
1.1770636 0.5543763 2.0602009
1.3156888 0.54534727 2.2535079
0.99663705 0.56625885 1.7176778
1.0993178 0.55927771 1.8606776
1.2204337 0.55381554 2.0263672
1.3680425 0.54577214 2.218523
1.0332223 0.56752378 1.6950079
1.1408647 0.56056094 1.8359145
1.2648076 0.55425102 1.992533
1.4163182 0.54528373 2.1795974
1.067804 0.56779617 1.6723578
1.1772549 0.56000715 1.8032122
1.3071967 0.55367571 1.9597178
1.4666349 0.54575193 2.1426513
1.1003072 0.56714827 1.6457286
1.2096004 0.55750424 1.7685493
1.3505896 0.55409664 1.9269018
1.5169741 0.54720193 2.1067228
1.1297323 0.56558359 1.6151389
1.2491291 0.55881274 1.7428243
1.3940238 0.55548126 1.8961031
1.5601532 0.54582214 2.0628746
1.1673774 0.56779057 1.5954673
1.286598 0.55918288 1.7141198
1.4333198 0.55500716 1.858346
1.6114963 0.54826826 2.0269454
1.1968437 0.56718951 1.5668951
1.3220109 0.55961442 1.6824538
1.4808359 0.55830467 1.8315071
1.6506011 0.54697526 1.9791737
1.2303734 0.56851959 1.5412828
1.3594649 0.56100243 1.6527677
1.5170764 0.5578956 1.7908072
1.6978287 0.54854447 1.9373035
1.2679851 0.5717625 1.5196298
1.3948779 0.56143403 1.6211017
1.5482162 0.55559534 1.7451673
1.7389785 0.54920775 1.8915297
1.2953731 0.57024127 1.4870785
1.4231305 0.55903596 1.5815159
1.5875162 0.55612105 1.7074281
1.7780871 0.54891455 1.843776
1.3289026 0.57157129 1.4614662
1.4636707 0.56334037 1.5558261
1.6186787 0.55480248 1.6628057
1.8192596 0.55055952 1.7990197
1.3593767 0.57296628 1.4329112
1.4950057 0.56285876 1.5202185
1.6539419 0.55537874 1.6231425
1.8532906 0.54935682 1.7473433
1.3878057 0.5724051 1.4023584
1.5243036 0.56242061 1.4826493
1.6902089 0.55695128 1.5834785
1.8934257 0.5510416 1.7006065
1.414179 0.57190531 1.3688442
1.5546427 0.56294245 1.4470788
1.7274944 0.55850214 1.5447953
1.9315612 0.55273354 1.6539073
1.4456528 0.57329679 1.3402704
1.5849628 0.56348234 1.4105084
1.7596834 0.55916154 1.5011897
1.9676223 0.55450505 1.6032469
1.4750897 0.57473159 1.3097348
1.6163057 0.56500047 1.3749371
1.7949544 0.56173736 1.4615625
1.9986615 0.55531275 1.5516629
1.4953814 0.57232612 1.2722988
1.643589 0.56558734 1.3364238
1.827166 0.56337851 1.4189748
2.0286598 0.5551604 1.4980803
1.5258178 0.57375729 1.2417444
1.6769502 0.5670802 1.3018146
1.8552954 0.56310672 1.3724273
2.0607028 0.55696434 1.4464955
1.5572808 0.5771665 1.2122071
1.7021965 0.56771046 1.2613393
1.8854699 0.56479114 1.3278778
2.0937495 0.5597645 1.39491
1.5775764 0.57576078 1.1747888
1.7284614 0.56831902 1.2218453
1.9126263 0.56650454 1.282385
2.1227744 0.56159729 1.342382
1.6059945 0.57721728 1.1432724
1.7587897 0.57085872 1.185311
1.93876 0.56723976 1.2358932
2.1477399 0.56249893 1.2869121
1.6323757 0.57871717 1.1097944
1.7830361 0.57149249 1.1448549
1.9648978 0.56897485 1.1894195
2.1727281 0.5643822 1.2324598
1.6506342 0.57735479 1.0704145
1.8072865 0.57312614 1.1044166
1.9920354 0.57070625 1.1429271
2.1946754 0.56531262 1.1760466
1.6749781 0.57889801 1.0349747
1.833518 0.57477075 1.0629411
2.0151548 0.57247013 1.0955099
2.2226856 0.56816697 1.1225557
1.7013594 0.5803979 1.0014966
1.8557273 0.57544792 1.0205232
2.0372334 0.5732739 1.0460942
2.2426372 0.57010448 1.0661981
1.7206255 0.58103162 0.96213394
1.8779407 0.57712501 0.97812331
2.0613565 0.57603407 0.99867654
2.2645884 0.57203472 1.0098029
1.7419287 0.58162194 0.92473304
1.8981318 0.57782745 0.93474329
2.0824389 0.57784128 0.94929779
2.2795036 0.57402623 0.95153993
1.7642543 0.58319044 0.88833117
1.914301 0.57756257 0.89042073
2.0994997 0.57868111 0.89897645
2.295433 0.57499635 0.89423984
1.7865614 0.584777 0.8509295
1.9405402 0.58120674 0.84898138
2.1155457 0.5805425 0.84769231
2.2992826 0.5740822 0.83313054
1.8048278 0.58541429 0.81158572
1.9587356 0.5829162 0.80565691
2.1275659 0.58043665 0.79544771
2.3212643 0.57899386 0.777789
1.8271198 0.58801877 0.77320242
1.9698457 0.58172363 0.75841129
2.1426122 0.58230162 0.74418235
2.3331947 0.57997823 0.72056407
1.8403418 0.58671057 0.7319172
1.9870076 0.58447272 0.71312439
2.1526363 0.58320272 0.69199324
2.342092 0.58200943 0.66141421
1.8595933 0.58836216 0.6915729
2.0011437 0.58525097 0.6668582
2.1656787 0.58407497 0.64074749
2.3500121 0.58502597 0.60330075
1.8728231 0.58905351 0.65032387
2.0132799 0.58603644 0.62062943
2.176707 0.58597249 0.5885576
2.3518844 0.58510065 0.54324669
1.8950964 0.59167618 0.61094087
2.0324605 0.58876026 0.57630455
2.1887577 0.58884799 0.53736663
2.3598049 0.5881173 0.48513329
1.9062892 0.59241092 0.56773001
2.0345345 0.58763623 0.52722883
2.1917419 0.58881062 0.4832918
2.3637218 0.59014827 0.42707703
1.9195002 0.5931204 0.52548116
2.0426528 0.58845407 0.48007557
2.1957674 0.58973336 0.43121544
2.3676431 0.59317911 0.36903876
1.9327114 0.59382993 0.48323229
2.0618186 0.59219575 0.43476909
2.1987746 0.59067768 0.37815824
2.3575132 0.59229714 0.30919218
1.9419044 0.59457189 0.44005898
2.0689185 0.59303534 0.38663504
2.2037849 0.59261471 0.3250815
2.3614533 0.59530991 0.25215358
1.9581228 0.59727025 0.39778984
2.0770218 0.59487116 0.3385002
2.208818 0.59553343 0.27302241
2.3563721 0.59737331 0.19426639
1.9652938 0.59703761 0.35363638
1.2051121 0.3229098 0.19085515
1.2272211 0.30762592 0.14614958
2.3432992 0.59644777 0.13747516
1.1824747 0.33770037 0.20755218
1.0792062 0.28310707 0.1514791
1.219653 0.30619404 0.11625524
2.3452659 0.60144937 0.081509843
1.0665522 0.29887962 0.16700658
1.0797193 0.28357378 0.12546912
2.2169113 0.60231519 0.11694065
2.3402033 0.60349458 0.02462234
1.0360051 0.28747773 0.14036323
1.0882801 0.28697509 0.10136219
2.1949031 0.59835011 0.064263135
2.3271756 0.60453254 -0.03013353
1.053591 0.29282835 0.11712289
1.0897968 0.28843805 0.075351447
2.2029662 0.60423952 0.013201389
2.3091078 0.60462481 -0.086812787
1.0541413 0.29325891 0.09311223
1.0883064 0.2879121 0.049361028
2.1919863 0.60321635 -0.038629107
2.2771013 0.60069567 -0.1393024
1.0376527 0.28776956 0.068313241
0.96574879 0.25077251 0.027976561
2.1860178 0.60517478 -0.09049952
-0.02611593 -0.059798401 0.050936799
0.96912545 0.26545167 0.045184705
1.0893776 0.29080907 -0.00062357634
-0.02611593 -0.059798401 0.050936799
0.99863183 0.23963885 -0.082878061
0.8896594 0.23910153 0.026189439
1.0749152 0.28729412 -0.024424445
1.0650115 0.27214316 -0.069528371
1.0051595 0.2440834 -0.1089287
0.90726781 0.2454339 0.0039667748
1.0614338 0.28379369 -0.049243771
0.97364515 0.2467455 -0.083281837
1.0705637 0.26749381 -0.14574227
0.89788318 0.24282847 -0.015911385
1.052982 0.28325668 -0.073103324
0.9532547 0.2421799 -0.10298934
1.0620782 0.26799282 -0.17158312
1.0354208 0.28892234 -0.050664444
0.97061801 0.25882658 -0.08700788
1.0406263 0.27256447 -0.14308915
0.98084223 0.24744992 -0.17943643
1.049951 0.29433796 -0.076847397
0.92425311 0.24530156 -0.10339002
1.0481203 0.27804136 -0.17113988
0.9554714 0.24288417 -0.19805032
0.95262218 0.26390842 -0.087579221
0.93782473 0.25168446 -0.12753683
0.98383659 0.26049119 -0.18225753
0.93210816 0.24031092 -0.21666574
0.88431954 0.24137343 -0.098711818
1.0570838 0.29309699 -0.17603703
0.92958552 0.24688636 -0.19249138
0.93365538 0.2447553 -0.24162279
0.891922 0.24574201 -0.12078261
0.97186625 0.26753309 -0.18190593
0.91420591 0.24530229 -0.21223879
0.93319911 0.248207 -0.26656029
1.0261605 0.29213604 -0.17147389
0.90863466 0.24892522 -0.19006144
0.90082598 0.2437111 -0.23202376
0.20864157 0.01678881 -0.032101247
0.95789927 0.27056476 -0.18058914
0.89527345 0.2473159 -0.20884673
0.90437686 0.24914812 -0.25700039
0.19459099 0.012875918 -0.033909582
0.89767104 0.25294596 -0.18878299
0.8908475 0.24874614 -0.23174576
0.20466495 0.017784916 -0.031008407
-0.02611593 -0.059798401 0.050936799
0.8713488 0.24632986 -0.20441514
0.91530573 0.26021528 -0.26300681
0.19958703 0.016875379 -0.034931112
0.16656862 0.0059775934 -0.033509575
0.88189834 0.25174177 -0.22952327
0.21659271 0.023831271 -0.036124092
-0.02611593 -0.059798401 0.050936799
-0.02611593 -0.059798401 0.050936799
0.90635651 0.26321092 -0.26078433
0.19659153 0.017885983 -0.034856722
0.17254186 0.0089917369 -0.035567585
0.14354926 6.1165541e-05 -0.033185504
0.21062733 0.022816794 -0.034030043
-0.02611593 -0.059798401 0.050936799
-0.02611593 -0.059798401 0.050936799
-0.02611593 -0.059798401 0.050936799
0.18864132 0.015860766 -0.031743456
0.17453061 0.011002302 -0.036568794
0.14950375 0.0030933875 -0.036243178
0.12751774 -0.0038626455 -0.03395658
-0.02611593 -0.059798401 0.050936799
-0.02611593 -0.059798401 0.050936799
-0.02611593 -0.059798401 0.050936799
-0.02611593 -0.059798401 0.050936799
0.16359574 0.0079699401 -0.032417499
0.15347736 0.0061146943 -0.038263604
0.124537 -0.003869968 -0.032900557
0.10952405 -0.0078154532 -0.032690775
-0.02611593 -0.059798401 0.050936799
-0.02611593 -0.059798401 0.050936799
-0.02611593 -0.059798401 0.050936799
-0.02611593 -0.059798401 0.050936799
0.14057244 0.00105367 -0.032111447
0.12850669 -0.0018484839 -0.034938999
0.11447482 -0.0057794689 -0.035747677
0.09651465 -0.010768285 -0.032500554
-0.02611593 -0.059798401 0.050936799
-0.02611593 -0.059798401 0.050936799
-0.02611593 -0.059798401 0.050936799
-0.02611593 -0.059798401 0.050936799
0.12157501 -0.0038953791 -0.03084486
0.11447875 -0.0047796383 -0.035729658
0.10146541 -0.0087323012 -0.035557453
0.083505243 -0.013721118 -0.032310329
-0.02611593 -0.059798401 0.050936799
-0.02611593 -0.059798401 0.050936799
-0.02611593 -0.059798401 0.050936799
-0.02611593 -0.059798401 0.050936799
0.10754314 -0.0078263646 -0.031653523
0.10245045 -0.0077179745 -0.036557883
0.090422131 -0.010656307 -0.037386116
0.071533106 -0.016713722 -0.030139573
-0.02611593 -0.059798401 0.050936799
-0.02611593 -0.059798401 0.050936799
-0.02611593 -0.059798401 0.050936799
-0.02611593 -0.059798401 0.050936799
0.094529808 -0.011779027 -0.031481322
0.087470993 -0.012699468 -0.034366794
0.079431087 -0.013634406 -0.036233813
0.066477843 -0.016641509 -0.033044599
-0.02611593 -0.059798401 0.050936799
-0.02611593 -0.059798401 0.050936799
-0.02611593 -0.059798401 0.050936799
-0.02611593 -0.059798401 0.050936799
0.081535198 -0.015749779 -0.030309461
0.07844606 -0.01464874 -0.035233382
0.072390996 -0.014572939 -0.038119618
0.057471637 -0.018608872 -0.03291152
-0.02611593 -0.059798401 0.050936799
-0.02611593 -0.059798401 0.050936799
-0.02611593 -0.059798401 0.050936799
-0.02611593 -0.059798401 0.050936799
0.072510272 -0.017699052 -0.031176042
0.070406154 -0.015583678 -0.037100397
0.063384786 -0.016540296 -0.037986536
0.046518043 -0.021623148 -0.029759903
-0.02611593 -0.059798401 0.050936799
-0.02611593 -0.059798401 0.050936799
-0.02611593 -0.059798401 0.050936799
-0.02611593 -0.059798401 0.050936799
0.061537944 -0.020695243 -0.029024083
0.061418664 -0.017569128 -0.035967655
0.054397296 -0.018525748 -0.036853801
0.042481326 -0.021572614 -0.031684063
-0.02611593 -0.059798401 0.050936799
-0.02611593 -0.059798401 0.050936799
-0.02611593 -0.059798401 0.050936799
-0.02611593 -0.059798401 0.050936799
0.052550457 -0.022680691 -0.027891345
0.051427443 -0.020550821 -0.03483415
0.04639091 -0.020496698 -0.036739517
0.036459778 -0.022532821 -0.032588992
-0.02611593 -0.059798401 0.050936799
-0.02611593 -0.059798401 0.050936799
-0.02611593 -0.059798401 0.050936799
-0.02611593 -0.059798401 0.050936799
0.046510186 -0.023622809 -0.029795941
0.045424607 -0.021529112 -0.03473942
0.038425889 -0.021503992 -0.034607887
0.030475663 -0.023529207 -0.031494617
-0.02611593 -0.059798401 0.050936799
-0.02611593 -0.059798401 0.050936799
-0.02611593 -0.059798401 0.050936799
-0.02611593 -0.059798401 0.050936799
0.039522327 -0.025615433 -0.028700784
0.037455663 -0.023536243 -0.032625802
0.034370452 -0.021435369 -0.037531704
0.026438955 -0.023478674 -0.033418775
-0.02611593 -0.059798401 0.050936799
-0.02611593 -0.059798401 0.050936799
-0.02611593 -0.059798401 0.050936799
-0.02611593 -0.059798401 0.050936799
0.034500595 -0.026579231 -0.029624507
0.033400226 -0.023467619 -0.035549633
0.028386347 -0.022431755 -0.036437321
0.020440049 -0.023457142 -0.033306029
-0.02611593 -0.059798401 0.050936799
-0.02611593 -0.059798401 0.050936799
-0.02611593 -0.059798401 0.050936799
-0.02611593 -0.059798401 0.050936799
0.029464064 -0.026525108 -0.031529881
0.027359949 -0.024409734 -0.037454229
0.023349814 -0.022377633 -0.038342692
0.016403336 -0.023406606 -0.035230193
-0.02611593 -0.059798401 0.050936799
-0.02611593 -0.059798401 0.050936799
-0.02611593 -0.059798401 0.050936799
-0.02611593 -0.059798401 0.050936799
0.024442332 -0.027488906 -0.032453597
0.019461965 -0.027489049 -0.031359993
0.017380508 -0.024391934 -0.036266662
-0.02611593 -0.059798401 0.050936799
-0.02611593 -0.059798401 0.050936799
