# .PCD v0.7 - Point Cloud Data file format
VERSION 0.7
FIELDS x y z
SIZE 4 4 4
TYPE F F F
COUNT 1 1 1
WIDTH 1382
HEIGHT 1
VIEWPOINT 0 0 0 1 0 0 0
POINTS 1382
DATA ascii
0.42182204 0.60965544 0.76690269
0.44685429 0.60555679 0.82237864
0.47595382 0.60438907 0.88083255
0.50599998 0.59925461 0.9371962
0.43769199 0.61072451 0.75962234
0.46366397 0.60567671 0.81206256
0.49265808 0.60159993 0.86546403
0.52779794 0.60137433 0.92582256
0.45147952 0.60987341 0.74834502
0.47738752 0.60288024 0.79775023
0.5125165 0.60467237 0.85714501
0.54756951 0.60151958 0.91345078
0.46324086 0.60704792 0.7360695
0.49628741 0.60691988 0.79146725
0.52820218 0.60190487 0.8407957
0.567285 0.6017192 0.89808011
0.48014113 0.61109477 0.72982419
0.51205981 0.60707951 0.77917069
0.54600078 0.60403889 0.82949728
0.58495557 0.59996241 0.88071156
0.49292892 0.61024725 0.71856564
0.52476096 0.60330492 0.76385945
0.56375408 0.60420948 0.81616348
0.60471249 0.6011256 0.86735815
0.50466758 0.60644001 0.7052725
0.5395335 0.60346812 0.75158161
0.5804888 0.60440171 0.80184877
0.62034601 0.5994122 0.84802788
0.52156788 0.61048687 0.69902718
0.55839592 0.60754395 0.74329937
0.59417498 0.60164142 0.78553706
0.63699806 0.59767717 0.82967854
0.53435951 0.61063921 0.68778658
0.57110089 0.60476923 0.72800612
0.60989124 0.60185534 0.7702415
0.65778518 0.6018182 0.8173601
0.54817367 0.61176968 0.67754495
0.58689988 0.60691035 0.71674532
0.62560737 0.6020692 0.75494593
0.67344135 0.6010865 0.79904753
0.56403267 0.61485642 0.66930103
0.59858638 0.60415727 0.70047116
0.64336854 0.60423946 0.74164814
0.6921649 0.60328937 0.78373164
0.57475686 0.61207074 0.65504503
0.61438531 0.60629845 0.68921024
0.65910745 0.60543507 0.72737026
0.70373899 0.60064471 0.76145959
0.58752978 0.61224115 0.64280486
0.63119197 0.61043584 0.67796659
0.67280531 0.60567427 0.71111268
0.71939909 0.60091287 0.74316502
0.6003027 0.61241156 0.63056463
0.64492732 0.6106388 0.66370827
0.69055176 0.6088624 0.69683319
0.73913026 0.60511178 0.72786635
0.61307961 0.61358178 0.6183424
0.65766281 0.61084539 0.64946872
0.70118219 0.60616714 0.67757887
0.74970067 0.60147095 0.70559502
0.62178141 0.60982144 0.60310632
0.6714021 0.61204821 0.63522846
0.7148574 0.60542458 0.66030353
0.76334238 0.60176438 0.68633837
0.63253599 0.61001712 0.58990401
0.68209261 0.61029851 0.6189912
0.72956294 0.60765982 0.64406317
0.78001404 0.60502851 0.66807914
0.64633536 0.61216557 0.57868075
0.69481331 0.61152303 0.60377002
0.74022001 0.60694611 0.62584454
0.79365575 0.60532194 0.64882249
0.6590935 0.61335391 0.56545889
0.70753407 0.61274749 0.58854878
0.74983591 0.60527229 0.60562736
0.80221564 0.603706 0.62562513
0.66780311 0.61159325 0.55025882
0.71923232 0.6129939 0.57232875
0.76352292 0.60752928 0.58840615
0.81484276 0.60502094 0.60540569
0.6815877 0.61475956 0.53805387
0.72485578 0.60831684 0.55313236
0.77113128 0.603863 0.56819046
0.82544357 0.60436153 0.5841881
0.68724871 0.61004639 0.5208568
0.73960668 0.61251563 0.53892732
0.78582591 0.60811603 0.55098647
0.83502597 0.60372376 0.56198961
0.69900697 0.6112383 0.50765377
0.74928266 0.61178738 0.52172714
0.79141599 0.60447502 0.52980876
0.84258991 0.60311127 0.53882903
0.7117691 0.61342657 0.49444988
0.75491005 0.60811025 0.50254875
0.80205822 0.60477924 0.51060849
0.85321736 0.60443342 0.51864713
0.72048265 0.61266571 0.47926787
0.76356751 0.6074037 0.48436773
0.81170464 0.60608691 0.49144506
0.86685216 0.60774446 0.49844491
0.73122638 0.61487919 0.46510196
0.77224368 0.60667908 0.46718636
0.8233732 0.60836911 0.47326171
0.87341636 0.60713553 0.47530311
0.73789501 0.61216199 0.44792211
0.78092766 0.60795408 0.45004103
0.83302349 0.61067653 0.45411628
0.88200665 0.60850108 0.45315951
0.74356782 0.61044836 0.4307791
0.79161519 0.61022186 0.43287614
0.8396399 0.60901362 0.43395549
0.8895973 0.60987014 0.43103465
0.75431156 0.61266178 0.41661316
0.80027652 0.61051512 0.41471311
0.84624547 0.60936832 0.41283107
0.89313543 0.60729039 0.40691358
0.76098412 0.61094451 0.39945138
0.80695695 0.61079752 0.39758736
0.85286969 0.60970503 0.39270627
0.90174848 0.60963762 0.38578764
0.7697016 0.61118352 0.38428733
0.81359601 0.6101163 0.37844422
0.86152017 0.61201602 0.37357965
0.90631688 0.61003578 0.36270145
0.77738184 0.61146235 0.36714277
0.82025772 0.61041677 0.36031881
0.86105126 0.60745096 0.34949771
0.90988165 0.60943758 0.33961609
0.78811085 0.6146937 0.3519952
0.82892698 0.61270964 0.34219182
0.87070543 0.61075836 0.33037031
0.91950625 0.61478072 0.31852537
0.79478735 0.61397624 0.33485141
0.83556986 0.61302823 0.32306671
0.87431151 0.61112386 0.30930227
0.91802651 0.61223704 0.29349858
0.80551624 0.61720759 0.31970388
0.84323537 0.61432493 0.30494049
0.87993598 0.61146402 0.28919628
0.92562503 0.61560583 0.27140975
0.81119686 0.61749363 0.30259687
0.84585643 0.61367619 0.28487292
0.88253838 0.61083335 0.26812902
0.92619026 0.61501837 0.24838075
0.81585503 0.61680144 0.28449103
0.85252208 0.61497647 0.26676548
0.88815188 0.61319137 0.24705943
0.74061573 0.48375064 0.1914614
0.82151693 0.61710554 0.26638436
0.85614693 0.61532384 0.2466971
0.68242365 0.46107119 0.18613887
0.58838749 0.37510714 0.14833167
0.82619381 0.61639524 0.24927819
0.73594916 0.52058136 0.20221867
0.5774771 0.38309097 0.15168148
0.57803965 0.36745191 0.13138118
0.82481474 0.61074352 0.23019528
0.57863724 0.39999402 0.15696731
0.57518476 0.38037002 0.1366701
-0.02611593 -0.059798401 0.050936799
0.56978267 0.40791649 0.16327855
0.56831902 0.39030296 0.14198011
0.5628708 0.37168595 0.12173851
0.56444889 0.3600426 0.10149148
0.56247163 0.40021425 0.14827102
0.56002688 0.38258633 0.12799105
0.55458272 0.3649691 0.10776743
0.55013132 0.35036585 0.086579442
0.54914224 0.3875345 0.13328615
0.55071628 0.37489131 0.11302109
0.54627973 0.35927013 0.092814744
0.54886943 0.35062268 0.07260298
0.54186857 0.37979609 0.12027793
0.54445046 0.36914903 0.10003014
0.54102546 0.35652375 0.079859048
0.54862994 0.35185769 0.059625402
0.54063636 0.37801716 0.10826474
0.54621053 0.3703768 0.087014973
0.54780042 0.36173296 0.066822007
0.56644219 0.36702567 0.04656186
0.56148541 0.3931382 0.097144157
0.54498219 0.36959767 0.075019822
0.5485608 0.36296436 0.053825643
-0.02611593 -0.059798401 0.050936799
0.55822682 0.38938478 0.08413285
0.56681639 0.38573304 0.062898785
0.56538403 0.37611821 0.041744508
-0.02611593 -0.059798401 0.050936799
0.56301308 0.39258343 0.072097026
0.57760233 0.39392737 0.049840644
0.58217382 0.39030805 0.027682072
0.58870059 0.38973537 0.0025409907
0.5908618 0.41269657 0.059935331
0.60945129 0.41904342 0.036694217
0.58991903 0.39754948 0.012662958
0.59444219 0.39598408 -0.012458555
0.62272561 0.43679476 0.047770541
0.62722212 0.4332478 0.021613328
0.5816614 0.39381406 -0.00025438145
0.5681594 0.38029724 -0.024254225
0.62647051 0.4390333 0.033736162
0.61992288 0.42854512 0.0066598505
0.58140713 0.39606693 -0.014213599
-0.02611593 -0.059798401 0.050936799
0.63120455 0.44328597 0.01871937
0.6036393 0.41783953 -0.0062332973
0.58213782 0.39933419 -0.029173248
0.58663923 0.40180433 -0.056222014
0.61992776 0.43456218 0.0057683028
0.59838498 0.41509315 -0.019188993
0.57189143 0.39358813 -0.041089397
-0.02611593 -0.059798401 0.050936799
0.62165451 0.43682596 -0.009228155
0.58111632 0.40337324 -0.03108171
0.56263399 0.38985628 -0.053987939
0.59310478 0.4143379 -0.087126836
0.59637839 0.41811791 -0.020097025
0.5798583 0.40462995 -0.04504016
0.58037919 0.40709633 -0.071014099
0.83940637 0.61079282 -0.16421071
0.58412063 0.40937954 -0.032029629
0.57262307 0.40187266 -0.056958608
0.5871098 0.41535929 -0.086996071
0.85499132 0.63020253 -0.1901602
0.57487011 0.40263012 -0.043982577
0.58235705 0.41112462 -0.072978929
0.80945355 0.59279507 -0.15797335
0.8406412 0.62657905 -0.20796308
0.56061262 0.39389896 -0.055877611
0.59307998 0.42239082 -0.089981653
0.85099596 0.6312167 -0.19006702
0.83327591 0.62896556 -0.22778878
0.57536137 0.40713236 -0.071919799
0.79945844 0.58881354 -0.15685785
0.83764565 0.62758958 -0.20788869
0.20907059 0.13078752 -0.0310468
0.59907979 0.42738652 -0.091003977
0.84600776 0.62921691 -0.18900943
0.83128017 0.62997264 -0.22773317
0.19700393 0.12286811 -0.032964781
0.81144625 0.59580541 -0.15895656
0.842623 0.63160712 -0.20990989
0.20608202 0.12878053 -0.030026808
-0.02611593 -0.059798401 0.050936799
0.84701848 0.62719554 -0.1880646
0.83328372 0.63096523 -0.22775273
0.19102675 0.11885417 -0.030924797
0.16494602 0.10196845 -0.031742219
0.84164101 0.62657547 -0.20798188
0.20608202 0.12878053 -0.030026808
-0.02611593 -0.059798401 0.050936799
-0.02611593 -0.059798401 0.050936799
0.82830149 0.62093067 -0.22483999
0.1900378 0.11683999 -0.029942378
0.16197224 0.098943554 -0.029740579
0.13992128 0.085024886 -0.029579446
0.2010968 0.12276331 -0.028041646
-0.02611593 -0.059798401 0.050936799
-0.02611593 -0.059798401 0.050936799
-0.02611593 -0.059798401 0.050936799
0.19103369 0.11583658 -0.029979192
0.16694567 0.10196128 -0.0317798
0.14688346 0.090053186 -0.032619864
0.1198926 0.072080784 -0.028438214
-0.02611593 -0.059798401 0.050936799
-0.02611593 -0.059798401 0.050936799
-0.02611593 -0.059798401 0.050936799
-0.02611593 -0.059798401 0.050936799
0.16197523 0.094926141 -0.028812993
0.14886439 0.090064101 -0.033657111
0.12883961 0.078119814 -0.032497853
0.10485999 0.063136145 -0.028318521
-0.02611593 -0.059798401 0.050936799
-0.02611593 -0.059798401 0.050936799
-0.02611593 -0.059798401 0.050936799
-0.02611593 -0.059798401 0.050936799
0.14290501 0.081014797 -0.02970789
0.12983158 0.076116569 -0.032552686
0.11179952 0.067182697 -0.032376621
0.092815973 0.0561985 -0.029218826
-0.02611593 -0.059798401 0.050936799
-0.02611593 -0.059798401 0.050936799
-0.02611593 -0.059798401 0.050936799
-0.02611593 -0.059798401 0.050936799
0.12388007 0.069066942 -0.028567433
0.11676902 0.069200598 -0.034433872
0.096781723 0.057220142 -0.031275295
0.080790684 0.049242757 -0.029119469
-0.02611593 -0.059798401 0.050936799
-0.02611593 -0.059798401 0.050936799
-0.02611593 -0.059798401 0.050936799
-0.02611593 -0.059798401 0.050936799
0.10883963 0.05812265 -0.028483778
0.10273623 0.060252376 -0.034332968
-0.02611593 -0.059798401 0.050936799
0.068798892 0.041251007 -0.027038813
-0.02611593 -0.059798401 0.050936799
-0.02611593 -0.059798401 0.050936799
-0.02611593 -0.059798401 0.050936799
-0.02611593 -0.059798401 0.050936799
0.093821816 0.048160095 -0.027382445
0.087737158 0.050271727 -0.032231964
0.07573843 0.045297559 -0.031096917
0.059799626 0.036266066 -0.025960121
-0.02611593 -0.059798401 0.050936799
-0.02611593 -0.059798401 0.050936799
-0.02611593 -0.059798401 0.050936799
-0.02611593 -0.059798401 0.050936799
0.081811309 0.040186424 -0.02630144
0.079685457 0.046337292 -0.034153044
0.06670171 0.040348794 -0.032017544
0.052770399 0.033309788 -0.026882309
-0.02611593 -0.059798401 0.050936799
-0.02611593 -0.059798401 0.050936799
-0.02611593 -0.059798401 0.050936799
-0.02611593 -0.059798401 0.050936799
0.072774597 0.03523767 -0.027222086
0.067693681 0.038345553 -0.032072373
0.057702448 0.03536386 -0.030938871
0.046741001 0.030349925 -0.027823284
-0.02611593 -0.059798401 0.050936799
-0.02611593 -0.059798401 0.050936799
-0.02611593 -0.059798401 0.050936799
-0.02611593 -0.059798401 0.050936799
0.061767846 0.028260244 -0.026141848
0.059679434 0.034374941 -0.031994123
0.049688205 0.031393256 -0.030860621
0.039730489 0.027375555 -0.027745802
-0.02611593 -0.059798401 0.050936799
-0.02611593 -0.059798401 0.050936799
-0.02611593 -0.059798401 0.050936799
-0.02611593 -0.059798401 0.050936799
0.055742361 0.026300212 -0.027064811
0.049691215 0.027375843 -0.029933028
0.043662727 0.029433209 -0.031783566
0.031768486 0.022350846 -0.024686586
-0.02611593 -0.059798401 0.050936799
-0.02611593 -0.059798401 0.050936799
-0.02611593 -0.059798401 0.050936799
-0.02611593 -0.059798401 0.050936799
0.049712956 0.023340344 -0.028005783
0.045654502 0.027426377 -0.031857185
0.039607286 0.029501831 -0.034707397
0.027731771 0.022401379 -0.026610751
-0.02611593 -0.059798401 0.050936799
-0.02611593 -0.059798401 0.050936799
-0.02611593 -0.059798401 0.050936799
-0.02611593 -0.059798401 0.050936799
0.040728487 0.017337482 -0.025945451
0.037655052 0.022437846 -0.030797299
0.033615332 0.026505791 -0.03364905
0.014903838 0.0082333516 -0.014622796
-0.02611593 -0.059798401 0.050936799
-0.02611593 -0.059798401 0.050936799
-0.02611593 -0.059798401 0.050936799
-0.02611593 -0.059798401 0.050936799
0.034703001 0.01537745 -0.026868414
0.03166309 0.019441806 -0.029738948
0.024683096 0.019448839 -0.028607756
0.016751595 0.017405527 -0.024494819
-0.02611593 -0.059798401 0.050936799
-0.02611593 -0.059798401 0.050936799
-0.02611593 -0.059798401 0.050936799
-0.02611593 -0.059798401 0.050936799
0.027726015 0.011367071 -0.024809629
0.027607653 0.019510429 -0.032662772
0.02064638 0.019499373 -0.030531917
0.012714879 0.01745606 -0.026418984
-0.02611593 -0.059798401 0.050936799
-0.02611593 -0.059798401 0.050936799
-0.02611593 -0.059798401 0.050936799
-0.02611593 -0.059798401 0.050936799
0.023685373 0.010417774 -0.026751809
0.021600896 0.017532295 -0.03258606
0.014654419 0.016503327 -0.029473562
0.0077601811 0.014420252 -0.023380104
-0.02611593 -0.059798401 0.050936799
-0.02611593 -0.059798401 0.050936799
-0.02611593 -0.059798401 0.050936799
-0.02611593 -0.059798401 0.050936799
0.019663453 0.0094503956 -0.027694326
0.017578984 0.016564915 -0.033528585
0.0096662026 0.01450352 -0.028415989
0.0046936958 0.016503038 -0.02728634
-0.02611593 -0.059798401 0.050936799
-0.02611593 -0.059798401 0.050936799
-0.02611593 -0.059798401 0.050936799
-0.02611593 -0.059798401 0.050936799
0.014656516 0.007468679 -0.027636409
0.012575965 0.015583029 -0.033452652
0.0066480292 0.014532376 -0.029359277
-0.02611593 -0.059798401 0.050936799
-0.02611593 -0.059798401 0.050936799
-0.02611593 -0.059798401 0.050936799
-0.02611593 -0.059798401 0.050936799
-0.02611593 -0.059798401 0.050936799
0.0096830949 0.0044509536 -0.025597189
0.0066175251 0.011550973 -0.030412998
0.0026300359 0.014564821 -0.030283779
-0.0033087698 0.015531917 -0.027154032
-0.02611593 -0.059798401 0.050936799
-0.02611593 -0.059798401 0.050936799
-0.02611593 -0.059798401 0.050936799
-0.02611593 -0.059798401 0.050936799
0.0056463792 0.0045014876 -0.027521353
0.0025808094 0.011601507 -0.032337151
-0.0013879533 0.014597265 -0.031208269
-0.0063565341 0.017596606 -0.030060608
-0.02611593 -0.059798401 0.050936799
-0.02611593 -0.059798401 0.050936799
-0.02611593 -0.059798401 0.050936799
-0.02611593 -0.059798401 0.050936799
0.0016283881 0.0045339321 -0.028445847
-0.00043736224 0.011630363 -0.033280447
-0.004450514 0.017679872 -0.035096493
-0.011266846 0.011507039 -0.024076797
-0.02611593 -0.059798401 0.050936799
-0.02611593 -0.059798401 0.050936799
-0.02611593 -0.059798401 0.050936799
-0.02611593 -0.059798401 0.050936799
-0.002360011 0.0025305375 -0.027407061
-0.0054255826 0.0096305646 -0.032222867
-0.0094052134 0.014644066 -0.032057613
-0.014325479 0.015589485 -0.027946997
-0.02611593 -0.059798401 0.050936799
-0.02611593 -0.059798401 0.050936799
-0.02611593 -0.059798401 0.050936799
-0.02611593 -0.059798401 0.050936799
-0.0073630256 0.0015486514 -0.027331129
-0.0094396453 0.010662832 -0.033129353
-0.012452976 0.01670876 -0.034964189
-0.018324748 0.01560384 -0.027871832
-0.02611593 -0.059798401 0.050936799
-0.02611593 -0.059798401 0.050936799
-0.02611593 -0.059798401 0.050936799
-0.02611593 -0.059798401 0.050936799
-0.02611593 -0.059798401 0.050936799
-0.013457635 0.010695277 -0.034053851
-0.017422471 0.014690866 -0.032906953
-0.022260908 0.012546347 -0.02385208
-0.02611593 -0.059798401 0.050936799
-0.02611593 -0.059798401 0.050936799
-0.02611593 -0.059798401 0.050936799
-0.02611593 -0.059798401 0.050936799
-0.02611593 -0.059798401 0.050936799
-0.017442111 0.0096917199 -0.032997046
-0.02045151 0.016737472 -0.034813862
-0.025293877 0.013593123 -0.025777016
-0.02611593 -0.059798401 0.050936799
-0.02611593 -0.059798401 0.050936799
-0.02611593 -0.059798401 0.050936799
-0.02611593 -0.059798401 0.050936799
-0.018398456 0.0016243075 -0.02912375
-0.021470966 0.011741908 -0.034885164
-0.024435986 0.015733909 -0.033757061
-0.027337894 0.016654059 -0.028684359
-0.02611593 -0.059798401 0.050936799
-0.02611593 -0.059798401 0.050936799
-0.02611593 -0.059798401 0.050936799
-0.02611593 -0.059798401 0.050936799
-0.02611593 -0.059798401 0.050936799
-0.025470234 0.011756264 -0.034810003
-0.02745023 0.016762594 -0.03468233
-0.031318441 0.016650327 -0.027609538
-0.02611593 -0.059798401 0.050936799
-0.02611593 -0.059798401 0.050936799
-0.02611593 -0.059798401 0.050936799
-0.02611593 -0.059798401 0.050936799
-0.02611593 -0.059798401 0.050936799
-0.028376989 0.0066593424 -0.028845754
-0.031445574 0.017776772 -0.034589149
-0.034299169 0.016643004 -0.026553508
-0.02611593 -0.059798401 0.050936799
-0.02611593 -0.059798401 0.050936799
-0.02611593 -0.059798401 0.050936799
-0.02611593 -0.059798401 0.050936799
-0.02611593 -0.059798401 0.050936799
-0.032450229 0.011763297 -0.033678811
-0.035426117 0.01777304 -0.033514328
-0.038298436 0.01665736 -0.026478343
-0.02611593 -0.059798401 0.050936799
-0.02611593 -0.059798401 0.050936799
-0.02611593 -0.059798401 0.050936799
-0.02611593 -0.059798401 0.050936799
-0.02611593 -0.059798401 0.050936799
-0.036449499 0.011777652 -0.03360365
-0.039410587 0.016769484 -0.032457523
-0.04129396 0.017667951 -0.026403952
-0.02611593 -0.059798401 0.050936799
-0.02611593 -0.059798401 0.050936799
-0.02611593 -0.059798401 0.050936799
-0.02611593 -0.059798401 0.050936799
-0.037420642 0.0047281673 -0.030711997
-0.040430043 0.011773919 -0.032528825
-0.043435525 0.019819509 -0.034327626
-0.045285374 0.019681975 -0.026292756
-0.02611593 -0.059798401 0.050936799
-0.02611593 -0.059798401 0.050936799
-0.02611593 -0.059798401 0.050936799
-0.02611593 -0.059798401 0.050936799
-0.041401189 0.0047244336 -0.02963718
-0.044440184 0.013806025 -0.033417284
-0.047416065 0.019815776 -0.033252805
-0.048251305 0.018656733 -0.024255075
-0.02611593 -0.059798401 0.050936799
-0.02611593 -0.059798401 0.050936799
-0.02611593 -0.059798401 0.050936799
-0.02611593 -0.059798401 0.050936799
-0.045415249 0.0057567088 -0.030543651
-0.048420724 0.013802292 -0.032342464
-0.051392686 0.020811874 -0.032159965
-0.052276239 0.021706752 -0.026125185
-0.02611593 -0.059798401 0.050936799
-0.02611593 -0.059798401 0.050936799
-0.02611593 -0.059798401 0.050936799
-0.02611593 -0.059798401 0.050936799
-0.048362464 0.0047133779 -0.027506322
-0.052401271 0.013798558 -0.031267636
-0.054373413 0.02080455 -0.031103928
-0.051094949 0.010487963 -0.014346246
-0.02611593 -0.059798401 0.050936799
-0.02611593 -0.059798401 0.050936799
-0.02611593 -0.059798401 0.050936799
-0.02611593 -0.059798401 0.050936799
-0.052343007 0.0047096447 -0.026431501
-0.057436887 0.018869923 -0.034082577
-0.059398163 0.023858158 -0.03295524
-0.02611593 -0.059798401 0.050936799
-0.02611593 -0.059798401 0.050936799
-0.02611593 -0.059798401 0.050936799
-0.02611593 -0.059798401 0.050936799
-0.02611593 -0.059798401 0.050936799
-0.05735296 0.0067453319 -0.02730117
-0.062465563 0.020923706 -0.035951912
-0.064389393 0.025875764 -0.032825254
-0.02611593 -0.059798401 0.050936799
-0.02611593 -0.059798401 0.050936799
-0.02611593 -0.059798401 0.050936799
-0.02611593 -0.059798401 0.050936799
-0.02611593 -0.059798401 0.050936799
-0.064417802 0.013859714 -0.032041814
-0.065379255 0.018844368 -0.030933265
-0.065259062 0.020735495 -0.024899267
-0.02611593 -0.059798401 0.050936799
-0.02611593 -0.059798401 0.050936799
-0.02611593 -0.059798401 0.050936799
-0.02611593 -0.059798401 0.050936799
-0.02611593 -0.059798401 0.050936799
-0.067365013 0.012816384 -0.029004477
-0.070370488 0.020861974 -0.030803278
-0.06822107 0.020710083 -0.02284357
-0.078376226 0.042977389 -0.035254858
-0.02611593 -0.059798401 0.050936799
-0.02611593 -0.059798401 0.050936799
-0.02611593 -0.059798401 0.050936799
-0.02611593 -0.059798401 0.050936799
-0.071326829 0.012794561 -0.026929989
-0.076391116 0.024919 -0.032617789
-0.02611593 -0.059798401 0.050936799
-0.02611593 -0.059798401 0.050936799
-0.02611593 -0.059798401 0.050936799
-0.02611593 -0.059798401 0.050936799
-0.02611593 -0.059798401 0.050936799
-0.02611593 -0.059798401 0.050936799
-0.07530345 0.013790658 -0.025837149
-0.079304814 0.022839662 -0.027599141
-0.077188917 0.023723779 -0.021620739
-0.082226627 0.037829794 -0.02627283
-0.02611593 -0.059798401 0.050936799
-0.02611593 -0.059798401 0.050936799
-0.02611593 -0.059798401 0.050936799
-0.02611593 -0.059798401 0.050936799
-0.082319975 0.018851113 -0.027614839
-0.08838015 0.031978972 -0.033265829
-0.090333574 0.038966868 -0.032102458
-0.089243159 0.042890243 -0.028050531
-0.02611593 -0.059798401 0.050936799
-0.02611593 -0.059798401 0.050936799
-0.02611593 -0.059798401 0.050936799
-0.02611593 -0.059798401 0.050936799
-0.087273762 0.02083254 -0.025485534
-0.093333945 0.033960391 -0.03113652
-0.093276858 0.038923368 -0.029047094
-0.094226532 0.046907496 -0.027884506
-0.02611593 -0.059798401 0.050936799
-0.02611593 -0.059798401 0.050936799
-0.02611593 -0.059798401 0.050936799
-0.02611593 -0.059798401 0.050936799
-0.095304906 0.026914494 -0.028226085
-0.10033174 0.039002758 -0.031914555
-0.10128535 0.045987062 -0.030769974
-0.098169632 0.046867587 -0.024810359
-0.02611593 -0.059798401 0.050936799
-0.02611593 -0.059798401 0.050936799
-0.02611593 -0.059798401 0.050936799
-0.02611593 -0.059798401 0.050936799
-0.10024389 0.027878003 -0.025115125
-0.10528553 0.040984176 -0.029785238
-0.10520972 0.045929063 -0.02669616
-0.10313427 0.050866764 -0.023644671
-0.02611593 -0.059798401 0.050936799
-0.02611593 -0.059798401 0.050936799
-0.02611593 -0.059798401 0.050936799
-0.02611593 -0.059798401 0.050936799
-0.10823759 0.033923782 -0.02585635
-0.11427904 0.047033541 -0.03050768
-0.11220752 0.050971419 -0.027474202
-0.11013208 0.055909131 -0.024422705
-0.02611593 -0.059798401 0.050936799
-0.02611593 -0.059798401 0.050936799
-0.02611593 -0.059798401 0.050936799
-0.02611593 -0.059798401 0.050936799
-0.11620168 0.037933726 -0.024634294
-0.12124332 0.051039897 -0.029304408
-0.1201825 0.056999113 -0.027215768
-0.11912166 0.062958322 -0.02512712
-0.02611593 -0.059798401 0.050936799
-0.02611593 -0.059798401 0.050936799
-0.02611593 -0.059798401 0.050936799
-0.02611593 -0.059798401 0.050936799
-0.12620588 0.046004429 -0.026301559
-0.13019939 0.057053093 -0.028027512
-0.12814267 0.062008884 -0.025975682
-0.12709664 0.068986028 -0.024868682
-0.02611593 -0.059798401 0.050936799
-0.02611593 -0.059798401 0.050936799
-0.02611593 -0.059798401 0.050936799
-0.02611593 -0.059798401 0.050936799
-0.13211811 0.048953097 -0.022136115
-0.14118075 0.066109121 -0.028658316
-0.13609891 0.068018489 -0.024717588
-0.1340422 0.072974272 -0.022665758
-0.02611593 -0.059798401 0.050936799
-0.02611593 -0.059798401 0.050936799
-0.02611593 -0.059798401 0.050936799
-0.02611593 -0.059798401 0.050936799
-0.14712439 0.061059162 -0.024637021
-0.15314321 0.075150661 -0.028270666
-0.15110129 0.081124373 -0.027200468
-0.14603424 0.084051654 -0.024241384
-0.02611593 -0.059798401 0.050936799
-0.02611593 -0.059798401 0.050936799
-0.02611593 -0.059798401 0.050936799
-0.02611593 -0.059798401 0.050936799
-0.16410767 0.074154139 -0.026082665
-0.16709743 0.08619903 -0.027809393
-0.16405571 0.092169158 -0.026757985
-0.15799277 0.09409301 -0.023835715
-0.02611593 -0.059798401 0.050936799
-0.02611593 -0.059798401 0.050936799
-0.02611593 -0.059798401 0.050936799
-0.02611593 -0.059798401 0.050936799
-0.18306008 0.090237692 -0.026437007
-0.18304738 0.098254427 -0.02729252
-0.17900582 0.10422095 -0.026259907
-0.1719618 0.10615931 -0.024356086
-0.02611593 -0.059798401 0.050936799
-0.02611593 -0.059798401 0.050936799
-0.02611593 -0.059798401 0.050936799
-0.02611593 -0.059798401 0.050936799
-0.20098306 0.10428182 -0.024846863
-0.19696024 0.11026645 -0.024813917
-0.18991622 0.11220481 -0.022910085
-0.1879039 0.12021437 -0.023803178
-0.02611593 -0.059798401 0.050936799
-0.02611593 -0.059798401 0.050936799
-0.02611593 -0.059798401 0.050936799
-0.02611593 -0.059798401 0.050936799
-0.22490014 0.12436455 -0.024035521
-0.21687502 0.12631741 -0.023150142
-0.21488141 0.13434505 -0.025042892
-0.21186925 0.14235103 -0.025954783
-0.02611593 -0.059798401 0.050936799
-0.02611593 -0.059798401 0.050936799
-0.02611593 -0.059798401 0.050936799
-0.02611593 -0.059798401 0.050936799
-0.25079417 0.1454362 -0.022168912
-0.24479042 0.15143175 -0.023173213
-0.23377372 0.15137419 -0.02238024
-0.22174631 0.14929527 -0.020642444
-0.02611593 -0.059798401 0.050936799
-0.02611593 -0.059798401 0.050936799
-0.02611593 -0.059798401 0.050936799
-0.02611593 -0.059798401 0.050936799
-0.80872798 0.64924467 -0.16265714
-0.77374136 0.65213656 -0.1642604
-0.26366219 0.17847726 -0.021330025
-0.25264546 0.17841969 -0.02053706
-0.81437808 0.65194005 -0.14449644
-0.78142464 0.65587515 -0.14804342
-0.02611593 -0.059798401 0.050936799
-0.02611593 -0.059798401 0.050936799
-0.81201977 0.64757168 -0.12461286
-0.77809298 0.64952171 -0.12921435
-0.75014943 0.65549254 -0.13363102
-0.71122152 0.64839 -0.13648932
-0.81063461 0.64518863 -0.10367481
-0.78376186 0.65223521 -0.11205332
-0.75285721 0.65321428 -0.1176161
-0.72195256 0.65419328 -0.1231789
-0.81528884 0.64688057 -0.085550927
-0.78242195 0.64788866 -0.093150631
-0.75155479 0.64890385 -0.10071275
-0.72368312 0.65092969 -0.10820045
-0.81692493 0.64854378 -0.066483736
-0.78509927 0.64859176 -0.076081984
-0.75525445 0.64862877 -0.084642991
-0.73042673 0.65371907 -0.095019281
-0.81356275 0.64517176 -0.046600945
-0.7887724 0.65029824 -0.058976546
-0.75695854 0.64734674 -0.068628848
-0.72714037 0.64540219 -0.07822556
-0.81619865 0.64683849 -0.027514979
-0.78843933 0.64897281 -0.041000679
-0.75866252 0.64606458 -0.052614704
-0.73386514 0.64817351 -0.064044714
-0.81484312 0.64649117 -0.0085402131
-0.79011667 0.64967227 -0.02395083
-0.76534593 0.64979964 -0.036416523
-0.74058992 0.65094489 -0.049863882
-0.81649393 0.64917225 0.0095453337
-0.79177934 0.64935392 -0.0059193522
-0.76104802 0.64447862 -0.019587547
-0.74331254 0.64968449 -0.0348306
-0.81015503 0.6448077 0.028354071
-0.79444873 0.65205657 0.011185311
-0.76376271 0.6452179 -0.0045182407
-0.74503529 0.64842051 -0.01981613
-0.80779964 0.6444568 0.047310054
-0.78714055 0.64470708 0.028921548
-0.76643598 0.64692074 0.012568414
-0.74874967 0.64916337 -0.0047280267
-0.8044523 0.64210278 0.066211201
-0.79080576 0.64841324 0.046063021
-0.76813614 0.64663857 0.02860057
-0.74847674 0.64689231 0.010230854
-0.80312628 0.64379126 0.083222687
-0.78450429 0.64408481 0.06287244
-0.7658487 0.64334244 0.04450351
-0.74920362 0.64462495 0.025208529
-0.79978991 0.64345491 0.10116021
-0.7831862 0.64377373 0.079847887
-0.76953661 0.64606684 0.060627304
-0.75291413 0.64636767 0.040314637
-0.79445773 0.64211154 0.11904215
-0.78385985 0.64546949 0.096896961
-0.76823723 0.64577383 0.076603092
-0.75760585 0.64809585 0.056439213
-0.78812963 0.63976473 0.13688725
-0.78552556 0.64916855 0.11400084
-0.76694572 0.64348119 0.092542842
-0.7543413 0.64381438 0.071305685
-0.78480804 0.64044631 0.15384313
-0.77523655 0.64182627 0.13068105
-0.76265472 0.64117777 0.10842621
-0.75705206 0.64555353 0.086393006
-0.78046781 0.64110619 0.1717799
-0.77391446 0.64251494 0.14767453
-0.76434696 0.6428951 0.12449441
-0.75179559 0.63926524 0.10118585
-0.77515042 0.64078069 0.1886802
-0.76563209 0.63819754 0.16344669
-0.76005596 0.64059174 0.14037779
-0.75450647 0.64100432 0.11627318
-0.7648536 0.63543814 0.20539644
-0.76530206 0.64088953 0.18049499
-0.76074839 0.64230555 0.1564272
-0.7561987 0.64272171 0.13234138
-0.76251602 0.64012259 0.22244318
-0.75703835 0.63659012 0.19526751
-0.75745326 0.64100552 0.1723474
-0.7549032 0.64142889 0.14829916
-0.75522572 0.63780844 0.23827019
-0.7596733 0.64327413 0.21344393
-0.7541582 0.63970548 0.18826756
-0.75659937 0.64214647 0.16434932
-0.74790865 0.63747579 0.25513291
-0.74841803 0.63696432 0.22812402
-0.75086319 0.63840556 0.20418778
-0.75432277 0.64086813 0.17928864
-0.74260604 0.63816822 0.27105153
-0.74015445 0.63266504 0.24289653
-0.74856001 0.63910872 0.22016278
-0.75501525 0.642582 0.19533804
-0.73231614 0.63584322 0.28682217
-0.74278539 0.64034873 0.26109096
-0.74626082 0.63881212 0.23611976
-0.74973226 0.63827533 0.21116659
-0.72602862 0.63755006 0.30174038
-0.73551375 0.6380527 0.2759183
-0.74196196 0.63850832 0.25203919
-0.75142056 0.64099246 0.22725281
-0.71179652 0.63024771 0.31534642
-0.72724217 0.63575292 0.29072687
-0.73768187 0.63822263 0.26695895
-0.74712956 0.6386891 0.24313617
-0.70748198 0.63394326 0.33133793
-0.72094375 0.63544202 0.30660871
-0.73140997 0.63593012 0.28180507
-0.74582231 0.6403957 0.259148
-0.70117176 0.63663185 0.34727383
-0.71269089 0.63316035 0.32041758
-0.72611529 0.63462287 0.29768768
-0.74155009 0.6381104 0.2740317
-0.68597728 0.62936211 0.35886174
-0.70638853 0.6338492 0.33631742
-0.7238043 0.63732576 0.31369874
-0.73528212 0.63481796 0.28885984
-0.68066293 0.63305402 0.37483448
-0.69912767 0.63357079 0.35018116
-0.71752453 0.63703293 0.32858092
-0.73297894 0.63552123 0.30483484
-0.66942936 0.63077974 0.38758734
-0.69184816 0.63327438 0.36504453
-0.71124876 0.63574028 0.34344506
-0.73264891 0.63821316 0.32188317
-0.66016501 0.63149399 0.4014315
-0.68159568 0.63098562 0.37881586
-0.70694602 0.63643628 0.35938251
-0.72735417 0.63690603 0.33776575
-0.64795429 0.62823439 0.41314787
-0.67433488 0.63070726 0.39267957
-0.69670135 0.63214779 0.37311777
-0.72207826 0.6356169 0.35264868
-0.63476253 0.62498927 0.42384583
-0.66804725 0.63241398 0.40759778
-0.69535971 0.63783568 0.39020133
-0.71281469 0.63131392 0.36740243
-0.63141334 0.63266963 0.44092783
-0.65978271 0.63313192 0.42146072
-0.68413794 0.63256186 0.4029001
-0.70654285 0.62902141 0.38224855
-0.61919874 0.63040984 0.45266223
-0.6524992 0.63383532 0.43634215
-0.67588121 0.63128012 0.41672704
-0.7061823 0.63469481 0.40035057
-0.60995299 0.6311422 0.46550673
-0.64028847 0.6305756 0.44805852
-0.66959357 0.6329869 0.43164527
-0.69693351 0.6314097 0.41412264
-0.59675729 0.62889689 0.47622269
-0.6330198 0.63229698 0.46195829
-0.6613369 0.63170511 0.44547215
-0.69558102 0.63507992 0.43216985
-0.58458018 0.62667334 0.4859578
-0.61785895 0.62606329 0.47156495
-0.65305752 0.63140506 0.46031675
-0.68927866 0.63576877 0.44806972
-0.57530791 0.62938726 0.49983799
-0.61156344 0.62976968 0.48651919
-0.64381975 0.63013774 0.47312522
-0.68002993 0.63248372 0.46184176
-0.56212699 0.62815988 0.50957227
-0.59936756 0.62752801 0.49725395
-0.63555515 0.63085562 0.48698819
-0.67472345 0.63417602 0.47777843
-0.55191892 0.62892485 0.52039868
-0.59012187 0.62826037 0.5100984
-0.62334836 0.62659621 0.49868652
-0.66546696 0.6328907 0.49158657
-0.53971517 0.62868273 0.53116947
-0.57889926 0.62800384 0.52188766
-0.61705685 0.62930286 0.51362276
-0.65719146 0.63159072 0.50641316
-0.52753019 0.6284588 0.54094058
-0.56769919 0.62676555 0.53265917
-0.60779238 0.6300171 0.52746689
-0.6489082 0.63229054 0.52127576
-0.51632226 0.62922013 0.55174816
-0.55844963 0.62849772 0.54552174
-0.59657764 0.62776089 0.53922015
-0.6425792 0.63496095 0.53821129
-0.50220567 0.62604386 0.5584287
-0.54917747 0.6312117 0.55940193
-0.58733594 0.62749344 0.5520466
-0.62839937 0.62871277 0.54883641
-0.49196702 0.62979019 0.5703088
-0.53699619 0.6299879 0.56915498
-0.57707173 0.62820411 0.56587201
-0.61912018 0.62840909 0.56366217
-0.4778316 0.62659574 0.57798892
-0.5257923 0.62974948 0.57994461
-0.56682611 0.62893289 0.57869768
-0.6088599 0.62812001 0.57746959
-0.46568403 0.62640798 0.58576071
-0.51163423 0.62753671 0.58864242
-0.55658066 0.62966168 0.59152341
-0.60055393 0.62980151 0.59334981
-0.45251793 0.62619853 0.59451342
-0.49749878 0.62434226 0.59632266
-0.54243046 0.62544936 0.60018516
-0.58541179 0.62358588 0.60195684
-0.4413209 0.62897766 0.60435736
-0.48824137 0.62807411 0.60922122
-0.5341354 0.6291486 0.61510187
-0.57905614 0.6282379 0.61992806
-0.42624572 0.62483412 0.60900176
-0.47605631 0.62785012 0.61899233
-0.52093571 0.6279031 0.62583584
-0.56581903 0.62695622 0.6326614
-0.416022 0.62959832 0.61990023
-0.46093979 0.62467027 0.62565404
-0.5077588 0.62567592 0.63555217
-0.55458164 0.62568182 0.64543229
-0.39999232 0.62348765 0.62249041
-0.45263681 0.63036919 0.64060676
-0.49358192 0.62344515 0.64524966
-0.54331368 0.62738872 0.65925688
-0.38781816 0.62528139 0.63129795
-0.43658844 0.62424046 0.64419663
-0.48332858 0.62617356 0.65811139
-0.52912211 0.62414008 0.66993594
-0.37373495 0.62314111 0.63599718
-0.42244124 0.62404549 0.65193075
-0.47017032 0.62396449 0.66682804
-0.51589984 0.62387633 0.68168765
-0.36060232 0.62396771 0.64276856
-0.41027492 0.62383956 0.66070223
-0.4559896 0.62273347 0.67654359
-0.50465447 0.62460154 0.69449455
-0.34939751 0.62874645 0.65264851
-0.39712751 0.62364829 0.6684553
-0.44182366 0.62252045 0.68527746
-0.48850459 0.62038195 0.7031188
-0.33245072 0.62070483 0.65118533
-0.38395748 0.62443858 0.67722601
-0.43252483 0.62721598 0.70019335
-0.4762595 0.62110358 0.71590692
-0.3202914 0.62351656 0.65901113
-0.36981025 0.62424362 0.68496025
-0.41545394 0.62206537 0.70478213
-0.46206006 0.61985451 0.7266221
-0.30813599 0.62532848 0.66681898
-0.3557044 0.62308502 0.69067711
-0.40033352 0.61988521 0.71146178
-0.44976568 0.62353945 0.7414636
-0.29311302 0.62223899 0.66848236
-0.34350759 0.62586051 0.70050228
-0.38809922 0.62262464 0.72328633
-0.43360797 0.62131953 0.75012386
-0.28094971 0.62605047 0.67632627
-0.32842067 0.6247164 0.70520067
-0.3729561 0.62142622 0.73098379
-0.4194046 0.62107033 0.76085711
-0.26692662 0.62296462 0.6780085
-0.31333762 0.62257254 0.70988107
-0.35971814 0.62516177 0.74280745
-0.40324295 0.61985028 0.7695353
-0.25380883 0.62480903 0.68379819
-0.29922783 0.62241375 0.71561599
-0.34459373 0.62398154 0.74950528
-0.38806236 0.61861569 0.77923208
-0.23885384 0.61877429 0.68240857
-0.28512201 0.6212551 0.72133291
-0.32946932 0.6228013 0.756203
-0.37285131 0.62036258 0.78998256
-0.22570553 0.62360018 0.68925196
-0.2700538 0.62012911 0.72503161
-0.31339046 0.61965388 0.76084656
-0.35670838 0.61916065 0.79766119
-0.21263696 0.62248141 0.6929884
-0.25689459 0.6229372 0.73283875
-0.29823947 0.62045515 0.76858002
-0.34054282 0.61894035 0.80635744
-0.19956051 0.62336218 0.69676077
-0.24184902 0.62082946 0.73551983
-0.28308854 0.62125647 0.77631348
-0.32435852 0.61870205 0.81605345
-0.18546158 0.62522113 0.70153201
-0.22675818 0.62068516 0.74023622
-0.2669791 0.62109047 0.78201079
-0.30725712 0.61653286 0.82169592
-0.17244919 0.62415653 0.70226938
-0.21264054 0.62252605 0.7460072
-0.25091499 0.61896104 0.78567272
-0.29012918 0.61634523 0.82837415
-0.15746371 0.62110323 0.70193344
-0.19761372 0.62043637 0.74768865
-0.23480558 0.61879516 0.79137003
-0.27295986 0.61712122 0.83706963
-0.14347413 0.6190533 0.70163435
-0.18249626 0.62227368 0.75344074
-0.21969207 0.6196326 0.79710418
-0.25490007 0.61398476 0.84067601
-0.13039376 0.62093395 0.70542473
-0.16656019 0.61625344 0.75103271
-0.20357874 0.62046647 0.80281955
-0.23776817 0.614797 0.84737217
-0.11728683 0.62479615 0.71025085
-0.15338923 0.62206107 0.75889385
-0.18651089 0.61933327 0.80648071
-0.22152679 0.61952168 0.85915756
-0.10424783 0.62571323 0.71202391
-0.13829443 0.62291658 0.7636283
-0.17130677 0.62409765 0.81628561
-0.20250854 0.61541796 0.86072779
-0.090348855 0.61973637 0.70765412
-0.12330502 0.62086314 0.76331037
-0.15338978 0.61808836 0.81284022
-0.18441823 0.61526287 0.86538792
-0.077219248 0.62458026 0.71349788
-0.10727051 0.62076956 0.76500905
-0.13734049 0.6169768 0.81552058
-0.16639194 0.6131624 0.86701298
-0.063176513 0.62649357 0.71527016
-0.09319032 0.62264657 0.76878065
-0.12117399 0.62177384 0.82330734
-0.14727913 0.61398554 0.87267184
-0.049296245 0.62053472 0.70990074
-0.077246405 0.618626 0.76640862
-0.10327966 0.61478281 0.81884432
-0.1292489 0.61288494 0.87431496
-0.036343932 0.61852455 0.70762104
-0.062298376 0.61560887 0.76407337
-0.087090522 0.6205616 0.82764876
-0.11113594 0.61371171 0.87999272
-0.023323661 0.61945975 0.70839447
-0.047191799 0.61946392 0.76886189
-0.070101492 0.61850089 0.82729328
-0.092128545 0.61162573 0.88059932
-0.010284663 0.62037671 0.71016753
-0.032107871 0.62233722 0.77263278
-0.053153828 0.61547655 0.82492042
-0.073003978 0.6154483 0.88631237
0.0027621854 0.62329334 0.71197665
-0.016092073 0.62226164 0.77333176
-0.036092922 0.61736095 0.827636
-0.054019235 0.61238062 0.88590127
0.015673134 0.62031955 0.70767963
-0.0021360079 0.62124777 0.77105135
-0.019081235 0.61628199 0.82829815
-0.034917325 0.6152215 0.89059669
0.02969715 0.62225085 0.70845234
0.012925269 0.62313932 0.77380455
-0.0031294627 0.61426115 0.82596225
-0.015924724 0.6141535 0.8902216
0.042630751 0.62025887 0.70517302
0.027767897 0.61721313 0.76641691
0.014980494 0.61910522 0.83071232
0.0019587325 0.60918021 0.88479495
0.055583064 0.6182487 0.70289332
0.042723782 0.61619568 0.76411772
0.031977385 0.61904418 0.8303929
0.021045854 0.61303896 0.88850862
0.06856589 0.61921996 0.70166743
0.058838032 0.62204677 0.76892352
0.04784248 0.61409616 0.82400423
0.040042378 0.61297077 0.88815159
0.082639128 0.62411457 0.70449346
0.073771268 0.62004757 0.76560658
0.06591107 0.61797661 0.82673699
0.05899753 0.61193889 0.88577729
0.094508894 0.62018079 0.6981979
0.087663308 0.61708826 0.76029116
0.08284393 0.61597013 0.82338262
0.077930041 0.60992539 0.88238525
0.1063107 0.61330169 0.68884933
0.10369088 0.62001228 0.76104426
0.099875256 0.61989045 0.82413489
0.096930481 0.61085701 0.88204622
0.12043317 0.62115967 0.69372874
0.11758686 0.61805284 0.75574684
0.1166988 0.61397517 0.81571001
0.11587083 0.61084306 0.87869024
0.13337068 0.62016737 0.69046748
0.13354649 0.61803156 0.75344694
0.13266236 0.61495376 0.81342804
0.13483386 0.61181086 0.87635189
0.14633873 0.62215662 0.6882599
0.14746511 0.61705387 0.74916714
0.15062553 0.61592513 0.81110853
0.15370625 0.60885179 0.86994284
0.15925361 0.62018263 0.68398094
0.16350053 0.62197745 0.74995625
0.1676342 0.61886364 0.81084317
0.17267317 0.6108194 0.86762261
0.17219898 0.62119007 0.68075567
0.17840023 0.62101424 0.74465805
0.18235272 0.61004651 0.79740351
0.19159482 0.61082357 0.86326689
0.18409532 0.61923778 0.6754958
0.19120973 0.61613125 0.73532671
0.19934267 0.61300302 0.79613847
0.21049379 0.609846 0.85789359
0.19599168 0.61728549 0.67023605
0.20615473 0.61713147 0.73206389
0.2162686 0.61401421 0.79183841
0.22833681 0.6089263 0.84954
0.20889565 0.6173293 0.66499341
0.22007729 0.61715358 0.72780222
0.23319453 0.61502534 0.78753835
0.24619457 0.60698861 0.84216809
0.220792 0.61537701 0.65973365
0.23604476 0.61913204 0.72553825
0.24910192 0.61605823 0.78225738
0.26412427 0.60899603 0.83786726
0.23483565 0.62230754 0.66059631
0.24990723 0.61820865 0.71825957
0.26389623 0.61218596 0.77190685
0.28305373 0.61099982 0.83354771
0.24671721 0.62137318 0.65435487
0.26274329 0.61530715 0.70996398
0.27979967 0.61221904 0.76660794
0.30298698 0.6139999 0.82922721
0.25966653 0.62338036 0.6511476
0.27767354 0.61732531 0.70571947
0.2946206 0.61032832 0.75729311
0.31981143 0.6131019 0.81989288
0.27156678 0.62242794 0.64590585
0.29155862 0.6173836 0.69945848
0.31150907 0.61137569 0.75099373
0.33661324 0.61122215 0.80954075
0.28345227 0.62249339 0.63968241
0.30440256 0.61648184 0.69119883
0.32842413 0.61440462 0.74572998
0.35237384 0.60838223 0.79719013
0.29531112 0.62057734 0.63242322
0.31831029 0.61752188 0.68595552
0.34222257 0.61153573 0.73541629
0.36815709 0.60652417 0.78585714
0.3072153 0.62062466 0.62719941
0.33322176 0.61955816 0.68071139
0.35707003 0.61162663 0.72713715
0.3870984 0.6115275 0.78159159
0.3191008 0.62069017 0.62097597
0.34192657 0.61178052 0.66640288
0.37087241 0.6097576 0.71684146
0.40184048 0.60870934 0.76826006
0.32996771 0.62077725 0.61377168
0.359936 0.61973256 0.66520911
0.38675016 0.61282629 0.70959717
0.41967654 0.61080718 0.7589609
0.3345935 0.60706925 0.59643126
0.36761832 0.61097676 0.64990175
0.40057519 0.61193907 0.70031917
0.43550512 0.61091256 0.74966329
0.35476506 0.62288624 0.60234165
0.3835375 0.61500907 0.64467484
0.41538522 0.61206609 0.69004065
0.45130014 0.61205393 0.73838449
0.36560541 0.62099183 0.59410161
0.39743048 0.61706704 0.63844985
0.42921808 0.61317849 0.68079871
0.46604615 0.61023563 0.72507095
0.37852511 0.62503487 0.58893108
0.40821463 0.61522686 0.62721086
0.44403201 0.61430532 0.67053819
0.48082268 0.6113987 0.71281117
0.38834301 0.62216234 0.57969224
0.42003998 0.61434674 0.61797041
0.45681977 0.61345786 0.6592797
0.49559534 0.61156195 0.70053339
0.38787523 0.60354549 0.558357
0.4297978 0.61052859 0.60571444
0.47063392 0.61458832 0.64903808
0.51239407 0.6136995 0.68925369
0.40079492 0.60758853 0.55318648
0.44367597 0.61360455 0.59850788
0.48342559 0.61474061 0.63779742
0.52512562 0.61290628 0.67499614
0.41166183 0.60767567 0.54598212
0.45548657 0.61374241 0.58828574
0.49621725 0.61489296 0.62655693
0.53886092 0.61310929 0.66073781
0.41736725 0.59990871 0.53173
0.46527484 0.61290562 0.57708353
0.50899017 0.61506331 0.6143167
0.54954755 0.61035973 0.64448249
0.43028694 0.60395193 0.52655947
0.4709428 0.60517484 0.56083208
0.52176327 0.61523378 0.60207647
0.56330949 0.61254436 0.63125992
0.44011268 0.60307896 0.51735663
0.48787349 0.61220312 0.55564046
0.53147268 0.6134696 0.58685762
0.57911241 0.61568534 0.62001699
0.45099139 0.60616553 0.51020634
0.49968803 0.6133408 0.54543638
0.54121953 0.61166918 0.57363814
0.58673561 0.61100119 0.60078305
0.46489611 0.61122298 0.50403541
0.51048005 0.6135003 0.53423339
0.5519554 0.61188298 0.55943614
0.59743398 0.61125112 0.58458173
0.47167316 0.60739762 0.49283555
0.5192498 0.6126852 0.52205038
0.55659002 0.60519177 0.54122216
0.60812843 0.61050123 0.56836247
0.48148412 0.60754257 0.482651
0.53004187 0.61284465 0.51084739
0.56937081 0.60736185 0.52901798
0.6198681 0.61171132 0.55415976
0.49131384 0.60766953 0.47346616
0.54084176 0.61500388 0.49968043
0.57809919 0.60558313 0.5148176
0.62954402 0.61098301 0.53695959
0.5021472 0.6087926 0.46428055
0.5495888 0.61320704 0.48647967
0.58783919 0.60680038 0.50065243
0.63924265 0.61123657 0.52077711
0.51198077 0.60991937 0.45511371
0.55938107 0.61337012 0.47529551
0.59860164 0.60899574 0.48748618
0.64894521 0.61248994 0.50461262
0.5207693 0.60908622 0.44393033
0.56203479 0.606668 0.45811874
0.61240882 0.61314374 0.47629893
0.65864778 0.61374336 0.48844817
0.52958429 0.61023468 0.43378258
0.56775975 0.60390025 0.4439567
0.62214881 0.61436099 0.4621338
0.66835028 0.61499673 0.47228369
0.5383954 0.61038321 0.42361686
0.57956731 0.60805559 0.43280703
0.63086635 0.6146 0.44696975
0.67703426 0.61627173 0.45513836
0.54616153 0.60857195 0.41143456
0.58629215 0.60528415 0.41862619
0.6355353 0.61189008 0.42982751
0.68268436 0.61357635 0.43697768
0.55395406 0.60874224 0.40028799
0.58999485 0.60154182 0.40348402
0.63817811 0.60720569 0.41168717
0.69036859 0.61485499 0.41985112
0.55971652 0.60593826 0.38812524
0.60180247 0.6056971 0.39233434
0.65401942 0.61532789 0.40153402
0.6940003 0.61218476 0.40072834
0.56849021 0.60612303 0.37596017
0.61664391 0.61382276 0.38220003
0.66072249 0.61659199 0.38542593
0.70271093 0.61544144 0.3846187
0.56817794 0.59839571 0.36082113
0.62440294 0.61502904 0.36907211
0.66744035 0.61683822 0.37029949
0.71039897 0.61771989 0.3675102
0.58103055 0.60451084 0.351688
0.63721418 0.62018049 0.35792169
0.6751433 0.61809874 0.35417259
0.71303093 0.6150533 0.3484062
0.5898121 0.60669529 0.33955899
0.64192861 0.61943406 0.34281474
0.6798389 0.61737043 0.33806604
0.71869671 0.61635727 0.33031756
0.59861243 0.60886157 0.32842967
0.64663899 0.61768782 0.32768989
0.68554217 0.6186381 0.32197678
0.72135526 0.61567223 0.3122493
0.60436004 0.60707557 0.31528527
0.65437931 0.61891216 0.31356233
0.69324893 0.62089849 0.30586791
0.72602129 0.61697972 0.29417947
0.61316037 0.6092419 0.30415592
0.65809381 0.61816931 0.29847419
0.69694477 0.62017369 0.28978011
0.73069125 0.61928701 0.27612764
0.6178894 0.60747755 0.29003066
0.6668418 0.62138981 0.2843639
0.70062578 0.62046683 0.27271074
0.73435742 0.62059808 0.25807661
0.6216374 0.6056987 0.27692389
0.66852623 0.61767268 0.26825967
0.70330292 0.61976379 0.25564212
0.7370199 0.62091297 0.24002632
0.63040024 0.60790122 0.26379523
0.67830449 0.62387091 0.25518426
0.7039727 0.61706829 0.23857501
0.73665631 0.61925703 0.22099674
0.63818592 0.61108911 0.25170302
0.68402654 0.62512058 0.24009463
0.71169132 0.6223281 0.2225202
0.55098164 0.45295894 0.16544606
0.639889 0.60735387 0.23659846
0.68368864 0.62042892 0.2230103
0.67709202 0.58790827 0.19753692
0.56079048 0.46213856 0.15342438
0.64765197 0.60955995 0.22348855
0.68740702 0.62068594 0.20794022
0.55090255 0.4711006 0.15777311
0.53435999 0.43756175 0.13546859
0.65744901 0.61574012 0.21141283
0.64880753 0.58126324 0.18394166
0.5526588 0.47132859 0.14473993
0.55321735 0.45468962 0.1244216
0.6551224 0.609038 0.1953297
0.55084914 0.48620656 0.15204541
0.5524075 0.46956402 0.13170829
0.56804889 0.46985027 0.11241408
0.62560099 0.57552767 0.17426911
0.55561268 0.48842341 0.13899191
0.56825757 0.48470303 0.12068165
0.58989871 0.48998499 0.10036513
0.5538404 0.5032652 0.14829671
0.55839527 0.49062937 0.12697563
0.58205879 0.49688587 0.10763921
0.60771877 0.50715268 0.087337628
0.54653639 0.49254552 0.13423479
0.57221121 0.50179434 0.11491483
0.59888977 0.51203942 0.095594123
0.62451643 0.52334219 0.073311225
0.55836356 0.50169986 0.12317519
0.58101636 0.5099777 0.10289394
0.61167252 0.52424395 0.081570812
0.62725466 0.52860194 0.05835003
0.57219827 0.51284671 0.11211406
0.59683985 0.52313519 0.0908316
0.61041057 0.52450079 0.067594342
0.63400394 0.53684676 0.043367725
0.58300304 0.52102298 0.10005558
0.61164868 0.53731406 0.077806406
0.61817837 0.53272396 0.053592913
0.62369752 0.53015518 0.02843459
0.58778524 0.52322173 0.088001728
0.61137873 0.53556764 0.063775107
0.61691642 0.5329808 0.039616447
0.61841363 0.52944463 0.013515607
0.60057878 0.53340858 0.074942045
0.61011678 0.53582454 0.049798645
0.62065452 0.53823692 0.024636462
0.62115186 0.53470439 -0.0014455877
0.59930897 0.53166568 0.060929541
0.6118769 0.53705227 0.036783494
0.62140405 0.54148608 0.01067647
0.60486817 0.52399874 -0.014338743
0.60911787 0.54084533 0.048907869
0.61561102 0.54130864 0.021785485
0.61010855 0.53278029 -0.0032742508
0.61559892 0.53726459 -0.031305432
0.61587405 0.54607254 0.034871172
0.61434907 0.54156548 0.0078090206
0.61184305 0.53704381 -0.018234685
0.59431922 0.52255964 -0.043177046
0.61360055 0.54333359 0.020859445
0.61810201 0.54580367 -0.006189324
0.60358155 0.53230852 -0.031170037
0.58307296 0.51681721 -0.055074386
0.61034203 0.53958011 0.007848151
0.60381401 0.53409111 -0.019138064
0.58731258 0.520585 -0.043081548
0.57981926 0.51908088 -0.068977237
0.60807246 0.5378409 -0.006145563
0.59153354 0.52437103 -0.032088362
0.58603984 0.52285963 -0.058021631
0.65151632 0.59337062 -0.099986278
0.59779155 0.52811366 -0.019133434
0.5952943 0.53060889 -0.046050668
0.57679713 0.51810986 -0.06993854
0.68419147 0.63169795 -0.12491319
0.59452218 0.52637804 -0.03310835
0.58202875 0.51987445 -0.058000527
0.66748649 0.61040074 -0.10497892
0.67691189 0.63199443 -0.13977659
0.59227121 0.52462065 -0.046102405
0.57977098 0.52113473 -0.071940184
0.68318766 0.63070166 -0.12491242
0.66861379 0.63231254 -0.15562083
0.58500952 0.51988178 -0.059056558
0.66346765 0.605416 -0.10499385
0.67490047 0.62900209 -0.13979305
0.21035255 0.17868532 -0.025202401
0.57975131 0.51613563 -0.072030276
0.68516469 0.62971276 -0.12596768
0.67161328 0.63230181 -0.1556772
0.19827801 0.16876626 -0.027156428
0.6684401 0.60341644 -0.10612351
0.68185478 0.63203073 -0.1428695
0.21932223 0.18570609 -0.028244372
-0.02611593 -0.059798401 0.050936799
0.69212204 0.62872404 -0.12811656
0.67556721 0.63032395 -0.15778773
0.20626661 0.17577253 -0.029179938
0.17218158 0.14788124 -0.028045919
0.69181556 0.63203102 -0.14505672
0.21332934 0.1776928 -0.026276447
-0.02611593 -0.059798401 0.050936799
-0.02611593 -0.059798401 0.050936799
0.68652773 0.63032067 -0.15999374
0.20127353 0.16775566 -0.027230814
0.17416251 0.14789216 -0.029083159
0.14312615 0.12295339 -0.025952127
0.55252546 0.50437081 -0.1347546
-0.02611593 -0.059798401 0.050936799
