# .PCD v0.7 - Point Cloud Data file format
VERSION 0.7
FIELDS x y z
SIZE 4 4 4
TYPE F F F
COUNT 1 1 1
WIDTH 1378
HEIGHT 1
VIEWPOINT 0 0 0 1 0 0 0
POINTS 1378
DATA ascii
-0.02611593 -0.059798401 0.050936799
-0.02611593 -0.059798401 0.050936799
-0.249814 0.14043346 -0.022277795
-0.02611593 -0.059798401 0.050936799
-0.20995696 0.11533033 -0.025479198
-0.18396537 0.095168069 -0.022329483
-0.02611593 -0.059798401 0.050936799
-0.24085008 0.13641994 -0.023518652
-0.02611593 -0.059798401 0.050936799
-0.02611593 -0.059798401 0.050936799
-0.82794923 0.64952987 -0.17429605
-0.02611593 -0.059798401 0.050936799
-0.22685054 0.12733506 -0.021944556
-0.20692793 0.11328375 -0.023572285
-0.83061165 0.64921504 -0.15624577
-0.80711156 0.6425823 -0.18181437
-0.02611593 -0.059798401 0.050936799
-0.02611593 -0.059798401 0.050936799
-0.83427393 0.64890379 -0.13817671
-0.81980091 0.64935648 -0.1664491
-0.26077965 0.15348881 -0.022836525
-0.23486295 0.13339891 -0.023685448
-0.83394873 0.64557868 -0.12023687
-0.8244856 0.648067 -0.1493789
-0.02611593 -0.059798401 0.050936799
-0.02611593 -0.059798401 0.050936799
-0.83661115 0.64526391 -0.10218659
-0.82715595 0.64575261 -0.13136467
-0.82169902 0.65127277 -0.16137715
-0.25673994 0.14942089 -0.019984774
-0.84028429 0.64697033 -0.08508116
-0.83482045 0.64947301 -0.11414804
-0.82736093 0.65096873 -0.14327052
-0.02611593 -0.059798401 0.050936799
-0.84393871 0.64865875 -0.066976048
-0.83248866 0.64312321 -0.095300175
-0.83603311 0.65269321 -0.12607111
-0.82557511 0.64916092 -0.15434042
-0.84460545 0.64733696 -0.048981398
-0.8451553 0.65087909 -0.078917161
-0.83968455 0.65036416 -0.10703845
-0.83624303 0.65189242 -0.13708541
-0.84427238 0.64601147 -0.031005502
-0.84582597 0.64855742 -0.060940512
-0.84235483 0.64804971 -0.089024201
-0.83890241 0.64756006 -0.11810755
-0.84495389 0.64570755 -0.013992481
-0.84348637 0.64420724 -0.042056605
-0.84502518 0.64573526 -0.071009964
-0.84355366 0.6452347 -0.099056095
-0.84760845 0.64739233 0.0040938333
-0.84915513 0.64692074 -0.024895571
-0.85466665 0.65044469 -0.05273807
-0.84821969 0.64392722 -0.080986239
-0.84428376 0.64405656 0.021977309
-0.84880728 0.64457738 -0.0059380457
-0.85832894 0.65013343 -0.034669004
-0.85785431 0.64561903 -0.06176874
-0.84595728 0.64575583 0.039045159
-0.8474822 0.64124864 0.011983007
-0.86098051 0.6478008 -0.015655115
-0.86150569 0.6432901 -0.042736053
-0.84364331 0.64444131 0.0559838
-0.85113668 0.64293712 0.030088108
-0.8666119 0.65047818 0.0035052449
-0.86814475 0.64397138 -0.023592949
-0.84828961 0.64813298 0.07414373
-0.85080361 0.6416117 0.048063993
-0.86328024 0.64412475 0.022334326
-0.87477988 0.64565241 -0.004431814
-0.8430028 0.64482617 0.089990295
-0.84947449 0.63928276 0.066003062
-0.86990756 0.64780539 0.041531488
-0.87541699 0.64229476 0.015526146
-0.83869308 0.64250457 0.10687334
-0.85014832 0.64097857 0.083052129
-0.86856383 0.64445865 0.060452204
-0.88402915 0.64496469 0.03574254
-0.83934408 0.64518207 0.12494007
-0.84981513 0.63965309 0.101028
-0.86921185 0.64311874 0.079446539
-0.88466239 0.64260697 0.055718511
-0.8340385 0.64185715 0.14178631
-0.84748238 0.63832051 0.11896631
-0.87386209 0.64581054 0.09758845
-0.88828713 0.64225948 0.075786896
-0.82772923 0.63952845 0.15863177
-0.84911853 0.63998365 0.13803348
-0.87349159 0.644449 0.11756364
-0.8869434 0.63891268 0.094707608
-0.83039463 0.64323103 0.17575446
-0.84678572 0.63865107 0.15597178
-0.87213999 0.64310181 0.1365204
-0.89453304 0.6425609 0.1159229
-0.82111633 0.63791013 0.19148982
-0.84445304 0.63731837 0.17391008
-0.87178814 0.64175832 0.15549594
-0.89813131 0.64419502 0.13702697
-0.81679875 0.63758826 0.20840889
-0.84211642 0.6369856 0.1918664
-0.8704139 0.64139301 0.17547038
-0.89774597 0.64181548 0.15798382
-0.81447697 0.63827342 0.22538358
-0.84176767 0.63965958 0.20991436
-0.87105405 0.64205265 0.19450074
-0.89934856 0.64244258 0.1790323
-0.81514275 0.64196885 0.24246868
-0.83644331 0.63631648 0.22776026
-0.8667109 0.63869518 0.21336508
-0.89497173 0.63804907 0.19987795
-0.80685645 0.63865119 0.25825888
-0.83212966 0.6349948 0.2446613
-0.8683055 0.64132196 0.23444961
-0.89657432 0.63867629 0.22092643
-0.80155784 0.63834381 0.27415949
-0.82879323 0.63465846 0.26259884
-0.86395442 0.6399641 0.25334999
-0.89617723 0.63929623 0.24193732
-0.7972551 0.63903981 0.29009694
-0.82644874 0.6363253 0.28059119
-0.86457199 0.64160556 0.27339804
-0.8947655 0.63889462 0.26391107
-0.7889874 0.63574028 0.30488747
-0.82211637 0.63498551 0.2984919
-0.861202 0.64023316 0.29331687
-0.89634538 0.64050347 0.28597724
-0.78566188 0.63742173 0.32186139
-0.81877214 0.63664889 0.3164655
-0.85684693 0.63987511 0.31223527
-0.89295667 0.63911301 0.30689573
-0.77639443 0.63411856 0.33663315
-0.81343603 0.63630533 0.33436543
-0.85247326 0.63949901 0.33215332
-0.8905412 0.63970768 0.32886872
-0.771088 0.63581091 0.35256979
-0.81009567 0.63696873 0.35232097
-0.84513062 0.63613069 0.35096133
-0.88713378 0.63829917 0.35078686
-0.76678133 0.63750672 0.36852527
-0.8017866 0.63463283 0.36912885
-0.84177148 0.63677609 0.36991653
-0.88272262 0.63788682 0.37270427
-0.75751382 0.63420361 0.38329697
-0.7944923 0.63331842 0.38497388
-0.83739388 0.63739973 0.38985258
-0.87930733 0.63847798 0.39465845
-0.75123024 0.63491064 0.3981972
-0.79012948 0.63496011 0.40392834
-0.83004332 0.63603109 0.40869659
-0.87491488 0.6380837 0.41557616
-0.74492782 0.63559943 0.41409704
-0.78478551 0.63661623 0.4218643
-0.82171559 0.63367718 0.42650414
-0.86752689 0.63667887 0.43641949
-0.73369819 0.63232529 0.42683187
-0.77352238 0.63230598 0.43658042
-0.81731534 0.63528258 0.44745788
-0.86111617 0.63625944 0.45829931
-0.72444165 0.63103992 0.44064
-0.76820099 0.63298041 0.45349872
-0.81095678 0.63591719 0.46635675
-0.85077399 0.63288033 0.4770509
-0.71716207 0.6307435 0.45550337
-0.75988424 0.63264424 0.47034267
-0.80063337 0.6325562 0.48410866
-0.84634018 0.63344979 0.49998596
-0.71185166 0.63343567 0.47145808
-0.74761736 0.62933034 0.48505801
-0.797225 0.63616484 0.50511724
-0.84089863 0.63601524 0.52293825
-0.7016179 0.63116485 0.48422968
-0.73735017 0.62602359 0.49981099
-0.78097457 0.62883729 0.51968539
-0.82758367 0.63064378 0.5405978
-0.69333076 0.63286453 0.49911034
-0.73297554 0.63066465 0.51881951
-0.77754366 0.63342774 0.54171163
-0.82214224 0.63320935 0.56355011
-0.68210107 0.62959033 0.51184517
-0.7217046 0.62835425 0.53357166
-0.76425821 0.63009214 0.55740786
-0.81077367 0.63180834 0.58331865
-0.67381388 0.63129002 0.52672577
-0.70747942 0.62406951 0.5462321
-0.75589997 0.63071954 0.57626915
-0.79547775 0.6264478 0.5999409
-0.65867174 0.62507439 0.5353328
-0.70210892 0.62770718 0.56520379
-0.7406376 0.62639511 0.59091008
-0.78903651 0.62900966 0.62287444
-0.64941126 0.62478888 0.54915893
-0.69182992 0.62739998 0.58001077
-0.73130226 0.62603724 0.60873491
-0.77764523 0.62859029 0.6436606
-0.64112002 0.62748826 0.56405759
-0.67760086 0.62411511 0.59268928
-0.72291744 0.62864619 0.62863183
-0.76333743 0.62623292 0.66035575
-0.63482857 0.6301949 0.5789938
-0.67025334 0.62676382 0.61060572
-0.70962816 0.62631047 0.64434612
-0.7529195 0.62779868 0.68219644
-0.62063694 0.62694621 0.58967292
-0.65604305 0.62349701 0.62228453
-0.69733471 0.62497813 0.66009718
-0.74056989 0.62641215 0.70094651
-0.61236447 0.62966371 0.60357189
-0.6457414 0.6241715 0.63810921
-0.68401879 0.62462395 0.67684722
-0.72523957 0.62503284 0.71864057
-0.60112703 0.62838924 0.61634278
-0.63641292 0.62683117 0.65498835
-0.67169887 0.62527323 0.69363391
-0.71286345 0.62562788 0.73842627
-0.58990443 0.62813264 0.6281321
-0.62022561 0.62257552 0.66561198
-0.65938276 0.62492263 0.71040267
-0.69753695 0.62324882 0.75610226
-0.57572764 0.62590188 0.63782954
-0.60894287 0.62326455 0.68041813
-0.6451084 0.6236012 0.72511649
-0.6812256 0.62188399 0.77277786
-0.56450486 0.62564534 0.64961874
-0.59570575 0.62198287 0.69315147
-0.62983423 0.62227619 0.7398116
-0.66686845 0.62248987 0.79152638
-0.55228245 0.62538517 0.66138923
-0.58049172 0.61971235 0.70482945
-0.61553723 0.6219365 0.75554305
-0.65348852 0.62408113 0.8113113
-0.53910547 0.62315804 0.67110556
-0.57015955 0.62336826 0.72170788
-0.60123634 0.62259674 0.77129263
-0.6352188 0.62174559 0.82593197
-0.52785617 0.624883 0.68393046
-0.55398703 0.62013042 0.73134983
-0.58403045 0.61831933 0.78289706
-0.61888474 0.62136251 0.84362519
-0.51565248 0.624641 0.69470119
-0.54072332 0.62083036 0.7451188
-0.56874841 0.618994 0.79762805
-0.60256541 0.62199742 0.86033684
-0.50149435 0.6224283 0.70339906
-0.52552801 0.61857784 0.75579721
-0.55248922 0.61868328 0.81132269
-0.583296 0.61965817 0.87493873
-0.48829472 0.6211828 0.71413314
-0.5132376 0.62126297 0.7706207
-0.53718847 0.61933988 0.82705349
-0.56210959 0.61538452 0.88546824
-0.47606441 0.62292236 0.72593951
-0.49704242 0.61900687 0.78128028
-0.51995212 0.61804384 0.83971161
-0.54767668 0.62093526 0.90730584
-0.46187976 0.62269127 0.73567307
-0.48377484 0.62070662 0.79506725
-0.5046888 0.61873662 0.85344303
-0.52746749 0.61764699 0.918872
-0.44772169 0.62047851 0.74437094
-0.46757182 0.62045026 0.80576289
-0.48647133 0.61745507 0.86508268
-0.507209 0.61732197 0.93249142
-0.43744171 0.62518847 0.75826836
-0.45041427 0.61822671 0.81440431
-0.46922714 0.61815882 0.87777686
-0.48793161 0.61698246 0.94712931
-0.42227986 0.623972 0.76696551
-0.43425655 0.61600691 0.82306463
-0.45098704 0.61785907 0.89043421
-0.46671474 0.61569017 0.95871264
-0.4071368 0.62277365 0.77466285
-0.41900808 0.61771756 0.83581436
-0.43374282 0.61856264 0.90312839
-0.44741079 0.61733216 0.97438622
-0.39392537 0.62452763 0.78545094
-0.40184659 0.61649388 0.8444739
-0.41456693 0.61631387 0.91273195
-0.42619386 0.61603993 0.98596948
-0.37780899 0.62134421 0.79209387
-0.38561699 0.61821914 0.85620522
-0.39344758 0.61411232 0.91929895
-0.40403333 0.61479831 0.99453509
-0.3636204 0.62211287 0.80184543
-0.36847818 0.61601371 0.86384702
-0.37615806 0.61677945 0.93402845
-0.38377094 0.61547315 1.0081725
-0.34847337 0.62191433 0.80956084
-0.35131276 0.61578989 0.8725245
-0.35603851 0.61458135 0.94061422
-0.36156905 0.61519521 1.0187554
-0.33334902 0.62073404 0.81625861
-0.33318892 0.61459887 0.87916589
-0.33585888 0.61332893 0.95021701
-0.3384313 0.61296833 1.0262845
-0.31724352 0.61956823 0.82193786
-0.31504637 0.61338967 0.88680696
-0.31475827 0.61114532 0.95578438
-0.31620279 0.61467195 1.037903
-0.30205512 0.62033337 0.8316707
-0.29689991 0.61318034 0.89446598
-0.29459342 0.61091071 0.96440548
-0.29306117 0.61344481 1.0454501
-0.2859723 0.61818582 0.83633226
-0.27971184 0.61393833 0.90416127
-0.27538306 0.61264324 0.97508079
-0.27087799 0.61318493 1.0550333
-0.26886702 0.61701638 0.84199274
-0.26156536 0.61372906 0.91182023
-0.25430116 0.61047781 0.97964841
-0.24681532 0.61102682 1.058545
-0.25276151 0.61585063 0.84767205
-0.24252051 0.6116069 0.91442621
-0.23408709 0.61320645 0.99032295
-0.22358307 0.61372674 1.0701628
-0.23665604 0.61468488 0.85335141
-0.22432871 0.61336106 0.9241206
-0.21209203 0.60811037 0.99081916
-0.19956572 0.60960507 1.0716391
-0.22052395 0.61550063 0.86006635
-0.20528783 0.61023915 0.92670852
-0.19096088 0.60890812 0.99744016
-0.17541641 0.61037409 1.0792034
-0.20437318 0.61629832 0.86778104
-0.18617897 0.61006242 0.93234944
-0.17074683 0.61163688 1.0081147
-0.15141386 0.60727036 1.0796981
-0.18730535 0.61516511 0.87144226
-0.16711146 0.60892206 0.93597305
-0.14776674 0.60755503 1.0076104
-0.12723798 0.61002094 1.0882981
-0.17021877 0.61401385 0.87610304
-0.14797997 0.60972708 0.94263166
-0.12659028 0.61031634 1.0162668
-0.10312609 0.61082608 1.0938631
-0.1531243 0.61486226 0.88079995
-0.12886718 0.61055017 0.94829065
-0.10464747 0.60627425 1.013782
-0.07818383 0.60677326 1.0913218
-0.13507931 0.61274368 0.8834247
-0.10881859 0.60942429 0.95089579
-0.08342573 0.61099905 1.0244738
-0.054004006 0.61052364 1.0999401
-0.11889802 0.61652285 0.89219308
-0.089747176 0.60928375 0.95453739
-0.061290845 0.61279309 1.0310941
-0.029952226 0.61038321 1.102488
-0.10084908 0.61540407 0.89483577
-0.069634579 0.61010319 0.96017766
-0.039325371 0.60973269 1.029627
-0.0050060321 0.60733014 1.0999647
-0.082758754 0.61524904 0.89949584
-0.049646094 0.60803181 0.95976579
-0.016310856 0.60963207 1.0301945
0.019030953 0.60820764 1.1015311
-0.064773828 0.61218494 0.89910352
-0.029593585 0.60790581 0.96238893
0.004654794 0.60657537 1.0287461
0.043003906 0.60713983 1.1000625
-0.047656752 0.61401504 0.90481818
-0.0096238218 0.60585237 0.96097744
0.026646841 0.60549653 1.0283147
0.067893937 0.60414106 1.0945404
-0.029539853 0.61584163 0.91051394
0.0095381923 0.60963881 0.9686898
0.049748026 0.60832304 1.0329349
0.091848172 0.60309124 1.0920721
-0.011483051 0.61672258 0.91319269
0.029425209 0.60565811 0.9632436
0.071725279 0.60826218 1.0315219
0.11686625 0.60398328 1.0926199
0.0065057995 0.6146583 0.91281843
0.049504295 0.60751373 0.96690243
0.093679883 0.60721958 1.0290911
0.14078303 0.60296959 1.0881523
0.024430629 0.61064863 0.90940911
0.070541829 0.60840201 0.96852523
0.11663038 0.60517353 1.0266236
0.16571836 0.60193437 1.0846655
0.043532547 0.61348951 0.91410446
0.091579355 0.60929024 0.97014791
0.13967538 0.60805428 1.0282447
0.18968046 0.60288423 1.0822334
0.062611818 0.61534864 0.91778213
0.11042518 0.60434949 0.96270317
0.1604834 0.60314262 1.0187631
0.21462364 0.60384864 1.0787826
0.080563225 0.61332053 0.91540849
0.13142526 0.60527396 0.96232659
0.18235919 0.60117257 1.0123158
0.23854436 0.60383481 1.0743331
0.099469148 0.60932541 0.91098082
0.15238395 0.60523474 0.95993268
0.20536284 0.60308963 1.0119196
0.26140517 0.60287911 1.066885
0.1185297 0.61120254 0.9136588
0.17233896 0.60419935 0.95753956
0.22838913 0.6059885 1.0125412
0.28524703 0.60193789 1.0584189
0.13748483 0.61017072 0.91128445
0.19334295 0.60612369 0.95718098
0.24922371 0.60305834 1.0040952
0.31021291 0.60388392 1.0559858
0.15646265 0.61012065 0.90992779
0.21323782 0.60414267 0.95177078
0.2721712 0.60502976 1.0007001
0.33090857 0.5990808 1.0405062
0.1754178 0.60908884 0.90755337
0.23313662 0.60316151 0.94637871
0.29407358 0.60504121 0.99528843
0.35377333 0.59912485 1.0330764
0.19541806 0.61001688 0.90719557
0.25409532 0.60312235 0.94398475
0.31491208 0.60311091 0.98686045
0.37660062 0.59920514 1.0236473
0.21435449 0.60900313 0.90382159
0.27399415 0.6021412 0.93859261
0.33575454 0.60218042 0.97845054
0.39946926 0.60024905 1.0162355
0.23329484 0.60898918 0.90046555
0.2938742 0.60117805 0.93220085
0.35659698 0.60124999 0.97004056
0.42438287 0.60324919 1.0108215
0.2511448 0.60505188 0.89305758
0.31584454 0.6041348 0.92984217
0.37950701 0.60325748 0.9646461
0.44408265 0.59944952 0.99537861
0.27321655 0.60991776 0.8957333
0.33676973 0.60513157 0.92546695
0.39722198 0.59844697 0.95022255
0.46591407 0.60053319 0.98598635
0.29002923 0.60602027 0.88634485
0.35663104 0.60418665 0.9180755
0.42117712 0.60241443 0.9468447
0.48770407 0.60065317 0.97457665
0.30996937 0.60600275 0.88297004
0.37441006 0.60132152 0.9066869
0.43991843 0.59958196 0.93343806
0.509498 0.60177308 0.96318507
0.32989085 0.60600328 0.87859565
0.39533919 0.60331821 0.90232974
0.46285504 0.60357106 0.92907929
0.52922827 0.60095465 0.94879597
0.34877503 0.60604364 0.8722406
0.4151631 0.60240936 0.89293891
0.48468646 0.60465473 0.91968697
0.54793614 0.59915817 0.93340796
0.36870041 0.6070441 0.86788416
0.43605086 0.60344237 0.88656437
0.50243193 0.60282564 0.90631711
0.56766647 0.59833974 0.91901886
0.38755804 0.60510284 0.86049354
0.45589739 0.60351533 0.87819129
0.52222228 0.60295284 0.89494503
0.58842313 0.59949946 0.90564668
0.40744597 0.60613942 0.85413778
0.47470278 0.60262823 0.86781967
0.54201269 0.60308003 0.88357294
0.60715759 0.59968448 0.89129442
0.42631143 0.60619789 0.8467831
0.49248958 0.60176271 0.85646707
0.55973947 0.60126907 0.86920339
0.62382835 0.59793133 0.8739447
0.44517687 0.60625631 0.83942842
0.51540744 0.60576993 0.85110873
0.57849264 0.60143602 0.85585082
0.64254397 0.59813446 0.85859287
0.46608731 0.60827106 0.83407158
0.5331943 0.60490447 0.83975619
0.5982908 0.60356283 0.84451473
0.66332728 0.60127568 0.84625632
0.48182526 0.60444951 0.82070327
0.55093974 0.60307539 0.82638633
0.6191076 0.60566801 0.83415955
0.67997932 0.59954053 0.82790691
0.50065327 0.6045441 0.81134933
0.57075667 0.60518414 0.81604993
0.63066602 0.59902412 0.81181538
0.69872153 0.60172528 0.81359071
0.52154499 0.60657686 0.80499274
0.58852482 0.6043368 0.80369771
0.65046823 0.6021508 0.80049741
0.71437764 0.60099369 0.79527813
0.53830534 0.60373354 0.79262334
0.60527438 0.60351115 0.79036474
0.66613919 0.60040122 0.78316641
0.72903401 0.60026556 0.77698433
0.55711854 0.60484606 0.78228772
0.62713629 0.60757619 0.78202611
0.68285519 0.60061151 0.76785207
0.7436716 0.59955561 0.75769091
0.57592791 0.60495877 0.77193415
0.64284861 0.60679024 0.76671255
0.70059371 0.60180002 0.75353664
0.76239908 0.60275823 0.74239308
0.59676343 0.60704577 0.76257861
0.65853435 0.6040228 0.75036323
0.72035843 0.60496294 0.7402193
0.77908158 0.60400462 0.72509742
0.61250925 0.60522389 0.7492463
0.67426538 0.60321879 0.73604929
0.73196602 0.60128224 0.7199285
0.7906971 0.60232365 0.70484263
0.63128108 0.60537279 0.7368933
0.68995893 0.60245097 0.71973604
0.75071228 0.60446686 0.7056303
0.80533862 0.60261351 0.6855672
0.65109807 0.60748154 0.72655696
0.70769751 0.60363942 0.70542061
0.76539123 0.60472053 0.68835419
0.81593949 0.60195398 0.66434962
0.66885138 0.60765207 0.7132231
0.7244361 0.60483152 0.69112396
0.77700281 0.60203975 0.66808146
0.83060366 0.60322565 0.64609182
0.68558615 0.60784429 0.69890845
0.74012971 0.60406369 0.67481071
0.79370803 0.60426784 0.65180343
0.84322685 0.60354084 0.62585437
0.70025331 0.60509855 0.68157828
0.75582731 0.60429567 0.65851551
0.80532354 0.60258687 0.6315487
0.85485017 0.60385948 0.6056357
0.71902913 0.60624725 0.6692434
0.77050626 0.60454935 0.64123935
0.82205129 0.60579675 0.61628842
0.86545497 0.60419995 0.58443606
0.73677158 0.60843551 0.65494591
0.78620768 0.60578126 0.62496215
0.83264828 0.60413748 0.59505278
0.87607855 0.60452217 0.56423622
0.75246507 0.60766768 0.6386326
0.79784191 0.60408217 0.60570711
0.84529412 0.6054343 0.57583296
0.8856796 0.60386628 0.54303735
0.76613635 0.60592538 0.62133932
0.81556952 0.60728836 0.59042799
0.85693616 0.60573488 0.55661392
0.89528853 0.60521019 0.52187461
0.78183389 0.6061573 0.60504407
0.82922995 0.60756373 0.57217097
0.8675558 0.60505742 0.53639603
0.90286732 0.6035797 0.49969569
0.79753143 0.60638934 0.58874887
0.83882314 0.60490823 0.55093616
0.88325024 0.60930681 0.51917315
0.91147637 0.60492706 0.47855172
0.81319153 0.60665756 0.5704543
0.85553229 0.60813618 0.53467619
0.88982528 0.60668015 0.49699503
0.9210853 0.60627097 0.45738894
0.82484841 0.60594022 0.55221695
0.86615181 0.60745859 0.5144583
0.90347487 0.60897326 0.47777444
0.93373901 0.60956752 0.43820518
0.83848614 0.60523385 0.53294224
0.8737455 0.6048103 0.49326101
0.91207999 0.60932082 0.45661247
0.9382996 0.60796595 0.41508296
0.85415018 0.60650182 0.51466572
0.88637263 0.60612524 0.4730415
0.91763657 0.60671586 0.43345347
0.94691265 0.61031318 0.39395702
0.86781061 0.60677719 0.49640876
0.903063 0.60937124 0.45578188
0.92524189 0.60706699 0.41231024
0.95249963 0.61068958 0.37185171
0.88447827 0.60904145 0.47813147
0.91366774 0.60971165 0.43458232
0.93787682 0.61038166 0.3921268
0.95808667 0.61106598 0.34974647
0.89812392 0.61033469 0.45889282
0.92225027 0.60907745 0.41240266
0.9485082 0.61270356 0.3719629
0.97071075 0.61639839 0.32859936
0.9077211 0.60867906 0.43767601
0.93590379 0.61237037 0.39320007
0.96012861 0.61703974 0.35081661
0.97127211 0.61481118 0.30555233
0.91932565 0.60901588 0.41645765
0.94348651 0.61173975 0.37103921
0.96368539 0.61444193 0.32769519
0.97283715 0.6142202 0.28250453
0.93495619 0.61131984 0.39619982
0.96015126 0.61802143 0.35183433
0.96323907 0.61085868 0.30463091
0.97339451 0.61163318 0.25943947
0.94656479 0.61265647 0.37499949
0.96976012 0.61936533 0.33067155
0.9768669 0.61718726 0.28348309
0.97901207 0.61499095 0.23838791
0.9601956 0.61496776 0.35477924
0.97129476 0.61579293 0.30657002
0.97942793 0.61559284 0.26039848
0.88504368 0.55104131 0.19997744
0.97078174 0.61532623 0.33257997
0.9849146 0.62012184 0.28538615
0.9820115 0.61498022 0.23833154
0.61322433 0.36814523 0.14073813
0.98035318 0.61670619 0.30941787
0.98544943 0.61655313 0.2613034
0.88098335 0.54509288 0.19794516
0.60692495 0.36343896 0.12576587
0.98992068 0.61708635 0.28623778
0.99101776 0.61694765 0.23819846
0.59912354 0.35625175 0.137786
0.57652968 0.34285769 0.10895696
1.0005146 0.61944449 0.26407456
0.91512269 0.56289542 0.20162927
0.58981693 0.34955657 0.12283407
-0.02611593 -0.059798401 0.050936799
1.0070561 0.61785382 0.23991515
0.61717039 0.36416775 0.13859159
0.58351362 0.34385052 0.10784379
0.59210187 0.35425064 0.083862998
0.99650925 0.60737997 0.21291399
0.60283023 0.35350928 0.12266187
-0.02611593 -0.059798401 0.050936799
0.56475532 0.33662191 0.069051087
0.6281684 0.36412826 0.13838488
0.58546406 0.34088004 0.10575283
0.58100063 0.3423464 0.08085449
0.56551564 0.33785334 0.056054723
-0.02611593 -0.059798401 0.050936799
0.58218676 0.3371447 0.091741875
0.56068712 0.32867384 0.066982783
0.56429118 0.338074 0.044077583
0.58639884 0.3339138 0.10360859
0.57790965 0.33341298 0.077749707
0.56543595 0.33190861 0.052947629
0.56005931 0.33630577 0.032120772
0.61020219 0.34706059 0.090396255
0.56459188 0.32373267 0.062818885
0.56621504 0.33312193 0.04095092
0.55681258 0.33555186 0.019163532
0.58383268 0.32844657 0.074547887
0.5783813 0.33291605 0.049722385
0.56496787 0.33236083 0.027956102
0.56760246 0.34474599 0.0061234087
-0.02611593 -0.059798401 0.050936799
0.56710851 0.32519206 0.036789339
0.56573212 0.33459204 0.014977753
0.57335895 0.34997687 -0.0078944974
-0.02611593 -0.059798401 0.050936799
0.57186115 0.32942668 0.022772206
0.56948107 0.33783045 0.00096138939
0.58212656 0.35819644 -0.021914717
-0.02611593 -0.059798401 0.050936799
0.58061707 0.33464676 0.0086979307
0.57024139 0.33906186 -0.012034975
-0.02611593 -0.059798401 0.050936799
0.58974558 0.3294706 0.016436011
0.57935125 0.33390376 -0.0052965544
0.57399434 0.3433001 -0.026033316
0.59164375 0.36966518 -0.049894936
0.5874759 0.32773137 0.0024423003
0.58210021 0.33714575 -0.019294128
0.58973891 0.35553002 -0.042112328
0.59038967 0.37192166 -0.06383536
0.59319103 0.33199862 -0.013592947
0.58881915 0.34240916 -0.035330147
0.59247327 0.35978991 -0.057091538
0.61111557 0.38916901 -0.081917539
0.5859105 0.32727784 -0.02754676
0.60356003 0.35364294 -0.051408373
0.61018789 0.37404853 -0.075171411
0.79156727 0.52049196 -0.13793957
0.60962802 0.34251469 -0.04572136
0.63524735 0.37590417 -0.072606154
0.75271195 0.47433227 -0.12104136
0.90000415 0.60191911 -0.18451266
0.70625859 0.40573472 -0.078398019
0.75477594 0.45720142 -0.11438762
0.75836396 0.48167142 -0.14102119
0.93056154 0.62932789 -0.21359885
0.75284356 0.43606743 -0.10673113
0.75942016 0.46254441 -0.13438471
0.76401585 0.48901042 -0.16100103
0.92318839 0.62971479 -0.23346053
0.76147622 0.44341382 -0.127767
0.76007605 0.46588397 -0.15334301
0.77065283 0.49736384 -0.1819813
0.91680419 0.63211578 -0.25430462
0.76409829 0.44778231 -0.1487442
0.76071316 0.46924168 -0.17330095
0.82812625 0.54281723 -0.21924774
0.21000758 0.11478664 -0.031353887
0.7657125 0.4501546 -0.16973862
0.77032 0.4796201 -0.19630089
0.21699844 0.11276187 -0.031521458
0.1999671 0.10884165 -0.032273762
0.76833844 0.45552287 -0.19069777
0.21002749 0.10071667 -0.027607501
0.20493568 0.10584231 -0.03342142
-0.02611593 -0.059798401 0.050936799
0.75399917 0.44988167 -0.20753706
0.20394583 0.098810911 -0.031529441
-0.02611593 -0.059798401 0.050936799
0.16295451 0.084906161 -0.028012309
0.20690691 0.093819074 -0.032675572
-0.02611593 -0.059798401 0.050936799
0.1718967 0.084928125 -0.031180404
-0.02611593 -0.059798401 0.050936799
-0.02611593 -0.059798401 0.050936799
0.17586546 0.081932381 -0.032309286
-0.02611593 -0.059798401 0.050936799
0.1498545 0.078026369 -0.031892806
0.17284939 0.072926588 -0.031415414
-0.02611593 -0.059798401 0.050936799
0.14784217 0.070016809 -0.030999705
-0.02611593 -0.059798401 0.050936799
-0.02611593 -0.059798401 0.050936799
0.14982609 0.066010326 -0.031109363
-0.02611593 -0.059798401 0.050936799
0.12683725 0.063075282 -0.029731572
0.1527724 0.062036406 -0.033237126
-0.02611593 -0.059798401 0.050936799
0.13179103 0.061093856 -0.031860892
-0.02611593 -0.059798401 0.050936799
-0.02611593 -0.059798401 0.050936799
0.1277978 0.053073399 -0.029930547
-0.02611593 -0.059798401 0.050936799
0.11082354 0.054116149 -0.028593436
0.1347177 0.052120805 -0.034078747
-0.02611593 -0.059798401 0.050936799
0.10881122 0.046106592 -0.027700342
-0.02611593 -0.059798401 0.050936799
-0.02611593 -0.059798401 0.050936799
0.11770507 0.048182495 -0.03383138
-0.02611593 -0.059798401 0.050936799
0.096809484 0.045149833 -0.027492873
0.11569668 0.041172776 -0.032920264
-0.02611593 -0.059798401 0.050936799
0.10272957 0.044200826 -0.031622279
-0.02611593 -0.059798401 0.050936799
-0.02611593 -0.059798401 0.050936799
0.098721534 0.037198287 -0.030673578
-0.02611593 -0.059798401 0.050936799
0.085784003 0.038190506 -0.027412303
0.099682979 0.032213632 -0.031782128
-0.02611593 -0.059798401 0.050936799
0.086734585 0.035223603 -0.029484473
-0.02611593 -0.059798401 0.050936799
-0.02611593 -0.059798401 0.050936799
0.08669623 0.030242547 -0.030574225
-0.02611593 -0.059798401 0.050936799
0.077751026 0.034237985 -0.028333716
0.086657867 0.025261482 -0.031663984
-0.02611593 -0.059798401 0.050936799
0.077716596 0.030256758 -0.029405449
-0.02611593 -0.059798401 0.050936799
-0.02611593 -0.059798401 0.050936799
0.076678425 0.02527928 -0.03047641
-0.02611593 -0.059798401 0.050936799
0.065763183 0.027246065 -0.026235029
0.075640239 0.020301813 -0.031547379
-0.02611593 -0.059798401 0.050936799
0.067694865 0.024293663 -0.029325657
-0.02611593 -0.059798401 0.050936799
-0.02611593 -0.059798401 0.050936799
0.066675402 0.019298105 -0.029396959
-0.02611593 -0.059798401 0.050936799
0.060718797 0.025300527 -0.028176442
0.065622441 0.015338549 -0.031449564
-0.02611593 -0.059798401 0.050936799
0.058699526 0.02030856 -0.028228953
-0.02611593 -0.059798401 0.050936799
-0.02611593 -0.059798401 0.050936799
0.059631385 0.017359737 -0.031300783
-0.02611593 -0.059798401 0.050936799
0.051738255 0.020297503 -0.026098095
0.058593217 0.012382269 -0.032371737
-0.02611593 -0.059798401 0.050936799
0.052670114 0.017348681 -0.029169925
-0.02611593 -0.059798401 0.050936799
-0.02611593 -0.059798401 0.050936799
0.051635869 0.013371044 -0.030222867
-0.02611593 -0.059798401 0.050936799
0.043757521 0.015290882 -0.024038542
0.051563993 0.0094259959 -0.033293929
-0.02611593 -0.059798401 0.050936799
0.043689571 0.012345658 -0.027091581
-0.02611593 -0.059798401 0.050936799
-0.02611593 -0.059798401 0.050936799
0.045610383 0.011411006 -0.031145826
-0.02611593 -0.059798401 0.050936799
0.039720807 0.015341416 -0.025962699
0.045538504 0.0074659572 -0.034216888
-0.02611593 -0.059798401 0.050936799
0.038649112 0.01139995 -0.029014967
-0.02611593 -0.059798401 0.050936799
-0.02611593 -0.059798401 0.050936799
0.038595952 0.0074368124 -0.031086367
-0.02611593 -0.059798401 0.050936799
0.033724919 0.011345537 -0.024922371
0.034591846 0.001434095 -0.03011965
-0.02611593 -0.059798401 0.050936799
0.03362345 0.0094363289 -0.029956713
-0.02611593 -0.059798401 0.050936799
-0.02611593 -0.059798401 0.050936799
0.029652854 0.0023976031 -0.027008701
-0.02611593 -0.059798401 0.050936799
0.028717978 0.0093638282 -0.024864458
0.032506455 0.0035313796 -0.035044342
-0.02611593 -0.059798401 0.050936799
0.02666519 0.0054078619 -0.026898276
-0.02611593 -0.059798401 0.050936799
-0.02611593 -0.059798401 0.050936799
0.02559742 0.002466226 -0.029932518
-0.02611593 -0.059798401 0.050936799
0.022726016 0.0063677737 -0.023806106
0.023578148 -0.0025257422 -0.029985026
-0.02611593 -0.059798401 0.050936799
0.02264327 0.0044404757 -0.027840789
-0.02611593 -0.059798401 0.050936799
-0.02611593 -0.059798401 0.050936799
0.02059048 0.00048451289 -0.0298746
-0.02611593 -0.059798401 0.050936799
0.019689117 0.0064147185 -0.025749054
0.01855641 -0.0034895428 -0.03090876
-0.02611593 -0.059798401 0.050936799
0.018606555 0.0044910097 -0.029764947
-0.02611593 -0.059798401 0.050936799
-0.02611593 -0.059798401 0.050936799
0.014635962 -0.0025477093 -0.026816934
-0.02611593 -0.059798401 0.050936799
0.014715697 0.0033970005 -0.023709837
0.013534678 -0.0044533364 -0.031832479
-0.02611593 -0.059798401 0.050936799
0.013618339 0.0024912038 -0.02870737
-0.02611593 -0.059798401 0.050936799
-0.02611593 -0.059798401 0.050936799
0.010599246 -0.0024971752 -0.028741091
-0.02611593 -0.059798401 0.050936799
0.01067898 0.0034475341 -0.025633994
0.0085651828 -0.0064712306 -0.029775243
-0.02611593 -0.059798401 0.050936799
0.0086301211 0.00049140182 -0.027649797
-0.02611593 -0.059798401 0.050936799
-0.02611593 -0.059798401 0.050936799
0.0056445487 -0.0055329897 -0.025702212
-0.02611593 -0.059798401 0.050936799
0.007642088 0.0034944788 -0.027576949
0.0045471932 -0.0064387862 -0.030699749
-0.02611593 -0.059798401 0.050936799
0.0055932244 0.00053834659 -0.029592745
-0.02611593 -0.059798401 0.050936799
-0.02611593 -0.059798401 0.050936799
0.0016078348 -0.0054824562 -0.027626373
-0.02611593 -0.059798401 0.050936799
0.0046239146 0.0035233346 -0.028520238
0.00051047944 -0.0063882526 -0.032623902
-0.02611593 -0.059798401 0.050936799
0.0015752331 0.00057079142 -0.030517247
-0.02611593 -0.059798401 0.050936799
-0.02611593 -0.059798401 0.050936799
-0.001443854 -0.0044175917 -0.030550968
-0.02611593 -0.059798401 0.050936799
0.00062071753 0.0025378596 -0.028463092
-0.0035075117 -0.0063558081 -0.033548407
-0.02611593 -0.059798401 0.050936799
-0.02611593 -0.059798401 0.050936799
-0.02611593 -0.059798401 0.050936799
-0.02611593 -0.059798401 0.050936799
-0.0054283282 -0.0054211556 -0.029494159
-0.02611593 -0.059798401 0.050936799
-0.0033489605 0.00051637972 -0.02642465
-0.0084918039 -0.0073557831 -0.032472808
-0.02611593 -0.059798401 0.050936799
-0.02611593 -0.059798401 0.050936799
-0.02611593 -0.059798401 0.050936799
-0.02611593 -0.059798401 0.050936799
-0.02611593 -0.059798401 0.050936799
-0.02611593 -0.059798401 0.050936799
-0.02611593 -0.059798401 0.050936799
-0.02611593 -0.059798401 0.050936799
-0.02611593 -0.059798401 0.050936799
-0.02611593 -0.059798401 0.050936799
-0.02611593 -0.059798401 0.050936799
-0.02611593 -0.059798401 0.050936799
-0.02611593 -0.059798401 0.050936799
-0.02611593 -0.059798401 0.050936799
-0.02611593 -0.059798401 0.050936799
-0.02611593 -0.059798401 0.050936799
-0.02611593 -0.059798401 0.050936799
-0.02611593 -0.059798401 0.050936799
-0.02611593 -0.059798401 0.050936799
-0.02611593 -0.059798401 0.050936799
-0.02611593 -0.059798401 0.050936799
-0.02611593 -0.059798401 0.050936799
-0.013418094 0.0016244521 -0.030217372
-0.02611593 -0.059798401 0.050936799
-0.02611593 -0.059798401 0.050936799
-0.02611593 -0.059798401 0.050936799
-0.02611593 -0.059798401 0.050936799
-0.02611593 -0.059798401 0.050936799
-0.02611593 -0.059798401 0.050936799
-0.02611593 -0.059798401 0.050936799
-0.02611593 -0.059798401 0.050936799
-0.024559837 -0.0062261736 -0.036152784
-0.02611593 -0.059798401 0.050936799
-0.02611593 -0.059798401 0.050936799
-0.02611593 -0.059798401 0.050936799
-0.02611593 -0.059798401 0.050936799
-0.02611593 -0.059798401 0.050936799
-0.02611593 -0.059798401 0.050936799
-0.02611593 -0.059798401 0.050936799
-0.02611593 -0.059798401 0.050936799
-0.02611593 -0.059798401 0.050936799
-0.02611593 -0.059798401 0.050936799
-0.02611593 -0.059798401 0.050936799
-0.02611593 -0.059798401 0.050936799
-0.02611593 -0.059798401 0.050936799
-0.02611593 -0.059798401 0.050936799
-0.02611593 -0.059798401 0.050936799
-0.02611593 -0.059798401 0.050936799
-0.02611593 -0.059798401 0.050936799
-0.02611593 -0.059798401 0.050936799
-0.02611593 -0.059798401 0.050936799
-0.02611593 -0.059798401 0.050936799
-0.02611593 -0.059798401 0.050936799
-0.02611593 -0.059798401 0.050936799
-0.02611593 -0.059798401 0.050936799
-0.035524309 -0.0072227037 -0.03396479
-0.02611593 -0.059798401 0.050936799
-0.02611593 -0.059798401 0.050936799
-0.02611593 -0.059798401 0.050936799
-0.02611593 -0.059798401 0.050936799
-0.02611593 -0.059798401 0.050936799
-0.02611593 -0.059798401 0.050936799
-0.02611593 -0.059798401 0.050936799
-0.039504852 -0.0072264373 -0.032889966
-0.02611593 -0.059798401 0.050936799
-0.02611593 -0.059798401 0.050936799
-0.02611593 -0.059798401 0.050936799
-0.02611593 -0.059798401 0.050936799
-0.02611593 -0.059798401 0.050936799
-0.02611593 -0.059798401 0.050936799
-0.02611593 -0.059798401 0.050936799
-0.043504123 -0.0072120819 -0.032814804
-0.02611593 -0.059798401 0.050936799
-0.02611593 -0.059798401 0.050936799
-0.02611593 -0.059798401 0.050936799
-0.02611593 -0.059798401 0.050936799
-0.02611593 -0.059798401 0.050936799
-0.02611593 -0.059798401 0.050936799
-0.02611593 -0.059798401 0.050936799
-0.048499275 -0.0061943065 -0.032702833
-0.02611593 -0.059798401 0.050936799
-0.02611593 -0.059798401 0.050936799
-0.02611593 -0.059798401 0.050936799
-0.02611593 -0.059798401 0.050936799
-0.046435621 -0.0042560901 -0.029705394
-0.02611593 -0.059798401 0.050936799
-0.02611593 -0.059798401 0.050936799
-0.052513342 -0.0051620314 -0.033609316
-0.02611593 -0.059798401 0.050936799
-0.02611593 -0.059798401 0.050936799
-0.02611593 -0.059798401 0.050936799
-0.02611593 -0.059798401 0.050936799
-0.02611593 -0.059798401 0.050936799
-0.02611593 -0.059798401 0.050936799
-0.02611593 -0.059798401 0.050936799
-0.055427037 -0.0072413711 -0.028590668
-0.02611593 -0.059798401 0.050936799
-0.02611593 -0.059798401 0.050936799
-0.02611593 -0.059798401 0.050936799
-0.02611593 -0.059798401 0.050936799
-0.055448767 -0.003205874 -0.030517913
-0.02611593 -0.059798401 0.050936799
-0.04738228 -0.00028936437 -0.027615204
-0.060455706 -0.0051875873 -0.030459996
-0.02611593 -0.059798401 0.050936799
-0.054451965 0.0008079487 -0.031464297
-0.02611593 -0.059798401 0.050936799
-0.02611593 -0.059798401 0.050936799
-0.057377439 -0.0042708796 -0.026499715
-0.02611593 -0.059798401 0.050936799
-0.05241096 0.0017644197 -0.02948454
-0.064413607 -0.004209579 -0.028367497
-0.02611593 -0.059798401 0.050936799
-0.058432508 0.00080421532 -0.030389469
-0.02611593 -0.059798401 0.050936799
-0.02611593 -0.059798401 0.050936799
-0.063420728 -0.0011955904 -0.029331896
-0.02611593 -0.059798401 0.050936799
-0.055391688 0.0017570973 -0.028428502
-0.070475623 -0.0011162008 -0.032199349
-0.02611593 -0.059798401 0.050936799
-0.062442645 0.0028363178 -0.031277932
-0.02611593 -0.059798401 0.050936799
-0.02611593 -0.059798401 0.050936799
-0.067382552 -0.001217413 -0.027257409
-0.02611593 -0.059798401 0.050936799
-0.059387028 0.0027712835 -0.028335318
-0.074437439 -0.0011380233 -0.030124854
-0.02611593 -0.059798401 0.050936799
-0.06537506 0.00077507045 -0.027258955
-0.02611593 -0.059798401 0.050936799
-0.02611593 -0.059798401 0.050936799
-0.070363283 -0.0012247352 -0.026201379
-0.02611593 -0.059798401 0.050936799
-0.063348852 0.0027494612 -0.026260838
-0.080424562 0.0018829984 -0.029958054
-0.02611593 -0.059798401 0.050936799
-0.072432965 0.0048718681 -0.031053994
-0.02611593 -0.059798401 0.050936799
-0.02611593 -0.059798401 0.050936799
-0.077383734 0.0028358842 -0.027997091
-0.02611593 -0.059798401 0.050936799
-0.069392137 0.005824754 -0.029093027
-0.085419714 0.0029007737 -0.029846083
-0.02611593 -0.059798401 0.050936799
-0.076409578 0.0058679655 -0.029961146
-0.02611593 -0.059798401 0.050936799
-0.02611593 -0.059798401 0.050936799
-0.081345558 0.0028140617 -0.025922608
-0.02611593 -0.059798401 0.050936799
-0.071324736 0.0037599141 -0.025092836
-0.092440173 0.0069613894 -0.031641811
-0.02611593 -0.059798401 0.050936799
-0.080371402 0.0058461428 -0.027886663
-0.02611593 -0.059798401 0.050936799
-0.02611593 -0.059798401 0.050936799
-0.085322171 0.0038101589 -0.024829768
-0.02611593 -0.059798401 0.050936799
-0.076334685 0.0057956092 -0.025962509
-0.096383266 0.0069214776 -0.028567664
-0.02611593 -0.059798401 0.050936799
-0.084333226 0.0058243205 -0.025812183
-0.02611593 -0.059798401 0.050936799
-0.02611593 -0.059798401 0.050936799
-0.093361169 0.0078924596 -0.027606349
-0.02611593 -0.059798401 0.050936799
-0.081325918 0.0078132153 -0.025832515
-0.10539943 0.011989109 -0.030307774
-0.02611593 -0.059798401 0.050936799
-0.088309839 0.00682041 -0.024719343
-0.02611593 -0.059798401 0.050936799
-0.02611593 -0.059798401 0.050936799
-0.10137752 0.012956495 -0.029365249
-0.02611593 -0.059798401 0.050936799
-0.085291661 0.0067915544 -0.023776047
-0.11136783 0.014992046 -0.029141311
-0.02611593 -0.059798401 0.050936799
-0.095311575 0.010862945 -0.025515396
-0.02611593 -0.059798401 0.050936799
-0.02611593 -0.059798401 0.050936799
-0.10836445 0.01598111 -0.029179662
-0.02611593 -0.059798401 0.050936799
-0.09231212 0.010852178 -0.025571767
-0.11935458 0.018020242 -0.02893693
-0.02611593 -0.059798401 0.050936799
-0.10230244 0.012887728 -0.025347821
-0.02611593 -0.059798401 0.050936799
-0.02611593 -0.059798401 0.050936799
-0.11229275 0.014923278 -0.025123883
-0.02611593 -0.059798401 0.050936799
-0.098284446 0.012855283 -0.024423327
-0.12731868 0.022030186 -0.027714878
-0.02611593 -0.059798401 0.050936799
-0.11436243 0.021019885 -0.029976495
-0.02611593 -0.059798401 0.050936799
-0.02611593 -0.059798401 0.050936799
-0.12027165 0.019951144 -0.024883468
-0.02611593 -0.059798401 0.050936799
-0.1073006 0.017922908 -0.026163436
-0.13933036 0.028108416 -0.029380601
-0.02611593 -0.059798401 0.050936799
-0.117287 0.020958297 -0.025921479
-0.02611593 -0.059798401 0.050936799
-0.02611593 -0.059798401 0.050936799
-0.1302689 0.025004268 -0.025605127
-0.02611593 -0.059798401 0.050936799
-0.11024781 0.016879585 -0.023126099
-0.14827164 0.033103682 -0.027122073
-0.02611593 -0.059798401 0.050936799
-0.12728818 0.025011588 -0.026661158
-0.02611593 -0.059798401 0.050936799
-0.02611593 -0.059798401 0.050936799
-0.14429109 0.033107419 -0.028196886
-0.02611593 -0.059798401 0.050936799
-0.12127447 0.023972137 -0.025792256
-0.16024588 0.039145734 -0.026788477
-0.02611593 -0.059798401 0.050936799
-0.13929594 0.032089651 -0.028308861
-0.02611593 -0.059798401 0.050936799
-0.02611593 -0.059798401 0.050936799
-0.15425089 0.038124371 -0.026919238
-0.02611593 -0.059798401 0.050936799
-0.12924251 0.026982252 -0.02458822
-0.177237 0.050241053 -0.028270155
-0.02611593 -0.059798401 0.050936799
-0.14925574 0.037106596 -0.027031209
-0.02611593 -0.059798401 0.050936799
-0.02611593 -0.059798401 0.050936799
-0.16722102 0.045169834 -0.026548833
-0.02611593 -0.059798401 0.050936799
-0.14225009 0.034063891 -0.026217133
-0.19519836 0.059304126 -0.027769756
-0.02611593 -0.059798401 0.050936799
-0.16021538 0.042127136 -0.025734756
-0.02611593 -0.059798401 0.050936799
-0.02611593 -0.059798401 0.050936799
-0.18621178 0.056272328 -0.027992927
-0.02611593 -0.059798401 0.050936799
-0.15420952 0.039088026 -0.024901893
-0.21113743 0.069341756 -0.026289254
-0.02611593 -0.059798401 0.050936799
-0.17215215 0.048133004 -0.023401838
-0.02611593 -0.059798401 0.050936799
-0.02611593 -0.059798401 0.050936799
-0.2051651 0.067338653 -0.027437702
-0.02611593 -0.059798401 0.050936799
-0.16919409 0.047158577 -0.025475547
-0.23607787 0.083429091 -0.025567234
-0.02611593 -0.059798401 0.050936799
-0.19616768 0.062289108 -0.026697244
-0.02611593 -0.059798401 0.050936799
-0.02611593 -0.059798401 0.050936799
-0.2250808 0.078372389 -0.024864368
-0.02611593 -0.059798401 0.050936799
-0.18817005 0.057243161 -0.025938008
-0.26900807 0.10456204 -0.025568422
-0.02611593 -0.059798401 0.050936799
-0.21610208 0.07334093 -0.025123578
-0.02611593 -0.059798401 0.050936799
-0.02611593 -0.059798401 0.050936799
-0.25703779 0.097520165 -0.025920041
-0.02611593 -0.059798401 0.050936799
-0.2101337 0.070337988 -0.026290029
-1.0951324 0.65267819 -0.23525737
-0.02611593 -0.059798401 0.050936799
-0.24706316 0.091485307 -0.02621606
-0.02611593 -0.059798401 0.050936799
-1.1026924 0.65429056 -0.21207881
-1.0794021 0.64685702 -0.2486617
-0.02611593 -0.059798401 0.050936799
-0.23407824 0.083421916 -0.025604814
-1.1042506 0.65186393 -0.18808541
-1.0949866 0.65153372 -0.22727808
-0.99841923 0.59337628 -0.24014249
-0.02611593 -0.059798401 0.050936799
-1.1108108 0.65347272 -0.16492562
-1.1145582 0.65922415 -0.20576525
-1.0571665 0.6264739 -0.23244125
-0.25896642 0.096455164 -0.021901835
-1.1193668 0.65608841 -0.14171025
-1.1181121 0.65780461 -0.18171626
-1.1058456 0.65344614 -0.22003773
-0.02611593 -0.059798401 0.050936799
-1.1149004 0.65060461 -0.11588431
-1.1226658 0.65638858 -0.15764844
-1.1234107 0.65811193 -0.19761688
-0.97879857 0.56560719 -0.20199922
-1.1164507 0.6501776 -0.091854863
-1.124209 0.65294409 -0.1326734
-1.129964 0.65670317 -0.17351148
-1.0084463 0.57742345 -0.1852247
-1.1260211 0.65381491 -0.06960234
-1.1287401 0.65250981 -0.10758792
-1.1405048 0.65830809 -0.14927688
-1.0661268 0.60844547 -0.17357966
-1.1225654 0.65035236 -0.044721238
-1.1352856 0.65310055 -0.083446503
-1.1440251 0.65585256 -0.12324658
-1.1257656 0.64043826 -0.1598797
-1.1201282 0.64691156 -0.020821013
-1.1398313 0.65368426 -0.05934266
-1.1555617 0.65846097 -0.098975174
-1.1583261 0.65519238 -0.13899612
-1.1206748 0.64748085 0.0032076612
-1.1373794 0.64922553 -0.03446079
-1.1540949 0.65298784 -0.07309287
-1.1708478 0.65678644 -0.11372428
-1.1212438 0.64706844 0.026218656
-1.1389109 0.64878041 -0.0094316751
-1.15362 0.64951807 -0.047155738
-1.1743494 0.65431273 -0.0866943
-1.1237862 0.64864463 0.050302934
-1.1474442 0.65237796 0.014801368
-1.1621423 0.65109783 -0.021959059
-1.1798507 0.65184623 -0.059626728
-1.1213413 0.64720356 0.074239209
-1.1419969 0.64690864 0.039608851
-1.1686465 0.65265232 0.004199706
-1.1893542 0.65341151 -0.033411615
-1.1169378 0.64479154 0.096120544
-1.1445242 0.64746702 0.064674772
-1.1681714 0.6491825 0.030136831
-1.1968472 0.65295178 -0.0062704384
-1.1164846 0.64535731 0.12013042
-1.1430978 0.64604753 0.087630168
-1.1716839 0.64872646 0.056203179
-1.1963388 0.6484459 0.021647997
-1.1150541 0.64493763 0.14310384
-1.1426296 0.64559525 0.11262169
-1.1741965 0.64826691 0.082250744
-1.2028279 0.64898247 0.048788399
-1.1086323 0.64250034 0.16594727
-1.1391698 0.64313263 0.13752082
-1.1717366 0.64580792 0.10716865
-1.2092946 0.65050071 0.076946482
-1.1072019 0.64208072 0.18892068
-1.1397017 0.64268398 0.16253114
-1.1692618 0.64233094 0.1330682
-1.2127923 0.64902687 0.10399448
-1.103768 0.64265376 0.21187454
-1.1352608 0.6402359 0.1864118
-1.171752 0.64285314 0.16013345
-1.2112761 0.64651716 0.13193017
-1.101319 0.64221239 0.23582882
-1.1377804 0.64279389 0.21151376
-1.1712651 0.6423828 0.18612465
-1.2137551 0.64502162 0.15995902
-1.0958892 0.64177841 0.25872707
-1.1343168 0.64133102 0.23643088
-1.1747512 0.64390844 0.21322669
-1.2142121 0.64450061 0.18896797
-1.0884866 0.63935578 0.28055203
-1.1288724 0.63987917 0.26031077
-1.1692543 0.64140242 0.24008755
-1.2146727 0.64297974 0.21795893
-1.0840527 0.63992518 0.30348712
-1.1224134 0.63740575 0.28515351
-1.1677717 0.63992864 0.2660419
-1.2171254 0.64346582 0.24702349
-1.076646 0.63850224 0.32533008
-1.1189605 0.63796067 0.30910707
-1.1642666 0.63942951 0.29297638
-1.2185782 0.6439482 0.27606928
-1.0692394 0.63707936 0.34717309
-1.1184846 0.63950807 0.33413461
-1.1617802 0.63895202 0.31893
-1.2130479 0.64040619 0.30491143
-1.0707701 0.64165151 0.37129262
-1.1100446 0.63704562 0.35794011
-1.1602709 0.63945985 0.34592009
-1.2134969 0.64188486 0.33395642
-1.0573988 0.63622582 0.39195114
-1.1045774 0.6365754 0.38283768
-1.1567475 0.63894254 0.37385422
-1.2059895 0.63735396 0.36174333
-1.0509841 0.63680619 0.41384897
-1.0991251 0.63712317 0.40675363
-1.1512613 0.63845432 0.39975145
-1.2064011 0.63879639 0.39278767
-1.0405967 0.63539064 0.43463594
-1.0916849 0.63466424 0.43057793
-1.1447798 0.63696265 0.42561185
-1.1968904 0.63525814 0.420555
-1.0361589 0.63695979 0.45758903
-1.0733414 0.62723899 0.4501068
-1.141252 0.63744521 0.45356405
-1.1973166 0.6377185 0.45061767
-1.0228213 0.63257009 0.47626621
-1.0748118 0.63275677 0.4772433
-1.1317748 0.63494301 0.47935009
-1.1858102 0.63317323 0.47832942
-1.0144069 0.63314337 0.49812645
-1.0624139 0.62931633 0.49895632
-1.1242893 0.63444752 0.50520974
-1.1901679 0.63859326 0.51152027
-1.0030423 0.63074237 0.51787692
-1.053966 0.62885344 0.52279782
-1.1148081 0.63294506 0.53101379
-1.1727077 0.63206285 0.53708392
-0.9995966 0.63431495 0.54088485
-1.0474911 0.63037932 0.54771268
-1.1053268 0.63144255 0.55681783
-1.1730927 0.63548702 0.56916392
-0.98525131 0.63192135 0.55957925
-1.0360891 0.62794226 0.56946248
-1.0948646 0.62995464 0.58160347
-1.1516787 0.62697881 0.59261709
-0.97683698 0.63249451 0.58143955
-1.0266376 0.62847567 0.5933032
-1.0903066 0.63341504 0.61059052
-1.1490642 0.63039213 0.62464076
-0.96349144 0.63010442 0.60015279
-1.0182045 0.6290307 0.61616313
-1.0758716 0.62993109 0.6342653
-1.1375459 0.62884635 0.65240651
-0.95606905 0.63268089 0.62206787
-1.0038217 0.62660092 0.63685691
-1.0653906 0.62842512 0.66005057
-1.1348901 0.6332233 0.6864475
-0.94074649 0.62930191 0.63972586
-0.99632442 0.62910497 0.66277063
-1.0568748 0.6309076 0.68694508
-1.1134907 0.62573314 0.70891893
-0.92641991 0.62692648 0.65742064
-0.98589164 0.62965286 0.68559295
-1.04539 0.63039774 0.71272963
-1.1127892 0.63208067 0.74503291
-0.9160434 0.62752861 0.67724395
-0.97248614 0.6282084 0.70732325
-1.0289741 0.62692475 0.73536712
-1.0894052 0.62560117 0.76648515
-0.89973986 0.62416416 0.69388354
-0.95712221 0.62579316 0.72699857
-1.0214167 0.63037437 0.76429778
-1.0847497 0.62997097 0.80048853
-0.8893407 0.6257481 0.71472448
-0.94371277 0.62534857 0.74874681
-1.0000658 0.62493807 0.78380632
-1.0603845 0.62350601 0.82092237
-0.87796026 0.62734646 0.73454708
-0.926368 0.62294412 0.76738489
-0.98561895 0.62445372 0.80753517
-1.0547065 0.62885392 0.85592467
-0.86262995 0.6259672 0.75224108
-0.91098148 0.62151062 0.78807789
-0.9731304 0.6249401 0.83331883
-1.02641 0.61942929 0.87323022
-0.84634119 0.62362075 0.76789898
-0.89561367 0.62009519 0.80777127
-0.95275271 0.62148899 0.8538819
-1.0217054 0.62676245 0.9092871
-0.83591932 0.62618631 0.78975773
-0.88415456 0.62262106 0.83161044
-0.93730217 0.62200087 0.87760991
-0.99044669 0.61736321 0.92453694
-0.81572199 0.6198985 0.80126971
-0.86876416 0.62218738 0.85232151
-0.92676407 0.62545782 0.90548456
-0.98274654 0.62368572 0.96051931
-0.80431503 0.62347853 0.822128
-0.8504383 0.61979753 0.86994112
-0.90245104 0.62004691 0.92293745
-0.95446092 0.61627889 0.9768613
-0.78898072 0.62309903 0.83983999
-0.83404404 0.62036002 0.89065135
-0.88406515 0.61860263 0.94357407
-0.94282138 0.62164146 1.0097516
-0.77366519 0.62273771 0.85655236
-0.8128016 0.61603212 0.90417993
-0.86661106 0.62010711 0.96728253
-0.91453576 0.61423469 1.0260935
-0.75734991 0.62237281 0.87324595
-0.79934281 0.61855084 0.92798162
-0.84622538 0.61865562 0.98788154
-0.90187389 0.62057537 1.0599827
-0.74590164 0.62691641 0.89612156
-0.78199017 0.61814606 0.94665575
-0.82877529 0.61916029 1.011572
-0.87262589 0.61320114 1.0743065
-0.72278357 0.61969036 0.90356058
-0.76363778 0.61773777 0.96531105
-0.80742729 0.61774141 1.030153
-0.85992259 0.62050545 1.110213
-0.70744145 0.62131053 0.92130864
-0.74430418 0.61734402 0.98294795
-0.7840836 0.6153155 1.0486783
-0.82677287 0.61220753 1.1194453
-0.69014502 0.62096012 0.93698376
-0.7249707 0.61695021 1.0005848
-0.76469004 0.61586732 1.0693321
-0.8120926 0.618523 1.1542965
-0.66895866 0.6166864 0.94751334
-0.70661426 0.61754179 1.0192581
-0.74621344 0.61834997 1.0940396
-0.7799201 0.61121041 1.1645654
-0.65652925 0.62124455 0.96937054
-0.68629968 0.61716241 1.0358765
-0.7219035 0.61695653 1.1105648
-0.76327759 0.61755478 1.1973797
-0.63922888 0.62189394 0.98506373
-0.66404945 0.61483061 1.0494224
-0.69859725 0.61456674 1.1270908
-0.73012394 0.61025667 1.20663
-0.61608028 0.61764926 0.99355644
-0.64468932 0.61641836 1.068095
-0.67718142 0.61609316 1.1487247
-0.71439469 0.61953187 1.2435158
-0.59780282 0.61731339 1.008213
-0.6234163 0.61507183 1.0826772
-0.65189034 0.61471415 1.1642315
-0.6764074 0.60836112 1.244603
