# .PCD v0.7 - Point Cloud Data file format
VERSION 0.7
FIELDS x y z
SIZE 4 4 4
TYPE F F F
COUNT 1 1 1
WIDTH 1395
HEIGHT 1
VIEWPOINT 0 0 0 1 0 0 0
POINTS 1395
DATA ascii
0.078348629 0.60358161 1.0123067
-0.014954834 0.61514115 0.83520263
0.022195455 0.61289066 0.89648712
0.060198791 0.60676384 0.95068318
0.10030323 0.60253906 1.0098759
5.7214871e-05 0.61406946 0.83590245
0.041191977 0.61282247 0.89613014
0.081304274 0.61059725 0.95535898
0.12332559 0.60443801 1.0104795
0.017114202 0.61495394 0.83860004
0.059184756 0.61175799 0.89577389
0.10121788 0.60859823 0.95094842
0.14628786 0.6053915 1.0080661
0.034239136 0.61878383 0.84435064
0.078203931 0.61267161 0.89643449
0.12221402 0.60852289 0.95055383
0.16926888 0.60632694 1.0066521
0.0512321 0.61772293 0.84401315
0.097155154 0.61063993 0.89404219
0.14319539 0.60946542 0.94917762
0.19005816 0.60143328 0.99617082
0.068157107 0.6137169 0.84062266
0.11508784 0.60862994 0.89066893
0.16198112 0.60357916 0.93871588
0.21312977 0.60629565 0.9988277
0.085153989 0.61365587 0.84030318
0.13511077 0.61053973 0.89132875
0.18409428 0.60940874 0.94340891
0.23494545 0.60337991 0.98936331
0.103196 0.61555469 0.84200031
0.15307002 0.6105113 0.88899124
0.20398915 0.60742778 0.93799877
0.25580269 0.60143155 0.98193508
0.12018896 0.61449391 0.84166288
0.17200646 0.60949755 0.8856172
0.22284678 0.60548645 0.93060803
0.27981797 0.60634458 0.98157418
0.13825756 0.61837441 0.84439564
0.1910069 0.61042917 0.88527817
0.24376801 0.60548347 0.92621481
0.29961523 0.60345417 0.97114772
0.15512247 0.61342269 0.8379882
0.21096972 0.61139339 0.8829211
0.26262563 0.60354227 0.91882408
0.31941652 0.60156363 0.96073925
0.17314968 0.6163395 0.83870369
0.22891025 0.61138308 0.8795839
0.28357348 0.60552078 0.91546655
0.34128141 0.60161132 0.95332825
0.19005989 0.6133514 0.83433151
0.2477866 0.60942382 0.87319291
0.30452526 0.60849923 0.91212702
0.36421412 0.60460055 0.94895142
0.20801914 0.61332297 0.831994
0.26568577 0.60844982 0.86783832
0.32331884 0.60461259 0.90170133
0.38295546 0.60176808 0.93554479
0.22493722 0.61233443 0.82765788
0.28561115 0.60945022 0.86348188
0.34218428 0.604671 0.89434665
0.40486962 0.60477901 0.93018717
0.24076487 0.60742259 0.81926984
0.30351424 0.60947603 0.85814536
0.3620683 0.60470778 0.88797289
0.42361099 0.60194659 0.91678047
0.2608183 0.61231381 0.82098347
0.32243979 0.61048001 0.85380769
0.38295996 0.60674059 0.88161635
0.44551033 0.60597545 0.91044122
0.27771375 0.61034358 0.81562972
0.33921498 0.60661864 0.84241992
0.39974305 0.60487896 0.87026465
0.46427822 0.60512447 0.89807022
0.29568082 0.61231476 0.81332815
0.35814452 0.60862255 0.83810031
0.41961226 0.60593355 0.86290926
0.48204634 0.60427707 0.88571805
0.3125349 0.60938096 0.80595702
0.37600622 0.60768467 0.83074635
0.43844026 0.60602814 0.85355526
0.49977309 0.60246611 0.87134856
0.32835168 0.6064868 0.79660535
0.39591682 0.609703 0.82540834
0.45727223 0.60712266 0.84421933
0.51749986 0.60065508 0.85697901
0.34836376 0.61041439 0.79630166
0.41274124 0.60880506 0.81607389
0.47505513 0.60525733 0.83284879
0.534208 0.59886575 0.84162861
0.36518428 0.60851651 0.78694928
0.42952043 0.60594344 0.80470419
0.49078223 0.60345358 0.81851679
0.55198008 0.59901822 0.82929444
0.38413247 0.61050224 0.7836293
0.44530368 0.60408539 0.7933712
0.51065928 0.60650784 0.81119746
0.56975991 0.60117036 0.81699628
0.39997584 0.60958976 0.77531332
0.46315062 0.60416549 0.78503573
0.5294764 0.60862029 0.80087984
0.58955812 0.60329723 0.80566031
0.41681898 0.60867351 0.76697862
0.48100537 0.60624522 0.7767362
0.5431546 0.60386032 0.78453207
0.60320681 0.60057306 0.78734922
0.43468073 0.60773575 0.75962466
0.50090116 0.60928154 0.7704165
0.55992687 0.60401636 0.77221674
0.62096405 0.60174346 0.77403343
0.45046398 0.60587764 0.74829173
0.51664698 0.60745949 0.75708419
0.57668042 0.60419053 0.75890172
0.63768411 0.60295361 0.75873709
0.46937475 0.60789955 0.74297243
0.53447914 0.60855758 0.74776703
0.59345651 0.60534638 0.74660432
0.64931047 0.59925497 0.73944598
0.48415825 0.60604507 0.73165822
0.54922515 0.60673922 0.7344535
0.61021006 0.60552049 0.7332893
0.66709423 0.60240686 0.72716588
0.50405401 0.60908133 0.72533852
0.56602001 0.60787702 0.72315586
0.62699008 0.60767621 0.72100997
0.68077338 0.60266417 0.7099086
0.51883739 0.60722679 0.71402442
0.58281088 0.608015 0.71184015
0.63965762 0.60493761 0.70371741
0.69344878 0.60192519 0.69265205
0.53666955 0.60832477 0.70470726
0.59653836 0.60621834 0.69754583
0.65437406 0.60515511 0.68844062
0.70710528 0.6012007 0.67437702
0.55654669 0.61137921 0.69738787
0.61024714 0.6044398 0.68225175
0.67115414 0.60731077 0.67616129
0.72180694 0.60243607 0.65811867
0.5702889 0.60856456 0.68407512
0.63315809 0.61146462 0.67594773
0.68485206 0.60754997 0.65990371
0.73653126 0.6046533 0.64287794
0.58605736 0.60772437 0.67176056
0.64789331 0.611664 0.66167063
0.69854599 0.60678935 0.643628
0.74716955 0.60395771 0.62365961
0.60387868 0.6108402 0.66147977
0.66160595 0.61088532 0.64639461
0.71224779 0.60802829 0.62738836
0.75883031 0.60424018 0.6054402
0.61862463 0.60902178 0.64816624
0.67533731 0.61008841 0.63211834
0.72901303 0.61120206 0.61412734
0.77049106 0.60452276 0.58722079
0.63642722 0.61215568 0.63688582
0.69107622 0.61128414 0.61784041
0.74068862 0.6104666 0.59688962
0.78215581 0.6058051 0.56901956
0.65117711 0.61133724 0.62359035
0.70579261 0.61150163 0.60256362
0.75336802 0.61072743 0.57965118
0.79281682 0.60609126 0.55081892
0.66588569 0.60955501 0.6082775
0.7225579 0.61467522 0.58930272
0.76605123 0.61198819 0.56243062
0.80041432 0.60444272 0.52963966
0.68164325 0.61073261 0.59499931
0.73423356 0.61393982 0.57206488
0.77670836 0.61127442 0.54421198
0.81210172 0.60670686 0.51245594
0.69535589 0.60995382 0.57972324
0.74793142 0.61417902 0.55580729
0.78736532 0.61056072 0.52599335
0.82174414 0.60701466 0.49327451
0.71009105 0.61015326 0.56544614
0.75962961 0.61442536 0.5395872
0.79803026 0.61184669 0.50781083
0.82734197 0.60537326 0.47213286
0.72583389 0.61234879 0.55118632
0.77128649 0.61370808 0.52134979
0.80566519 0.61016202 0.48863092
0.83701098 0.60766268 0.45398709
0.73852801 0.6115917 0.53492945
0.77891356 0.61002374 0.50213385
0.81833369 0.61244059 0.47042876
0.84361267 0.60701764 0.43284461
0.75425214 0.61380529 0.51966989
0.78857476 0.61031348 0.48395202
0.8239463 0.60978138 0.45026875
0.85125542 0.60733259 0.41370073
0.76795 0.61404449 0.50341231
0.80023551 0.610596 0.46573266
0.83361143 0.61107093 0.43210495
0.85990983 0.61064351 0.39459214
0.77860314 0.61233091 0.48517561
0.80989271 0.60988587 0.44753283
0.84223539 0.61140037 0.4119426
0.86755657 0.61195827 0.37546626
0.78723001 0.60864305 0.46594089
0.82458353 0.61313909 0.43031079
0.84987807 0.61171538 0.39279869
0.86912864 0.60834974 0.35336408
0.80193955 0.61187804 0.44971851
0.83019614 0.61047977 0.41015077
0.85752094 0.61203033 0.37365481
0.87375331 0.6086936 0.33327687
0.81257784 0.61118245 0.43050021
0.8378163 0.60981309 0.38998917
0.86111915 0.61039627 0.35255075
0.87936288 0.61005175 0.31218928
0.82523847 0.61146134 0.41226205
0.85050738 0.61307335 0.37280473
0.87177324 0.61369985 0.33340454
0.88399142 0.61139548 0.29212013
0.83892548 0.61371839 0.39504078
0.85712385 0.61141038 0.35264394
0.87436765 0.61106956 0.31230125
0.88961977 0.61273551 0.27203217
0.84956771 0.61402255 0.37584054
0.86677021 0.61271799 0.33348048
0.87999213 0.61140978 0.29219529
0.89527088 0.61505729 0.2529619
0.85919142 0.61434841 0.35565937
0.87539798 0.61404729 0.31333616
0.88762808 0.61474234 0.27210578
0.8928436 0.61146307 0.23093486
0.87083745 0.61564898 0.33645836
0.88202232 0.61438394 0.2932114
0.89224869 0.61408633 0.2520006
0.6057151 0.40182447 0.16049466
0.88148361 0.61695296 0.31727612
0.8866204 0.6127463 0.27208853
0.82139021 0.55997998 0.21733679
-0.02611593 -0.059798401 0.050936799
0.88102937 0.61137003 0.2941758
0.89424831 0.61407912 0.25196302
0.5785439 0.38101536 0.15562531
-0.02611593 -0.059798401 0.050936799
0.89468288 0.61466289 0.27497324
0.8877874 0.60651809 0.22893941
0.57224065 0.37530929 0.14063503
0.56170946 0.36883476 0.11370595
0.903292 0.61601031 0.25382927
0.59359521 0.3899419 0.15650527
0.55689663 0.36365455 0.12470607
0.56346965 0.37006256 0.10069079
0.80923206 0.54311651 0.21225762
0.57320988 0.37232426 0.13956252
0.55464184 0.36089742 0.11169402
0.55117428 0.3613604 0.086758852
-0.02611593 -0.059798401 0.050936799
0.57194012 0.37058145 0.12555002
-0.02611593 -0.059798401 0.050936799
0.55295718 0.36356995 0.074761376
-0.02611593 -0.059798401 0.050936799
0.55759203 0.35792336 0.10958426
0.54309905 0.35142702 0.084729671
-0.02611593 -0.059798401 0.050936799
-0.02611593 -0.059798401 0.050936799
0.55431479 0.35418805 0.095573306
0.54989278 0.35661811 0.072692297
-0.02611593 -0.059798401 0.050936799
0.59067154 0.37478393 0.11027015
0.55406749 0.35342336 0.08255969
0.54663807 0.35386452 0.059699025
0.57533485 0.3831535 0.037684087
0.55725712 0.34921429 0.093427524
0.55382019 0.35265869 0.069546081
0.55443555 0.36005187 0.047660872
0.6021502 0.40430623 0.023559878
0.55097258 0.34349006 0.079436898
0.55054682 0.34992319 0.055553146
0.55519593 0.36128327 0.034664512
0.58687031 0.39459696 0.010665957
0.55370992 0.34373257 0.065385267
0.5563367 0.35411808 0.043516539
0.55996728 0.36549979 0.021647034
0.57060927 0.38487312 -0.0012095124
0.54744804 0.33899009 0.052412324
0.55709314 0.35434961 0.030502154
0.56772727 0.37172332 0.0076095648
0.57438093 0.38909325 -0.014208194
0.55221158 0.34120697 0.039358813
0.556831 0.35460287 0.016506901
0.56648409 0.37196204 -0.0053672381
-0.02611593 -0.059798401 0.050936799
0.55294925 0.34145662 0.025344769
0.55759138 0.35583431 0.0035105348
0.55523783 0.36621964 -0.017264582
0.56390285 0.38658187 -0.039065875
0.5597015 0.34568411 0.011290058
0.56535143 0.36205778 -0.010526929
0.56400549 0.37443921 -0.031284805
-0.02611593 -0.059798401 0.050936799
0.56342781 0.34794071 -0.0037439838
0.57409644 0.36929566 -0.025564834
0.56374729 0.37569228 -0.045262046
0.5963968 0.41705528 -0.072134219
0.5571698 0.34419811 -0.016698916
0.57582307 0.37155947 -0.040561296
0.57250017 0.38492981 -0.060263909
-0.02611593 -0.059798401 0.050936799
0.59090215 0.36841565 -0.035898902
0.58056092 0.37681201 -0.055560075
0.59122258 0.4011845 -0.078326531
0.63483834 0.45357847 -0.10920585
0.57762182 0.3586992 -0.048830409
0.59428328 0.38806742 -0.07261917
0.59396082 0.40644419 -0.093287729
0.84914523 0.62606192 -0.18112257
0.58833688 0.3679657 -0.065869175
0.61599422 0.40632907 -0.091701806
0.88214314 0.62694329 -0.18172464
0.84280932 0.62640905 -0.19900373
0.68094248 0.43423572 -0.10041596
0.91814435 0.62881374 -0.18236506
0.8777734 0.62831926 -0.20162468
0.83647734 0.62775606 -0.21686688
0.75747043 0.48960128 -0.13685961
0.91273332 0.62922972 -0.20426366
0.87139994 0.62870258 -0.22150517
0.21012264 0.12972982 -0.028084632
0.78903461 0.51398879 -0.16501896
0.90631872 0.62864935 -0.22616149
0.86801517 0.63109291 -0.24240562
0.20604457 0.12881671 -0.032026134
0.83151978 0.54744393 -0.19922084
0.9009077 0.62906522 -0.24806008
0.20803936 0.12279246 -0.031172156
-0.02611593 -0.059798401 0.050936799
0.92082638 0.61401415 -0.24970579
0.21201898 0.11777896 -0.03133741
0.18999551 0.11085911 -0.031050149
0.17598629 0.10790986 -0.030841138
0.21100648 0.10976581 -0.030463114
0.19497889 0.10684184 -0.031216178
-0.02611593 -0.059798401 0.050936799
-0.02611593 -0.059798401 0.050936799
0.19695497 0.10083568 -0.03136187
-0.02611593 -0.059798401 0.050936799
0.16593315 0.093948133 -0.030905493
0.15192392 0.090998888 -0.030696481
-0.02611593 -0.059798401 0.050936799
0.16590957 0.087949149 -0.031013601
-0.02611593 -0.059798401 0.050936799
-0.02611593 -0.059798401 0.050936799
0.16190848 0.077929027 -0.029119305
-0.02611593 -0.059798401 0.050936799
0.14486721 0.081043795 -0.031744797
0.13488384 0.080061771 -0.030575246
-0.02611593 -0.059798401 0.050936799
0.1428736 0.073016167 -0.029852036
-0.02611593 -0.059798401 0.050936799
-0.02611593 -0.059798401 0.050936799
0.14282738 0.06603545 -0.030977827
-0.02611593 -0.059798401 0.050936799
0.12583834 0.068096124 -0.030622348
0.11784372 0.069124654 -0.03045401
-0.02611593 -0.059798401 0.050936799
0.12878463 0.0641222 -0.032750115
-0.02611593 -0.059798401 0.050936799
-0.02611593 -0.059798401 0.050936799
0.12081387 0.052080605 -0.028817374
-0.02611593 -0.059798401 0.050936799
0.1108018 0.058151647 -0.030520678
0.10481469 0.061172664 -0.030353878
-0.02611593 -0.059798401 0.050936799
0.11275221 0.055181157 -0.032611635
-0.02611593 -0.059798401 0.050936799
-0.02611593 -0.059798401 0.050936799
0.1077513 0.045164622 -0.030698545
-0.02611593 -0.059798401 0.050936799
0.097776696 0.051199488 -0.03040253
0.093789205 0.054213338 -0.030273315
-0.02611593 -0.059798401 0.050936799
0.094764553 0.043193527 -0.029490646
-0.02611593 -0.059798401 0.050936799
-0.02611593 -0.059798401 0.050936799
0.090767376 0.034173239 -0.027578335
-0.02611593 -0.059798401 0.050936799
0.082777604 0.041218854 -0.028301537
0.081782632 0.047239505 -0.029174294
-0.02611593 -0.059798401 0.050936799
0.083724275 0.037252117 -0.030391719
-0.02611593 -0.059798401 0.050936799
-0.02611593 -0.059798401 0.050936799
0.080712132 0.029246151 -0.029479839
-0.02611593 -0.059798401 0.050936799
0.073755696 0.035252169 -0.028240535
0.074749485 0.043283395 -0.030114494
-0.02611593 -0.059798401 0.050936799
0.07372126 0.031270944 -0.029312268
-0.02611593 -0.059798401 0.050936799
-0.02611593 -0.059798401 0.050936799
0.070694312 0.024282895 -0.029382028
-0.02611593 -0.059798401 0.050936799
0.067696698 0.03432814 -0.031144798
0.062772505 0.034273729 -0.027052198
-0.02611593 -0.059798401 0.050936799
0.06271451 0.024293518 -0.028232042
-0.02611593 -0.059798401 0.050936799
-0.02611593 -0.059798401 0.050936799
0.060676508 0.019319639 -0.029284213
-0.02611593 -0.059798401 0.050936799
0.057708472 0.027329043 -0.029083692
0.057713315 0.033346109 -0.029975239
-0.02611593 -0.059798401 0.050936799
0.054700255 0.020322915 -0.028153792
-0.02611593 -0.059798401 0.050936799
-0.02611593 -0.059798401 0.050936799
0.054647103 0.016359769 -0.030225184
-0.02611593 -0.059798401 0.050936799
0.051683001 0.025369003 -0.030006647
0.051702641 0.030368157 -0.029916555
-0.02611593 -0.059798401 0.050936799
0.048670843 0.017363036 -0.029094763
-0.02611593 -0.059798401 0.050936799
-0.02611593 -0.059798401 0.050936799
0.044662811 0.010360496 -0.028146069
-0.02611593 -0.059798401 0.050936799
0.04468729 0.021376716 -0.028947525
0.042718165 0.024365297 -0.027856231
-0.02611593 -0.059798401 0.050936799
0.042645369 0.015403005 -0.030017715
-0.02611593 -0.059798401 0.050936799
-0.02611593 -0.059798401 0.050936799
0.038656052 0.0083823763 -0.028069362
-0.02611593 -0.059798401 0.050936799
0.037691586 0.017384427 -0.027888406
0.039681263 0.024412241 -0.029799178
-0.02611593 -0.059798401 0.050936799
0.035653591 0.012410547 -0.028940577
-0.02611593 -0.059798401 0.050936799
-0.02611593 -0.059798401 0.050936799
0.033615597 0.007436668 -0.029992748
-0.02611593 -0.059798401 0.050936799
0.032647196 0.015438895 -0.029829811
0.034640808 0.023466531 -0.031722561
-0.02611593 -0.059798401 0.050936799
0.031598154 0.012479169 -0.031864394
-0.02611593 -0.059798401 0.050936799
-0.02611593 -0.059798401 0.050936799
0.026638614 0.0034262897 -0.02793397
-0.02611593 -0.059798401 0.050936799
0.027644183 0.014457009 -0.029753879
0.026693599 0.017423905 -0.027681712
-0.02611593 -0.059798401 0.050936799
0.022684643 0.0054041282 -0.025823444
-0.02611593 -0.059798401 0.050936799
-0.02611593 -0.059798401 0.050936799
0.021612944 0.0014626618 -0.028875712
-0.02611593 -0.059798401 0.050936799
0.021667017 0.010443041 -0.027713887
0.023641905 0.018488776 -0.030606303
-0.02611593 -0.059798401 0.050936799
0.018629204 0.0054727513 -0.028747268
-0.02611593 -0.059798401 0.050936799
-0.02611593 -0.059798401 0.050936799
0.01659514 0.0014986955 -0.02978142
-0.02611593 -0.059798401 0.050936799
0.017630309 0.010493575 -0.029638045
0.01963478 0.01650347 -0.03056718
-0.02611593 -0.059798401 0.050936799
0.012670759 0.0014406949 -0.025707614
-0.02611593 -0.059798401 0.050936799
-0.02611593 -0.059798401 0.050936799
0.011602994 -0.0015009374 -0.028741863
-0.02611593 -0.059798401 0.050936799
0.013623183 0.0085082762 -0.029598918
0.013661543 0.013489334 -0.028509166
-0.02611593 -0.059798401 0.050936799
0.00865277 0.0014731397 -0.026632119
-0.02611593 -0.059798401 0.050936799
-0.02611593 -0.059798401 0.050936799
0.0075810766 -0.0024683196 -0.02968438
-0.02611593 -0.059798401 0.050936799
0.008649759 0.0054905512 -0.027559705
0.0096692163 0.010486108 -0.027488403
-0.02611593 -0.059798401 0.050936799
0.0065525854 0.0045883441 -0.032538448
-0.02611593 -0.059798401 0.050936799
-0.02611593 -0.059798401 0.050936799
0.0025819903 -0.0024503749 -0.029590424
-0.02611593 -0.059798401 0.050936799
0.0055832718 0.0075733359 -0.031465933
0.0066066575 0.013568724 -0.031376611
-0.02611593 -0.059798401 0.050936799
0.0015978822 0.0015525292 -0.029499561
-0.02611593 -0.059798401 0.050936799
-0.02611593 -0.059798401 0.050936799
-0.00047362677 -0.0023853409 -0.032533038
-0.02611593 -0.059798401 0.050936799
0.00059505517 0.0055735298 -0.030408364
0.0026330492 0.010547409 -0.029356185
-0.02611593 -0.059798401 0.050936799
-0.0033607436 -0.0024831085 -0.026478704
-0.02611593 -0.059798401 0.050936799
-0.02611593 -0.059798401 0.050936799
-0.0054391962 -0.0034034089 -0.030457787
-0.02611593 -0.059798401 0.050936799
-0.0034081419 0.004588055 -0.030351222
-0.00041471317 0.012612104 -0.032262761
-0.02611593 -0.059798401 0.050936799
-0.0064085079 -0.00041842076 -0.029385276
-0.02611593 -0.059798401 0.050936799
-0.02611593 -0.059798401 0.050936799
-0.02611593 -0.059798401 0.050936799
-0.02611593 -0.059798401 0.050936799
-0.02611593 -0.059798401 0.050936799
-0.0053920639 0.0085945558 -0.030241564
-0.02611593 -0.059798401 0.050936799
-0.02611593 -0.059798401 0.050936799
-0.02611593 -0.059798401 0.050936799
-0.02611593 -0.059798401 0.050936799
-0.02611593 -0.059798401 0.050936799
-0.02611593 -0.059798401 0.050936799
-0.010444305 0.0046493551 -0.032219008
-0.009376538 0.0075909914 -0.029184755
-0.02611593 -0.059798401 0.050936799
-0.02611593 -0.059798401 0.050936799
-0.02611593 -0.059798401 0.050936799
-0.02611593 -0.059798401 0.050936799
-0.02611593 -0.059798401 0.050936799
-0.02611593 -0.059798401 0.050936799
-0.02611593 -0.059798401 0.050936799
-0.012361193 0.0065838308 -0.028146744
-0.02611593 -0.059798401 0.050936799
-0.02611593 -0.059798401 0.050936799
-0.02611593 -0.059798401 0.050936799
-0.02611593 -0.059798401 0.050936799
-0.02611593 -0.059798401 0.050936799
-0.02611593 -0.059798401 0.050936799
-0.02611593 -0.059798401 0.050936799
-0.015394162 0.0076306136 -0.03007168
-0.02611593 -0.059798401 0.050936799
-0.02611593 -0.059798401 0.050936799
-0.02611593 -0.059798401 0.050936799
-0.02611593 -0.059798401 0.050936799
-0.02611593 -0.059798401 0.050936799
-0.02611593 -0.059798401 0.050936799
-0.02611593 -0.059798401 0.050936799
-0.019412154 0.0076630586 -0.030996166
-0.02611593 -0.059798401 0.050936799
-0.02611593 -0.059798401 0.050936799
-0.02611593 -0.059798401 0.050936799
-0.02611593 -0.059798401 0.050936799
-0.02611593 -0.059798401 0.050936799
-0.02611593 -0.059798401 0.050936799
-0.02611593 -0.059798401 0.050936799
-0.023396624 0.0066594868 -0.029939372
-0.02611593 -0.059798401 0.050936799
-0.02611593 -0.059798401 0.050936799
-0.02611593 -0.059798401 0.050936799
-0.02611593 -0.059798401 0.050936799
-0.02611593 -0.059798401 0.050936799
-0.02611593 -0.059798401 0.050936799
-0.02611593 -0.059798401 0.050936799
-0.026410872 0.007688181 -0.030864634
-0.02611593 -0.059798401 0.050936799
-0.02611593 -0.059798401 0.050936799
-0.02611593 -0.059798401 0.050936799
-0.02611593 -0.059798401 0.050936799
-0.02611593 -0.059798401 0.050936799
-0.02611593 -0.059798401 0.050936799
-0.02611593 -0.059798401 0.050936799
-0.028366122 0.0046415995 -0.027882133
-0.02611593 -0.059798401 0.050936799
-0.02611593 -0.059798401 0.050936799
-0.02611593 -0.059798401 0.050936799
-0.02611593 -0.059798401 0.050936799
-0.02611593 -0.059798401 0.050936799
-0.02611593 -0.059798401 0.050936799
-0.02611593 -0.059798401 0.050936799
-0.032394979 0.0066917874 -0.029770259
-0.02611593 -0.059798401 0.050936799
-0.02611593 -0.059798401 0.050936799
-0.02611593 -0.059798401 0.050936799
-0.02611593 -0.059798401 0.050936799
-0.02611593 -0.059798401 0.050936799
-0.02611593 -0.059798401 0.050936799
-0.02611593 -0.059798401 0.050936799
-0.036409039 0.00772407 -0.03067673
-0.02611593 -0.059798401 0.050936799
-0.043405667 -0.001285458 -0.028708041
-0.02611593 -0.059798401 0.050936799
-0.02611593 -0.059798401 0.050936799
-0.02611593 -0.059798401 0.050936799
-0.02611593 -0.059798401 0.050936799
-0.02611593 -0.059798401 0.050936799
-0.039408494 0.007734837 -0.030620355
-0.02611593 -0.059798401 0.050936799
-0.046386391 -0.0012927803 -0.02765201
-0.02611593 -0.059798401 0.050936799
-0.02611593 -0.059798401 0.050936799
-0.02611593 -0.059798401 0.050936799
-0.02611593 -0.059798401 0.050936799
-0.046418991 0.0047604674 -0.03054288
-0.042378355 0.0057097641 -0.028600704
-0.02611593 -0.059798401 0.050936799
-0.050381735 -0.0002785977 -0.027558833
-0.02611593 -0.059798401 0.050936799
-0.02611593 -0.059798401 0.050936799
-0.02611593 -0.059798401 0.050936799
-0.02611593 -0.059798401 0.050936799
-0.02611593 -0.059798401 0.050936799
-0.046373695 0.0067239432 -0.028507523
-0.02611593 -0.059798401 0.050936799
-0.054377075 0.00073559239 -0.027465653
-0.02611593 -0.059798401 0.050936799
-0.02611593 -0.059798401 0.050936799
-0.06041735 -0.00020653021 -0.029370252
-0.02611593 -0.059798401 0.050936799
-0.054380089 0.0047530001 -0.028393239
-0.050402548 0.0087741455 -0.030395642
-0.02611593 -0.059798401 0.050936799
-0.059372231 0.001753364 -0.027353678
-0.02611593 -0.059798401 0.050936799
-0.02611593 -0.059798401 0.050936799
-0.064397901 -0.00021026377 -0.028295424
-0.02611593 -0.059798401 0.050936799
-0.060452964 0.0098641329 -0.033188712
-0.055397708 0.0097919209 -0.030283675
-0.02611593 -0.059798401 0.050936799
-0.063367568 0.0027675503 -0.027260497
-0.02611593 -0.059798401 0.050936799
-0.02611593 -0.059798401 0.050936799
-0.07040374 0.0028288509 -0.029128291
-0.02611593 -0.059798401 0.050936799
-0.063433692 0.0098568099 -0.032132681
-0.059411775 0.010824189 -0.031190157
-0.02611593 -0.059798401 0.050936799
-0.066329576 0.0027421389 -0.025204808
-0.02611593 -0.059798401 0.050936799
-0.02611593 -0.059798401 0.050936799
-0.074380353 0.0038249481 -0.028035443
-0.02611593 -0.059798401 0.050936799
-0.067399442 0.0088351574 -0.030076202
-0.062358987 0.0097808652 -0.02815282
-0.02611593 -0.059798401 0.050936799
-0.072354145 0.0057993424 -0.02703733
-0.02611593 -0.059798401 0.050936799
-0.02611593 -0.059798401 0.050936799
-0.078356974 0.0048210453 -0.026942607
-0.02611593 -0.059798401 0.050936799
-0.071361266 0.0088133346 -0.028001722
-0.066354327 0.010795044 -0.028059639
-0.02611593 -0.059798401 0.050936799
-0.077345371 0.007816948 -0.02690734
-0.02611593 -0.059798401 0.050936799
-0.02611593 -0.059798401 0.050936799
-0.086392045 0.0099031776 -0.029701166
-0.02611593 -0.059798401 0.050936799
-0.074323267 0.0087879235 -0.025946032
-0.070334874 0.01079131 -0.026984818
-0.02611593 -0.059798401 0.050936799
-0.083351217 0.010856056 -0.027740199
-0.02611593 -0.059798401 0.050936799
-0.02611593 -0.059798401 0.050936799
-0.090335138 0.0098632658 -0.026627026
-0.02611593 -0.059798401 0.050936799
-0.080329113 0.01182703 -0.026778892
-0.075340897 0.013826836 -0.027836468
-0.02611593 -0.059798401 0.050936799
-0.089357056 0.01389517 -0.028573066
-0.02611593 -0.059798401 0.050936799
-0.02611593 -0.059798401 0.050936799
-0.096322253 0.012884283 -0.026460227
-0.02611593 -0.059798401 0.050936799
-0.083276324 0.010783699 -0.023741554
-0.080317333 0.014826522 -0.026724838
-0.02611593 -0.059798401 0.050936799
-0.093314953 0.014873178 -0.026480563
-0.02611593 -0.059798401 0.050936799
-0.02611593 -0.059798401 0.050936799
-0.099265538 0.012840783 -0.02340487
-0.02611593 -0.059798401 0.050936799
-0.092326 0.016887341 -0.027462974
-0.085308559 0.016844127 -0.026594847
-0.02611593 -0.059798401 0.050936799
-0.099305995 0.016894374 -0.026331782
-0.02611593 -0.059798401 0.050936799
-0.02611593 -0.059798401 0.050936799
-0.10927759 0.018911835 -0.025108177
-0.02611593 -0.059798401 0.050936799
-0.095269285 0.01684384 -0.024407625
-0.092329018 0.020904751 -0.028390568
-0.02611593 -0.059798401 0.050936799
-0.10629294 0.019918988 -0.026146192
-0.02611593 -0.059798401 0.050936799
-0.02611593 -0.059798401 0.050936799
-0.11829375 0.023979459 -0.02684829
-0.02611593 -0.059798401 0.050936799
-0.10531878 0.022951061 -0.028110251
-0.097286724 0.021886341 -0.026279271
-0.02611593 -0.059798401 0.050936799
-0.11427575 0.023947014 -0.025923792
-0.02611593 -0.059798401 0.050936799
-0.02611593 -0.059798401 0.050936799
-0.12625785 0.027989404 -0.025626231
-0.02611593 -0.059798401 0.050936799
-0.11330161 0.026979094 -0.027887855
-0.10427759 0.023911124 -0.026111696
-0.02611593 -0.059798401 0.050936799
-0.12326927 0.02999638 -0.026646227
-0.02611593 -0.059798401 0.050936799
-0.02611593 -0.059798401 0.050936799
-0.13523264 0.034020677 -0.025349006
-0.02611593 -0.059798401 0.050936799
-0.11824059 0.027942603 -0.024776898
-0.11026471 0.02693215 -0.0259449
-0.02611593 -0.059798401 0.050936799
-0.13022268 0.031984992 -0.024479337
-0.02611593 -0.059798401 0.050936799
-0.02611593 -0.059798401 0.050936799
-0.14218214 0.037009116 -0.023164101
-0.02611593 -0.059798401 0.050936799
-0.12723804 0.032992139 -0.025517348
-0.11924735 0.030963773 -0.025703713
-0.02611593 -0.059798401 0.050936799
-0.14525163 0.043109313 -0.027997911
-0.02611593 -0.059798401 0.050936799
-0.02611593 -0.059798401 0.050936799
-0.15818128 0.046101183 -0.024700604
-0.02611593 -0.059798401 0.050936799
-0.13621674 0.038023591 -0.025258143
-0.12924068 0.037016727 -0.026407354
-0.02611593 -0.059798401 0.050936799
-0.15015319 0.044036634 -0.022887643
-0.02611593 -0.059798401 0.050936799
-0.02611593 -0.059798401 0.050936799
-0.16911435 0.053103302 -0.022368457
-0.02611593 -0.059798401 0.050936799
-0.14718723 0.045061879 -0.024925318
-0.1402299 0.044073101 -0.027074195
-0.02611593 -0.059798401 0.050936799
-0.16915874 0.056157053 -0.025313381
-0.02611593 -0.059798401 0.050936799
-0.02611593 -0.059798401 0.050936799
-0.19011168 0.067230552 -0.024720576
-0.02611593 -0.059798401 0.050936799
-0.1631677 0.054135863 -0.025462158
-0.15019363 0.048090223 -0.025814548
-0.02611593 -0.059798401 0.050936799
-0.18513526 0.066230863 -0.025832213
-0.02611593 -0.059798401 0.050936799
-0.02611593 -0.059798401 0.050936799
-0.21105678 0.080303699 -0.024091735
-0.02611593 -0.059798401 0.050936799
-0.1781296 0.063188158 -0.025018137
-0.16214915 0.054114185 -0.024481289
-0.02611593 -0.059798401 0.050936799
-0.20107432 0.076268502 -0.024351716
-0.02611593 -0.059798401 0.050936799
-0.02611593 -0.059798401 0.050936799
-0.23598544 0.097390532 -0.023315657
-0.02611593 -0.059798401 0.050936799
-0.19408739 0.073243879 -0.024537303
-0.1821506 0.067238018 -0.026870221
-0.02611593 -0.059798401 0.050936799
-0.23003183 0.095405512 -0.025463756
-0.02611593 -0.059798401 0.050936799
-0.02611593 -0.059798401 0.050936799
-0.25788897 0.11143093 -0.020650689
-0.02611593 -0.059798401 0.050936799
-0.22306755 0.09139917 -0.026667032
-0.19807881 0.075257897 -0.024426106
-0.02611593 -0.059798401 0.050936799
-0.25694144 0.11248145 -0.023650445
-0.02611593 -0.059798401 0.050936799
-0.02611593 -0.059798401 0.050936799
-1.0025274 0.65275085 -0.2039793
-0.02611593 -0.059798401 0.050936799
-0.24497108 0.10543957 -0.02400206
-0.22303011 0.091362998 -0.024667714
-1.0031232 0.65035695 -0.18200397
-0.99277651 0.65195036 -0.21718079
-0.02611593 -0.059798401 0.050936799
-0.02611593 -0.059798401 0.050936799
-1.0137271 0.65503377 -0.16171396
-0.99938601 0.65059584 -0.1960744
-0.99406016 0.65624273 -0.2330845
-0.25197282 0.10948209 -0.024798103
-1.0123124 0.6506148 -0.13881263
-1.0059876 0.65124083 -0.17493194
-1.0046611 0.65690213 -0.21186692
-0.02611593 -0.059798401 0.050936799
-1.0148998 0.65022755 -0.1167637
-1.0115746 0.65086448 -0.15282667
-1.0132624 0.65755439 -0.19068688
-1.0079749 0.65822029 -0.22878674
-1.0215123 0.65289044 -0.096584901
-1.0241741 0.65654826 -0.13248107
-1.0178573 0.65517473 -0.16863643
-1.0165652 0.65685475 -0.2066431
-1.023104 0.65149981 -0.074572787
-1.0207677 0.65012252 -0.10965333
-1.0284356 0.65681589 -0.14640117
-1.024141 0.65446776 -0.18353662
-1.0256877 0.65211242 -0.052505866
-1.0293611 0.65277445 -0.088437289
-1.0320121 0.65441459 -0.12336983
-1.0377336 0.65713763 -0.16222662
-1.0292858 0.6537466 -0.031401768
-1.0329297 0.65237272 -0.065369919
-1.0406096 0.65606666 -0.10217178
-1.0492928 0.65876436 -0.13897289
-1.0238758 0.64831346 -0.0085936114
-1.0365171 0.6519891 -0.043302208
-1.0451819 0.65466869 -0.079103634
-1.0508628 0.65333819 -0.11503353
-1.0244786 0.64893699 0.012436077
-1.0381088 0.65059853 -0.021290101
-1.0497543 0.65327078 -0.056035511
-1.0594265 0.65395433 -0.091854192
-1.0240706 0.6475392 0.034410607
-1.0387008 0.64920431 0.0007032156
-1.0463252 0.64782673 -0.032190114
-1.070982 0.65658081 -0.068582438
-1.0226777 0.64715576 0.055384699
-1.0392737 0.64779204 0.023696192
-1.0628786 0.65548837 -0.0097339749
-1.0755168 0.65514666 -0.043514997
-1.0252759 0.64878631 0.076469995
-1.0448451 0.65141493 0.045873545
-1.0604454 0.65104777 0.014148243
-1.0820664 0.65473765 -0.019391589
-1.0198915 0.64638883 0.09733288
-1.0434225 0.64899564 0.068810932
-1.0709932 0.6556704 0.03743723
-1.0796221 0.64827931 0.0054542497
-1.0175027 0.64500201 0.11827016
-1.0370501 0.6435951 0.08960098
-1.0605808 0.64620191 0.061079025
-1.0891366 0.65186232 0.030705761
-1.0161097 0.64461851 0.13924426
-1.0396296 0.64520758 0.11168592
-1.060158 0.64378619 0.084035195
-1.0896802 0.64841413 0.055662014
-1.0117213 0.64322442 0.16014397
-1.047178 0.64981937 0.13491854
-1.0686836 0.64938331 0.10830428
-1.0912195 0.64596939 0.080655091
-1.012316 0.64584762 0.18120968
-1.0397831 0.64539695 0.1567075
-1.0712337 0.64895988 0.13235252
-1.0947695 0.64554965 0.10472212
-1.00394 0.64143974 0.20198017
-1.0423402 0.64799112 0.17981012
-1.063828 0.64251977 0.15510508
-1.0962822 0.64508653 0.13075089
-1.004535 0.644063 0.22304592
-1.038914 0.64656454 0.20272793
-1.0643744 0.64308906 0.17913376
-1.0978177 0.64364159 0.15576199
-1.0021342 0.6456756 0.24403724
-1.0384982 0.64716637 0.22473849
-1.0629293 0.64165151 0.20308882
-1.096339 0.64116812 0.18169834
-0.99476892 0.64328903 0.26386291
-1.0221432 0.6377306 0.24526857
-1.0604842 0.64021033 0.22702508
-1.0958749 0.63971603 0.20667186
-0.98540789 0.63989544 0.28363296
-1.0227005 0.64031768 0.26833361
-1.059031 0.64077246 0.25101617
-1.1033295 0.6442374 0.23490277
-0.98201138 0.6405046 0.30458748
-1.0242579 0.64290828 0.29141748
-1.0575819 0.64033473 0.27498925
-1.1028428 0.64376706 0.26089397
-0.97663778 0.64012486 0.32448673
-1.0148782 0.63949662 0.31218719
-1.054137 0.63888997 0.29890674
-1.0963914 0.63929397 0.28570068
-0.97126424 0.63974518 0.34438601
-1.0114628 0.64008772 0.33414137
-1.0486925 0.63743812 0.32278663
-1.097859 0.64079434 0.31376481
-0.96488702 0.64036173 0.36428452
-1.0050559 0.63866836 0.35600314
-1.0472168 0.63898194 0.34779537
-1.0943766 0.6393134 0.33968163
-0.96049058 0.64096731 0.38522023
-0.99964893 0.63725269 0.37788373
-1.0407952 0.63654476 0.37063882
-1.087899 0.63682199 0.36552402
-0.95014459 0.63858807 0.40398988
-0.9922384 0.63682961 0.39974472
-1.0363278 0.63607818 0.3955552
-1.0873855 0.63833314 0.39255089
-0.94179028 0.6382156 0.42283311
-0.9828546 0.63441777 0.42053244
-1.0279065 0.63363361 0.41836101
-1.0799078 0.63583809 0.41837451
-0.93641287 0.63883579 0.44275036
-0.97149396 0.63101697 0.44026491
-1.0244311 0.6351704 0.44333223
-1.0763988 0.63633877 0.44532698
-0.92311269 0.63448232 0.45942828
-0.97102499 0.63558203 0.46434689
-1.0189787 0.63571817 0.46724814
-1.0669444 0.6328547 0.47009537
-0.91573554 0.63509524 0.47930798
-0.95769125 0.63019252 0.48300606
-1.0095577 0.63327014 0.49003518
-1.0594627 0.6313594 0.49593699
-0.91035014 0.63771498 0.49926132
-0.95324576 0.63376147 0.50599521
-1.0021095 0.63281083 0.51389551
-1.0539542 0.63185287 0.52285188
-0.90000021 0.63633555 0.51804894
-0.94288087 0.63136411 0.52576447
-0.9926846 0.63136262 0.53670061
-1.0464499 0.63133937 0.54971123
-0.88866919 0.63497061 0.5358181
-0.9344666 0.63193727 0.54762471
-0.98423272 0.63189965 0.56056017
-1.0379647 0.6308403 0.57555211
-0.87933379 0.63461274 0.55364293
-0.9280479 0.63351744 0.56954056
-0.97283071 0.62946254 0.58230996
-1.0294605 0.63032317 0.60239255
-0.86800271 0.63324785 0.57141209
-0.91667944 0.63211638 0.5893091
-0.96633714 0.63097036 0.60822445
-1.0199715 0.63082045 0.62823272
-0.85768628 0.63290447 0.58821845
-0.90431106 0.63071167 0.60905874
-0.95393133 0.62952942 0.62997353
-1.0084907 0.62931079 0.65399921
-0.84732848 0.63352466 0.60704213
-0.88998842 0.62733632 0.62673557
-0.94547576 0.63106638 0.65385109
-0.99602878 0.62781572 0.67874718
-0.83698934 0.63416302 0.62486613
-0.87763876 0.62594974 0.64548564
-0.93109685 0.62763673 0.67452687
-0.98258966 0.62533528 0.70245874
-0.82074583 0.62985301 0.63848865
-0.8652665 0.62554491 0.6652534
-0.91671014 0.62620676 0.69523865
-0.97405511 0.62779951 0.730353
-0.80843365 0.62850261 0.6552394
-0.85782152 0.629103 0.68818611
-0.90528148 0.62575126 0.71802413
-0.95861638 0.62531191 0.75402695
-0.79807198 0.63012278 0.67408109
-0.84447205 0.62771285 0.70691735
-0.8908909 0.62532115 0.73875391
-0.94515067 0.62481302 0.77877426
-0.78477865 0.6287868 0.68981332
-0.82916439 0.62535185 0.72359371
-0.87450856 0.62288415 0.7594102
-0.93068522 0.62431055 0.80350268
-0.77052701 0.62648362 0.70350951
-0.8167882 0.62594682 0.74337947
-0.86111772 0.62245762 0.78015876
-0.91230708 0.6208666 0.82410336
-0.75721109 0.62612945 0.72025949
-0.80049944 0.6236003 0.75903738
-0.84573126 0.62102413 0.80085182
-0.90076917 0.62431991 0.85195917
-0.74489111 0.62677872 0.73704624
-0.7881006 0.62517703 0.77984077
-0.83231384 0.62257916 0.82263613
-0.88236839 0.62185776 0.87357748
-0.72866237 0.62348664 0.74968708
-0.77472454 0.62576842 0.79960775
-0.81887776 0.62411612 0.84542006
-0.86200935 0.61842465 0.89314085
-0.7163384 0.62513572 0.76649195
-0.75743604 0.62341839 0.81524682
-0.79855621 0.62071919 0.86298406
-0.84847182 0.62187082 0.92095912
-0.70301855 0.62578136 0.78325993
-0.74210173 0.62303889 0.83295882
-0.78023034 0.61832935 0.88060367
-0.82810891 0.61943763 0.94054049
-0.686786 0.6234892 0.79591882
-0.72578639 0.62267399 0.84965247
-0.76581317 0.61988086 0.9023692
-0.80968153 0.61895698 0.96319443
-0.67348486 0.6241529 0.81168711
-0.70851648 0.62034196 0.86429185
-0.74646091 0.61946899 0.92100573
-0.79027313 0.61849082 0.98483002
-0.65722966 0.62284237 0.82536376
-0.69315565 0.62194407 0.88303959
-0.72810853 0.61906064 0.93966109
-0.76986492 0.61802107 1.0064467
-0.64099312 0.62155002 0.83804071
-0.67392755 0.61864126 0.89562416
-0.71073318 0.61963773 0.95935291
-0.75045258 0.61855483 1.0281003
-0.62475657 0.62025756 0.8507176
-0.6556313 0.61828721 0.91128057
-0.68848687 0.61630601 0.97288072
-0.72612786 0.61614341 1.0456071
-0.61334187 0.62583721 0.87161183
-0.63638049 0.61596614 0.92488277
-0.66915733 0.61491239 0.99049956
-0.70186317 0.61278647 1.0600971
-0.59614682 0.62357754 0.88225269
-0.62392843 0.62150598 0.94775754
-0.65270996 0.61943805 1.0132812
-0.68142831 0.61429828 1.0827494
-0.57890648 0.62328136 0.89492881
-0.6037153 0.61921757 0.95934165
-0.62561131 0.6122157 1.0196453
-0.65615988 0.61193752 1.0972385
-0.55878007 0.61806577 0.90246016
-0.58541507 0.61986333 0.975016
-0.61012244 0.61770868 1.0444632
-0.63861519 0.61736906 1.1250178
-0.54349411 0.61974031 0.91720927
-0.56518328 0.61755675 0.98759973
-0.5859139 0.61440593 1.055954
-0.60851717 0.61013585 1.1313256
-0.52431828 0.61749154 0.92681283
-0.54687911 0.61920238 1.0032921
-0.56459951 0.61402303 1.0725538
-0.58609748 0.6126585 1.1529588
-0.51190364 0.6230675 0.94768834
-0.52662069 0.61887729 1.0169115
-0.54234135 0.61369085 1.0861355
-0.55887079 0.6093269 1.1653929
-0.48889792 0.61594999 0.94912934
-0.50544512 0.61662138 1.0264776
-0.51910615 0.61237329 1.098681
-0.53457564 0.60895139 1.1809366
-0.47354406 0.62056971 0.96693146
-0.48229259 0.61337656 1.0349882
-0.49582955 0.61201942 1.1132436
-0.50829953 0.60858667 1.1954429
-0.45247391 0.61540473 0.97144514
-0.46205285 0.61306965 1.047608
-0.47257161 0.61168361 1.1268067
-0.48391768 0.61113828 1.2150391
-0.4361842 0.61807549 0.98619342
-0.44080937 0.61375886 1.0602272
-0.44929105 0.6123296 1.1413876
-0.45383048 0.605923 1.2203834
-0.41602722 0.61584127 0.99477857
-0.42150155 0.61640084 1.0759187
-0.42413497 0.61007744 1.1498786
-0.42752782 0.60753983 1.2359254
-0.39777529 0.618541 1.0074899
-0.39838645 0.61319214 1.08243
-0.39991468 0.60977423 1.1614236
-0.39843652 0.60332793 1.2413064
-0.37478828 0.61144149 1.0079314
-0.3762072 0.61193246 1.0919951
-0.37569046 0.61047083 1.1729866
-0.37115669 0.60395956 1.2558119
-0.35841194 0.61703944 1.0267323
-0.35397869 0.61363614 1.1036139
-0.34953457 0.60821509 1.181459
-0.34208015 0.60076553 1.2602113
-0.33639815 0.61192513 1.0282282
-0.3308183 0.61239088 1.1121606
-0.32528776 0.60989344 1.1940397
-0.31573218 0.60434598 1.2777888
-0.31812361 0.61560655 1.0419573
-0.30863512 0.61213106 1.1217437
-0.29818821 0.60768837 1.1994942
-0.28567457 0.60116637 1.2811697
-0.29608718 0.6114741 1.0444708
-0.28361797 0.60800582 1.1232013
-0.27202445 0.60743219 1.2080026
-0.25740972 0.60281235 1.2946748
-0.27681679 0.61415213 1.058163
-0.26134807 0.61067319 1.1368372
-0.2458607 0.60717613 1.216511
-0.22643113 0.59870178 1.2940202
-0.25486308 0.60809225 1.0566419
-0.23726672 0.6084969 1.1413486
-0.21975704 0.60597444 1.2220023
-0.19903803 0.60424203 1.3136141
-0.2355247 0.61371553 1.0733873
-0.21324544 0.60537517 1.1428428
-0.19263093 0.60575092 1.2284925
-0.16813824 0.599204 1.3089429
-0.2134617 0.61156452 1.0769365
-0.19088496 0.61196935 1.1605494
-0.16552746 0.60454571 1.2339652
-0.13982417 0.60381329 1.3245014
-0.19327027 0.61331153 1.0865933
-0.16584517 0.60882592 1.1630245
-0.13848016 0.60339469 1.2364389
-0.1080073 0.59684432 1.3157767
-0.17031284 0.60824794 1.0850714
-0.14173722 0.60863119 1.1685716
-0.11234994 0.60417461 1.2429659
-0.079647914 0.60341704 1.3333707
-0.14909893 0.61097312 1.0957271
-0.11666691 0.60846913 1.1721005
-0.084265374 0.60298383 1.2474201
-0.048890963 0.59550607 1.3216478
-0.12611887 0.60689127 1.0952228
-0.091687202 0.60438013 1.1715586
-0.057090029 0.60572356 1.2559638
-0.018569391 0.60210782 1.3372047
-0.10494243 0.60965252 1.1038792
-0.067552671 0.60616702 1.1781414
-0.02916703 0.60167807 1.2523667
0.011210398 0.59518224 1.3265183
-0.081917048 0.60753417 1.1054103
-0.042505004 0.60502315 1.1806525
-0.0020931512 0.60250866 1.2558758
0.041498445 0.60281992 1.340094
-0.059740786 0.6102919 1.1140479
-0.017472137 0.60489726 1.1821821
0.024920633 0.60239363 1.2563682
0.071075298 0.59207594 1.3193389
-0.036670104 0.61013699 1.1176144
0.0065983627 0.60473877 1.1857297
0.05297561 0.60323876 1.2588592
0.094840407 0.561059 1.2593124
-0.014681986 0.60805833 1.117165
0.032713793 0.60653663 1.1912751
0.079861343 0.59923291 1.2532814
0.13329348 0.59765345 1.3292782
0.0083246715 0.60595804 1.1176964
0.057645198 0.60450149 1.1877705
0.10418694 0.58172512 1.2204981
0.16206259 0.59274918 1.317647
0.031418003 0.60678494 1.1222805
0.083572492 0.6014629 1.1842288
0.13691492 0.60097378 1.2552454
0.1942488 0.59847051 1.3261507
0.054473884 0.60764796 1.1248654
0.10865066 0.60330057 1.1877937
0.16378981 0.59898573 1.2487041
0.22196192 0.59362417 1.3115392
0.077420458 0.6046021 1.1223799
0.13458188 0.60126179 1.18427
0.19178861 0.59988505 1.2481959
0.25300547 0.5964762 1.31301
0.10147615 0.60546154 1.1249459
0.16066378 0.60409564 1.1878343
0.21864082 0.5969153 1.2406369
0.28284231 0.59451354 1.304413
0.12551314 0.60633904 1.1265122
0.18557647 0.60207862 1.1833298
0.24664356 0.59881443 1.2401469
0.31276587 0.59547812 1.2998687
0.14952748 0.60623485 1.127061
0.21257547 0.60298157 1.1828405
0.27456352 0.59878629 1.2356219
0.34052429 0.59259516 1.2872925
0.17244053 0.60422504 1.122594
0.2374694 0.60098255 1.1773365
0.30350599 0.59973627 1.232096
0.37463921 0.59938157 1.291778
0.19745468 0.60411716 1.1231239
0.26336712 0.59997994 1.1718315
0.32934362 0.5977881 1.2235742
0.39921394 0.59267282 1.2701894
0.22039036 0.60308903 1.1196748
0.28935149 0.60190433 1.1703794
0.35827127 0.599756 1.2190667
0.42914537 0.59563708 1.2656809
0.24432588 0.60205728 1.1162068
0.31633568 0.60382521 1.1689085
0.38300756 0.59590209 1.2055292
0.45582515 0.59183025 1.2491071
0.26719755 0.5990839 1.1097226
0.340087 0.598957 1.1563715
0.41199532 0.59881562 1.2040387
0.41108552 0.49924976 1.0682086
0.29322326 0.60197186 1.1102877
0.36601123 0.59993589 1.1519022
0.43775803 0.5969398 1.1915182
0.50512934 0.58428532 1.2130351
0.31718147 0.60192192 1.1078374
0.39193556 0.60091466 1.147433
0.40679035 0.51962245 1.048651
0.54440182 0.59792584 1.2245506
0.34316581 0.60384643 1.1063852
0.41677722 0.59996986 1.138948
0.48620129 0.59127134 1.1624987
0.56592488 0.59228206 1.2000371
0.36600399 0.60190892 1.0979198
0.41320455 0.55834109 1.0632361
0.51930153 0.59907919 1.1660216
0.5937404 0.59436214 1.1895505
0.39196965 0.6038515 1.0954678
0.45804057 0.58647275 1.1019187
0.5440309 0.59824294 1.1515385
0.61840969 0.5925802 1.1720505
0.40953389 0.59416842 1.0739567
0.49335518 0.60109133 1.1155267
0.56983894 0.59833056 1.1410533
0.6503337 0.59855485 1.166559
0.42292553 0.57864547 1.0444151
0.51709569 0.59824091 1.102026
0.59559077 0.59847236 1.1275692
0.66671097 0.58905631 1.1350698
0.46355146 0.60097343 1.0730681
0.54298639 0.60025573 1.0955755
0.62136132 0.59859616 1.1150846
0.70380753 0.60086715 1.1375898
0.49154729 0.60589015 1.0716324
0.56571215 0.59842682 1.0811121
0.6471585 0.60070139 1.1036358
0.71610272 0.58945566 1.102141
0.51119787 0.59912717 1.0541362
0.59256136 0.59947443 1.0726254
0.67186916 0.59988326 1.0881531
0.7520979 0.59936094 1.0996455
0.53919369 0.6040439 1.0527005
0.61943722 0.60250366 1.0651745
0.69660246 0.60004669 1.0736883
0.76856577 0.59378934 1.0722272
0.56506175 0.60507697 1.0452323
0.64316678 0.60167092 1.0507102
0.71721238 0.59733367 1.0532463
0.79943782 0.60082161 1.0637735
0.58578408 0.60225534 1.0307883
0.66383284 0.5989036 1.0332674
0.74197227 0.59947878 1.039817
0.80973727 0.59041715 1.0283804
0.60541981 0.59651017 1.0123106
0.68863016 0.60101253 1.0218374
0.76258224 0.5967657 1.0193751
0.84265423 0.59940571 1.0219246
0.6343779 0.6014595 1.0088568
0.71133727 0.59920168 1.0063741
0.78834581 0.59990704 1.005945
0.85606647 0.59389919 0.99156356
0.65508151 0.59865606 0.99341321
0.73507071 0.59936881 0.99192798
0.81306827 0.60208827 0.99051636
0.88485605 0.5990113 0.9791128
0.68502468 0.6046198 0.98895895
0.75676721 0.59957922 0.97551996
0.83266354 0.60039675 0.96911168
0.89522749 0.59255189 0.94679081
0.70877689 0.60476875 0.97551239
0.78048193 0.59976447 0.96007407
0.85432255 0.60064334 0.95070434
0.92604727 0.60063821 0.93535614
0.73254782 0.6048997 0.96306545
0.80830926 0.60484397 0.94964147
0.87596279 0.60090816 0.93129736
0.93339258 0.59220803 0.90205485
0.75423634 0.60311043 0.94662148
0.829983 0.60407275 0.93221581
0.89760697 0.60217267 0.91190845
0.96419364 0.60031247 0.88962054
0.77592885 0.60232109 0.93019551
0.84961969 0.60334474 0.91282839
0.91416144 0.59952825 0.88854277
0.97056574 0.5938673 0.85737377
0.79047191 0.59668434 0.90681332
0.87025625 0.60261327 0.89342225
0.93580955 0.60179263 0.86917186
0.99422139 0.59812421 0.83800131
0.82135874 0.60269868 0.89934129
0.89600503 0.60677254 0.87901056
0.95134944 0.60016966 0.84484327
1.017877 0.60238111 0.81862879
0.8451001 0.60486543 0.88493109
0.91255951 0.60412806 0.85564476
0.97197503 0.60145593 0.82447344
1.0334247 0.60275787 0.79433632
0.8688001 0.60606861 0.86850357
0.9342224 0.60537457 0.83725554
0.98955983 0.6017893 0.80214274
1.0499722 0.60313094 0.77002501
0.88843286 0.60434079 0.84909809
0.94975835 0.60275179 0.81290895
1.0050998 0.60016638 0.77781415
1.0655012 0.60352576 0.74473286
0.90602458 0.60165668 0.82771301
0.96939886 0.60302365 0.79353958
1.0236884 0.60149592 0.75548267
1.0820528 0.60489869 0.72043955
0.92970973 0.60387766 0.81030375
0.99409175 0.60724086 0.77614766
1.0412583 0.60284728 0.73217016
1.0793624 0.59654057 0.68532681
0.95035017 0.60414594 0.79091561
1.0096316 0.60561782 0.75181907
1.0578246 0.60320228 0.70885855
1.1080743 0.60574245 0.66794986
0.97605765 0.60734165 0.77448654
1.0282164 0.60594761 0.72946948
1.0753986 0.60555339 0.68556416
1.1023618 0.59641331 0.63187575
0.98550409 0.60081339 0.74618202
1.0427564 0.60432833 0.70515978
1.0889239 0.60495555 0.66029149
1.1330773 0.60660785 0.61447924
1.0122193 0.60600501 0.72977012
1.0593039 0.6047014 0.68084848
1.1044756 0.60633206 0.63601702
1.1263837 0.59726423 0.57942367
1.0328223 0.60630953 0.70838273
1.0758703 0.60505641 0.65753686
1.1169825 0.60575587 0.60976356
1.1490326 0.6045422 0.55912441
1.0534292 0.60761386 0.68701321
1.0964888 0.60936034 0.63622141
1.1264713 0.60520858 0.5825668
1.1474099 0.59912574 0.52704591
1.0730363 0.60892183 0.66566259
1.097854 0.60093343 0.60403246
1.1369598 0.60465765 0.5553512
1.168003 0.60646522 0.50378525
1.089561 0.6083132 0.64033359
1.1224986 0.6072045 0.58367765
1.1494668 0.60408151 0.52909774
1.1684216 0.60200512 0.47368652
1.0959706 0.60183191 0.61008608
1.1259086 0.600734 0.55348659
1.1630039 0.60648316 0.50387919
1.1880147 0.60934824 0.45044461
1.1236334 0.60807407 0.59067452
1.151557 0.60800129 0.53313088
1.1704704 0.60496128 0.47570229
1.1813853 0.60194993 0.41842404
1.1239986 0.59965092 0.5585044
1.1539525 0.60255229 0.50197691
1.1789633 0.60541743 0.44854233
1.2009598 0.60931116 0.3941825
1.1516466 0.606911 0.53811115
1.1715117 0.60592127 0.47770086
1.1934856 0.60883331 0.42232335
1.1943569 0.60389447 0.36319768
1.1600863 0.60340393 0.50887978
1.1789781 0.60439944 0.44952399
1.2049817 0.61027849 0.39512503
1.2129315 0.61125916 0.33897489
1.1826711 0.60873663 0.48554549
1.1995444 0.60975736 0.42522761
1.2084528 0.60977083 0.36704132
1.2073511 0.60682064 0.30898893
1.1850626 0.60228783 0.45437351
1.2009628 0.60529369 0.3951101
1.2189531 0.61221939 0.33987981
1.2178781 0.61125082 0.28286311
1.209651 0.60861313 0.43101966
1.2184885 0.60969877 0.36885276
1.2213979 0.60973376 0.31077921
1.2203494 0.61074674 0.2547982
1.2150726 0.6051349 0.40084502
1.2179071 0.60524225 0.33877283
1.2278724 0.61021513 0.28265718
1.2187988 0.60927522 0.2257908
1.2406272 0.61249262 0.37549105
1.2334144 0.60967261 0.31155342
1.2323471 0.61070371 0.25457272
-0.02611593 -0.059798401 0.050936799
1.2410229 0.60705084 0.34437466
1.2408661 0.60916859 0.28239489
1.2026453 0.59342581 0.22080483
0.74388325 0.35393074 0.12402907
1.2605337 0.61246657 0.31709808
1.246322 0.60967165 0.25329199
-0.02611593 -0.059798401 0.050936799
0.71847713 0.34036651 0.10525301
1.2609106 0.60704291 0.28498203
1.1251969 0.5429641 0.20733751
0.71973813 0.3350924 0.12013904
0.7241922 0.3446337 0.089217767
1.2301636 0.58780515 0.24919757
0.89572185 0.42079839 0.1544061
0.72242326 0.33638903 0.10310645
0.72487372 0.34493762 0.072204731
1.1200788 0.52703899 0.20414419
0.71765089 0.32715523 0.11703349
0.72711188 0.33867824 0.086054295
0.73058873 0.34920484 0.056169491
0.90868503 0.41677049 0.15309009
0.71832848 0.32645932 0.10000245
0.72979701 0.33997479 0.069021702
0.73229283 0.3504869 0.040155344
0.71655566 0.31721479 0.11387312
0.72602057 0.32973763 0.082911938
0.73148227 0.34127498 0.052007906
0.73300087 0.35277241 0.024178015
0.71821433 0.31653339 0.095823616
0.72367609 0.32807076 0.064919583
0.73118269 0.34156442 0.036013328
0.73769349 0.35606149 0.0071438812
0.72189534 0.31682655 0.078754216
0.7263611 0.32936731 0.04788699
0.73086441 0.34187192 0.01901909
0.73838288 0.35836503 -0.0098331124
0.72255421 0.31614873 0.060723506
0.72704268 0.32967123 0.030873962
0.73656076 0.34615722 0.001984179
0.7390722 0.36066866 -0.026810106
0.72623515 0.31644189 0.043654107
0.73373497 0.33295313 0.013802245
