# .PCD v0.7 - Point Cloud Data file format
VERSION 0.7
FIELDS x y z
SIZE 4 4 4
TYPE F F F
COUNT 1 1 1
WIDTH 1390
HEIGHT 1
VIEWPOINT 0 0 0 1 0 0 0
POINTS 1390
DATA ascii
-0.02611593 -0.059798401 0.050936799
-0.02611593 -0.059798401 0.050936799
-0.02611593 -0.059798401 0.050936799
-0.080454797 -0.020167528 -0.027355485
-0.079503298 -0.018117189 -0.030337214
-0.02611593 -0.059798401 0.050936799
-0.08848685 -0.019102804 -0.029186469
-0.02611593 -0.059798401 0.050936799
-0.02611593 -0.059798401 0.050936799
-0.077481009 -0.017142626 -0.029357128
-0.02611593 -0.059798401 0.050936799
-0.085431226 -0.019167839 -0.026243854
-0.089598082 -0.013973447 -0.036075216
-0.02611593 -0.059798401 0.050936799
-0.095477723 -0.017078025 -0.029018898
-0.02611593 -0.059798401 0.050936799
-0.02611593 -0.059798401 0.050936799
-0.082476161 -0.01612485 -0.029245153
-0.02611593 -0.059798401 0.050936799
-0.095492512 -0.016060106 -0.03000053
-0.092541367 -0.014016947 -0.033019859
-0.02611593 -0.059798401 0.050936799
-0.10145397 -0.016074751 -0.027888466
-0.02611593 -0.059798401 0.050936799
-0.02611593 -0.059798401 0.050936799
-0.088489868 -0.015085396 -0.030114047
-0.02611593 -0.059798401 0.050936799
-0.098417066 -0.016121693 -0.025945522
-0.099550955 -0.011974074 -0.033851948
-0.02611593 -0.059798401 0.050936799
-0.10437852 -0.016136339 -0.02383345
-0.02611593 -0.059798401 0.050936799
-0.02611593 -0.059798401 0.050936799
-0.091418348 -0.016146816 -0.026077054
-0.02611593 -0.059798401 0.050936799
-0.10847835 -0.013013957 -0.029702198
-0.10652703 -0.01096721 -0.032702733
-0.02611593 -0.059798401 0.050936799
-0.12050182 -0.0099352235 -0.031421993
-0.02611593 -0.059798401 0.050936799
-0.02611593 -0.059798401 0.050936799
-0.097428121 -0.014107537 -0.026927937
-0.02611593 -0.059798401 0.050936799
-0.11343214 -0.011032533 -0.027572889
-0.11351789 -0.0089424299 -0.032535166
-0.02611593 -0.059798401 0.050936799
-0.12544079 -0.0089717191 -0.028311033
-0.02611593 -0.059798401 0.050936799
-0.02611593 -0.059798401 0.050936799
-0.10238976 -0.01412577 -0.024834663
-0.02611593 -0.059798401 0.050936799
-0.12140801 -0.010022081 -0.026404887
-0.12049004 -0.0069357352 -0.031367935
-0.02611593 -0.059798401 0.050936799
-0.13845623 -0.0038897321 -0.029975984
-0.02611593 -0.059798401 0.050936799
-0.02611593 -0.059798401 0.050936799
-0.11342821 -0.010032702 -0.027554873
-0.02611593 -0.059798401 0.050936799
-0.12837623 -0.0070155589 -0.025219638
-0.12948053 -0.0049037738 -0.031162784
-0.02611593 -0.059798401 0.050936799
-0.14236189 -0.0039658216 -0.024902515
-0.02611593 -0.059798401 0.050936799
-0.02611593 -0.059798401 0.050936799
-0.12345204 -0.0069611464 -0.029312227
-0.02611593 -0.059798401 0.050936799
-0.14341001 -0.0019083041 -0.027846672
-0.13745248 -0.002893494 -0.029976755
-0.02611593 -0.059798401 0.050936799
-0.15334417 7.2971568e-05 -0.024623748
-0.02611593 -0.059798401 0.050936799
-0.02611593 -0.059798401 0.050936799
-0.12837623 -0.0070155589 -0.025219638
-0.02611593 -0.059798401 0.050936799
-0.15237786 0.0011053951 -0.026623838
-0.14843869 0.00014547235 -0.029716004
-0.02611593 -0.059798401 0.050936799
-0.1673259 0.004122539 -0.024288602
-0.02611593 -0.059798401 0.050936799
-0.02611593 -0.059798401 0.050936799
-0.13937722 -0.0029586726 -0.02594053
-0.02611593 -0.059798401 0.050936799
-0.16837402 0.0061800564 -0.027232762
-0.15738781 0.0031410865 -0.027493514
-0.02611593 -0.059798401 0.050936799
-0.18329939 0.010178946 -0.023879848
-0.02611593 -0.059798401 0.050936799
-0.02611593 -0.059798401 0.050936799
-0.15138198 0.00010197191 -0.026660647
-0.02611593 -0.059798401 0.050936799
-0.18534735 0.012240045 -0.026805211
-0.16933638 0.0061474671 -0.025214646
-0.02611593 -0.059798401 0.050936799
-0.21130723 0.021331832 -0.026154492
-0.02611593 -0.059798401 0.050936799
-0.02611593 -0.059798401 0.050936799
-0.16434516 0.0041298615 -0.025344633
-0.02611593 -0.059798401 0.050936799
-0.2043203 0.018307211 -0.026340082
-0.19439007 0.015326104 -0.029581029
-0.02611593 -0.059798401 0.050936799
-0.23728192 0.031441532 -0.026485406
-0.02611593 -0.059798401 0.050936799
-0.02611593 -0.059798401 0.050936799
-0.17932276 0.009182848 -0.024972685
-0.02611593 -0.059798401 0.050936799
-0.2292991 0.027413499 -0.026707802
-0.21535873 0.022400279 -0.029060297
-0.02611593 -0.059798401 0.050936799
-0.26120472 0.040489949 -0.023872949
-0.02611593 -0.059798401 0.050936799
-0.02611593 -0.059798401 0.050936799
-0.19528541 0.013221497 -0.023600303
-0.02611593 -0.059798401 0.050936799
-0.26126483 0.039544396 -0.02688995
-0.23730849 0.029459953 -0.027521107
-0.02611593 -0.059798401 0.050936799
-0.97265792 0.33758473 -0.20423964
-0.02611593 -0.059798401 0.050936799
-0.02611593 -0.059798401 0.050936799
-0.23032156 0.026435345 -0.027706698
-0.97726387 0.33722281 -0.18315281
-0.97391289 0.334824 -0.21727049
-0.27025533 0.041576348 -0.026684798
-0.02611593 -0.059798401 0.050936799
-0.99088979 0.3409287 -0.16382408
-0.97851878 0.33446205 -0.19618368
-0.02611593 -0.059798401 0.050936799
-0.25225261 0.03347693 -0.025167856
-0.99849123 0.34157735 -0.14266287
-0.98512429 0.33410731 -0.17505923
-0.97473425 0.3276298 -0.20638156
-0.02611593 -0.059798401 0.050936799
-1.013113 0.34628665 -0.12329736
-1.0017498 0.33782399 -0.15567416
-0.99038255 0.3303611 -0.18803295
-0.95996046 0.31374115 -0.21591264
-1.0297159 0.35098505 -0.10289461
-1.0093513 0.33847263 -0.13451293
-0.99096352 0.32694915 -0.16507602
-0.97860432 0.31748301 -0.19748962
-1.0433005 0.35565457 -0.081548557
-1.0199482 0.34013194 -0.11327733
-1.0055746 0.32964069 -0.14474688
-0.98521763 0.31512865 -0.17640126
-1.0548894 0.35931706 -0.060258113
-1.0365509 0.3448303 -0.092874587
-1.0171752 0.33030373 -0.12351049
-0.9938041 0.31476301 -0.15423959
-1.0624683 0.36094746 -0.03807921
-1.0471292 0.34647146 -0.070639297
-1.0347778 0.3350057 -0.10308895
-1.0174392 0.32052249 -0.13568661
-1.077034 0.36560249 -0.015714712
-1.0606991 0.35012308 -0.048311606
-1.0383544 0.33260435 -0.080057621
-1.0200011 0.31709966 -0.11169242
-1.0865858 0.36922169 0.0075374618
-1.0802786 0.35581398 -0.026834801
-1.0479329 0.33424196 -0.057841137
-1.0366117 0.31979838 -0.091325715
-1.1011515 0.37387666 0.029901963
-1.0848244 0.3563976 -0.0027309582
-1.0655018 0.33790788 -0.035438284
-1.0571949 0.32449299 -0.069848143
-1.114676 0.37949178 0.054265007
-1.0913886 0.35700649 0.020410795
-1.0800527 0.34154499 -0.012092151
-1.0597529 0.32206997 -0.045835935
-1.1581478 0.39721251 0.07940799
-1.1099271 0.36365744 0.043886144
-1.0906123 0.34316811 0.01114279
-1.0783032 0.32572144 -0.022414632
-0.02611593 -0.059798401 0.050936799
-1.1234368 0.36825463 0.069230832
-1.0921664 0.34174132 0.03515422
-1.0928394 0.32834062 0.0019131452
-1.1662132 0.40035775 0.12863258
-1.1379837 0.37289152 0.092594989
-1.1126711 0.34736338 0.060648464
-1.0933789 0.32589233 0.026887432
-0.02611593 -0.059798401 0.050936799
-1.1524745 0.37747422 0.11895813
-1.1202312 0.34897575 0.083827026
-1.1069193 0.32750809 0.051178392
-1.204147 0.41653609 0.18265375
-1.1839161 0.38909861 0.1467665
-1.1457042 0.35759723 0.11046893
-1.1284047 0.3331157 0.077691093
-1.2255608 0.42608875 0.21223749
-0.02611593 -0.059798401 0.050936799
-1.1781495 0.3682254 0.13827807
-0.02611593 -0.059798401 0.050936799
-1.2330341 0.43062824 0.23946877
-1.2138296 0.40121275 0.2025646
-1.199571 0.37577838 0.16782579
-1.1813397 0.34834808 0.13197611
-1.2305291 0.43013266 0.26642203
-1.2422006 0.41175422 0.23429722
-1.2110327 0.37831444 0.19609584
-0.02611593 -0.059798401 0.050936799
-1.2936771 0.45765212 0.30711594
-1.2645807 0.42027447 0.26588106
-1.2374082 0.38784891 0.22777286
-1.2441114 0.36647111 0.19450039
-1.2752359 0.45113629 0.33166111
-1.2809471 0.42775527 0.29833382
-1.2607733 0.39535481 0.26035714
-1.2376 0.36294362 0.2223241
-1.3035164 0.46560472 0.36746445
-1.2883643 0.43224049 0.32856408
-1.2751666 0.40084687 0.2917366
-1.2808777 0.37746581 0.25840929
-1.3427043 0.48403957 0.40754521
-1.3017204 0.43769273 0.36192405
-1.3064394 0.41230848 0.32854193
-1.2504396 0.36588973 0.28363857
-1.6748425 0.62404716 0.53634
-1.3349437 0.4521248 0.40082034
-1.3098278 0.41474345 0.36066031
-1.3095825 0.38536 0.32611245
-1.7148163 0.64428633 0.58747184
-1.5707672 0.54626244 0.50097239
-1.3519895 0.4301534 0.40274268
-1.2910851 0.37878993 0.35365665
-1.7080982 0.64557695 0.62538218
-1.8093349 0.64317518 0.61423045
-1.5520439 0.5053097 0.49387866
-1.3083842 0.3842023 0.39009079
-1.6874622 0.64087284 0.65992248
-1.8005686 0.64240479 0.65506625
-1.9296417 0.64697558 0.6515643
-1.3594202 0.40253547 0.43839431
-1.6777673 0.64117104 0.69675887
-1.7848303 0.63962775 0.69473481
-1.9168279 0.64413702 0.69528788
-2.0648263 0.64770389 0.6961236
-1.6680496 0.64245099 0.73461288
-1.780037 0.64085329 0.7366814
-1.9129218 0.64525753 0.74325126
-2.0628493 0.64775944 0.74810529
-1.6464514 0.63777936 0.76713502
-1.7652944 0.63907969 0.7763868
-1.8981086 0.64241177 0.7869373
-2.0528998 0.64580482 0.79890084
-1.6317985 0.63709599 0.80186009
-1.7535249 0.63929838 0.81718421
-1.890226 0.64253628 0.83380783
-2.0419321 0.64382833 0.85067725
-1.6220769 0.63937587 0.83973217
-1.7358245 0.63655031 0.85481584
-1.8803623 0.6426717 0.87964112
-2.0339558 0.64386255 0.90254617
-1.6004747 0.63570404 0.87227237
-1.7250172 0.63673645 0.89763141
-1.8665035 0.64179295 0.9253813
-2.0170302 0.64090091 0.95219249
-1.59273 0.63897276 0.91119969
-1.7092898 0.63597715 0.93633634
-1.8476908 0.63893276 0.96899205
-2.005059 0.63992083 1.0039682
-1.5731195 0.63730782 0.94381344
-1.6866276 0.63324732 0.97187465
-1.8348279 0.63905746 1.0147691
-1.9970225 0.64090049 1.0588541
-1.5485594 0.63266158 0.97427994
-1.6758167 0.63443327 1.0147083
-1.8150154 0.63619375 1.0583611
-1.9751209 0.63693929 1.1073887
-1.528945 0.63199645 1.0069118
-1.6541317 0.63268876 1.0512831
-1.7971948 0.63533682 1.1020267
-1.964085 0.6379081 1.1622183
-1.5113115 0.63132042 1.0405807
-1.6344088 0.63091528 1.0898948
-1.7803364 0.63444728 1.1477104
-1.9500685 0.63888437 1.2159917
-1.4896976 0.63064814 1.073175
-1.6097656 0.6281963 1.124396
-1.7585354 0.63359404 1.1903013
-1.9182514 0.6329599 1.2603039
-1.468106 0.62899405 1.1047515
-1.5880808 0.62645185 1.1609708
-1.734761 0.63075209 1.2318188
-1.9022539 0.63394696 1.3130401
-1.4494689 0.6293143 1.1384197
-1.5634338 0.62473279 1.19549
-1.7090057 0.62792104 1.2722992
-1.8704516 0.62904054 1.3563707
-1.4239384 0.62670028 1.1669041
-1.5387681 0.62299567 1.2310088
-1.6832467 0.62608987 1.3127975
-1.8484818 0.62802452 1.4079584
-1.402343 0.62604606 1.1984986
-1.5180602 0.62223649 1.2686201
-1.6564876 0.62425506 1.353277
-1.8274853 0.62899369 1.4606006
-1.3787894 0.62442106 1.2280384
-1.4914324 0.62052828 1.3021019
-1.6277516 0.62143135 1.3927013
-1.8044931 0.62895584 1.5131873
-1.352259 0.62180352 1.2565038
-1.4667441 0.61977285 1.3386384
-1.6029698 0.6205855 1.434236
-1.7628314 0.62214047 1.5492961
-1.3306413 0.62213105 1.2891161
-1.4430555 0.619021 1.3751937
-1.581082 0.62265944 1.4808795
-1.7545241 0.62988377 1.6173038
-1.3021674 0.61956054 1.3145452
-1.4173862 0.61828011 1.4107116
-1.5513421 0.62083197 1.520303
-1.7265743 0.62886429 1.6677792
-1.2746559 0.61695749 1.3419923
-1.3868191 0.61561197 1.4411014
-1.5127883 0.61513567 1.5504885
-1.6799697 0.62208521 1.7007952
-1.2500949 0.61732846 1.3715491
-1.3542898 0.61297297 1.4694544
-1.4810865 0.61333716 1.587875
-1.6402358 0.61922193 1.7400128
-1.222602 0.61474353 1.3979967
-1.3246999 0.61129016 1.5008806
-1.4523013 0.61347675 1.6293528
-1.6034265 0.61629719 1.7832854
-1.197041 0.61511093 1.4275347
-1.2950875 0.61058909 1.5333244
-1.4176375 0.61170375 1.6646836
-1.5607532 0.61247772 1.8194295
-1.1714801 0.6154784 1.4570727
-1.266456 0.60987359 1.5667868
-1.3770989 0.60701817 1.6938498
-1.5238985 0.61151642 1.8647375
-1.1449004 0.61582416 1.4875917
-1.2319645 0.60726351 1.5931027
-1.3492682 0.6091249 1.7373816
-1.4841232 0.60961688 1.9059725
-1.1154416 0.614268 1.5120202
-1.2032917 0.60751164 1.6285824
-1.3126234 0.60736275 1.7716751
-1.4443479 0.60771728 1.9472073
-1.0849868 0.61170852 1.536412
-1.1716943 0.6078214 1.6600071
-1.2720809 0.60367697 1.8008593
-1.4064857 0.60875213 1.9925326
-1.054547 0.61016691 1.5598222
-1.1371803 0.60619307 1.6873407
-1.2402884 0.60580552 1.8423167
-1.3608276 0.60593963 2.0276387
-1.0250467 0.60957438 1.5862681
-1.1046244 0.60553557 1.7167292
-1.2007003 0.60408688 1.8735549
-1.3171279 0.60409814 2.0647998
-0.99554259 0.60998172 1.6127321
-1.0710274 0.60583806 1.7481163
-1.1601312 0.60238272 1.9037749
-1.2694892 0.60129672 2.0988688
-0.96214461 0.60746562 1.6340685
-1.0355134 0.60420614 1.7754312
-1.1234411 0.60258406 1.9401038
-1.2238085 0.59946609 2.1349926
-0.92874271 0.60594946 1.6554229
-0.99803734 0.60260314 1.800709
-1.0770119 0.59898531 1.9631772
-1.1752034 0.59769702 2.1670613
-0.89919722 0.60732049 1.6839042
-0.96350068 0.60195655 1.8290603
-1.0354617 0.5972957 1.9923787
-1.1323756 0.59974992 2.2103114
-0.86581403 0.60582232 1.704259
-0.92024338 0.59753162 1.8431752
-0.99390751 0.59660584 2.0215981
-1.07991 0.59609348 2.2352715
-0.83047253 0.60335332 1.7225589
-0.88370305 0.59787768 1.8715069
-0.94941401 0.59495968 2.0477443
-1.0293241 0.59433532 2.2663031
-0.7951498 0.6009025 1.739859
-0.84528333 0.5963254 1.8937671
-0.90395808 0.59334618 2.071872
-0.97683191 0.59266049 2.2922988
-0.76362336 0.60228437 1.7673031
-0.80774325 0.59666789 1.92208
-0.86044174 0.59268534 2.0990546
-0.92622328 0.59188408 2.324348
-0.72631973 0.59984446 1.7835661
-0.76825964 0.5970574 1.9473565
-0.81304628 0.59011912 2.1201279
-0.87457335 0.59206778 2.3583958
-0.69095552 0.59835714 1.8028835
-0.72691929 0.59456694 1.9655436
-0.76750761 0.59043282 2.1482906
-0.8201378 0.59043998 2.381355
-0.6546064 0.5978843 1.8212007
-0.68649596 0.59400731 1.987784
-0.72104794 0.5898155 2.1724179
-0.74973792 0.5746944 2.3517423
-0.61826122 0.59641159 1.8394997
-0.64700854 0.5953967 2.0130785
-0.67554283 0.59116518 2.1985989
-0.67287225 0.55241323 2.2948806
-0.5819121 0.59593874 1.8578169
-0.60274351 0.59296781 2.0272105
-0.62906063 0.59152967 2.2237437
-0.59996843 0.5301103 2.2400939
-0.54460448 0.59449857 1.8740978
-0.56035805 0.59243721 2.0474143
-0.57407945 0.5843153 2.2235842
-0.53193563 0.51171607 2.1914706
-0.50821394 0.5949893 1.8944323
-0.51611179 0.59002638 2.0605466
-0.51091468 0.56581247 2.1820526
-0.46692109 0.49335074 2.1419046
-0.46800447 0.59262908 1.9056406
-0.47090328 0.58764809 2.071661
-0.44982442 0.54738915 2.13656
-0.40672523 0.47784001 2.1014831
-0.43061021 0.59411603 1.9259742
-0.42747658 0.5880776 2.0938632
-0.39167744 0.52892226 2.0941229
-0.34954759 0.46235818 2.0601187
-0.38948363 0.5898248 1.933129
-0.37868547 0.58006585 2.0838013
-0.33743918 0.51439673 2.0558319
-0.29620373 0.45074528 2.0268986
-0.35116836 0.59038079 1.9494272
-0.32819521 0.56731921 2.0586169
-0.28518179 0.49986017 2.0185778
-0.25155163 0.4559713 2.0601683
-0.31179321 0.59187871 1.9687237
-0.27794534 0.55079025 2.0213645
-0.24422848 0.50982851 2.0670078
-0.20922317 0.47059128 2.1276631
-0.27157977 0.5905183 1.9799498
-0.23968709 0.56649685 2.0849538
-0.20190001 0.52444851 2.1345026
-0.16195568 0.48424798 2.1920471
-0.23044536 0.58822674 1.9871407
-0.1975724 0.57931626 2.1414163
-0.156647 0.53913027 2.1979423
-0.1240471 0.56978989 2.5430038
-0.18913065 0.58877194 2.0033827
-0.1521343 0.5827381 2.1636353
-0.11186159 0.57542223 2.3388083
-0.063885644 0.5704115 2.5508912
-0.14697374 0.58745849 2.0115724
-0.1040386 0.58045757 2.1686952
-0.058642693 0.57601488 2.3498261
-0.0039872304 0.56626928 2.5456929
-0.10579796 0.58613062 2.0207806
-0.057017613 0.57825303 2.169775
-0.0057016201 0.57286131 2.3467767
0.055080794 0.56698495 2.5486012
-0.062618591 0.5857954 2.0299692
-0.0099779032 0.57603049 2.171855
0.046521395 0.57445723 2.3578317
0.11504324 0.56478804 2.546438
-0.019439243 0.58546025 2.0391576
0.037283469 0.57760823 2.185003
0.10046229 0.57130015 2.3547637
0.17506969 0.56453657 2.5473096
0.022661481 0.58420116 2.0443485
0.086382911 0.57632399 2.1900625
0.15456867 0.57199764 2.3597651
0.23605853 0.56431764 2.5461633
0.065822124 0.583884 2.0525377
0.13438892 0.5751338 2.1901422
0.20953596 0.57081848 2.3577139
-0.02611593 -0.059798401 0.050936799
0.1109223 0.58261412 2.0576718
0.18339474 0.57394004 2.1902032
-0.02611593 -0.059798401 0.050936799
0.14940566 0.22597876 1.1932071
0.15500787 0.58236581 2.0618434
0.23133676 0.57080442 2.1872478
0.14343007 0.25106841 1.1897718
0.41466218 0.56201923 2.5237706
0.19895057 0.57924455 2.0589633
-0.02611593 -0.059798401 0.050936799
0.20541444 0.30621433 1.3906769
0.25745869 0.29196623 1.4484643
-0.02611593 -0.059798401 0.050936799
0.3326562 0.57513356 2.2024341
0.24628197 0.31827265 1.4341446
0.29135883 0.29193467 1.4428271
0.15162499 0.30103117 1.1905223
0.38044447 0.57114291 2.1914635
0.2825197 0.32292554 1.4455541
0.32737881 0.29378706 1.4431864
0.33408651 0.57659763 2.0653875
0.27275562 0.35384759 1.4522986
0.5350526 0.567047 2.3295414
0.36236155 0.29567915 1.441565
0.26029256 0.38950828 1.4741844
0.48365122 0.57557338 2.2006145
0.58571321 0.56417197 2.3115349
0.39520574 0.29570544 1.4329476
0.42720449 0.57713699 2.0706556
0.5302633 0.56974941 2.1806297
0.63835478 0.56130791 2.2924912
0.430087 0.29568836 1.4262919
0.47309458 0.57506275 2.0647566
0.57906324 0.56875467 2.1696942
0.41513568 0.32179204 1.4240434
0.4565382 0.29109883 1.3977041
0.52012742 0.57585776 2.065891
0.62890029 0.56772006 2.1607394
0.44270295 0.31809023 1.4014527
-0.02611593 -0.059798401 0.050936799
0.56708127 0.57572526 2.0630083
0.67983878 0.56859112 2.1568003
0.46815038 0.31250441 1.3728654
0.38565043 0.20465739 1.0483493
0.61399394 0.57462907 2.0581086
0.72857857 0.56665075 2.1428478
0.37690303 0.22552334 1.0578936
0.52883685 0.27740949 1.3090727
0.66086906 0.57356912 2.0512097
0.7804606 0.56757247 2.1358907
0.46578276 0.26858395 1.2020575
1.0461524 0.5569973 2.3317914
0.70774412 0.57250911 2.0443103
-0.02611593 -0.059798401 0.050936799
0.54381216 0.30046031 1.3032074
1.0986146 0.55631381 2.3027868
-0.02611593 -0.059798401 0.050936799
0.51965868 0.31776065 1.2919687
1.0074481 0.56074923 2.187535
1.1531403 0.55756843 2.2767801
0.39076406 0.25772092 1.044212
0.52966547 0.30462798 1.2415267
1.0580044 0.55998242 2.1635666
1.2025055 0.55598634 2.2428155
0.53821856 0.34625697 1.3161449
0.98572326 0.5705201 2.0940869
1.1106576 0.56011784 2.1445768
1.2560087 0.55626279 2.2158096
0.5106203 0.30570558 1.185884
1.0291713 0.56586951 2.0651796
1.1581392 0.55943418 2.1166658
1.3053778 0.55568045 2.1818633
0.95520896 0.57610679 2.0127316
1.0788251 0.56601566 2.0462458
1.2148974 0.56246424 2.102653
1.3568294 0.55701828 2.1519141
1.0008104 0.57230419 1.991802
1.1274751 0.56516564 2.0273132
1.260278 0.55987853 2.0697455
1.4062024 0.55743575 2.1179857
1.0454385 0.57048666 1.9719268
1.1761105 0.56533343 2.0073991
1.3067224 0.55923462 2.0398543
1.4504747 0.55596203 2.0791168
1.0931637 0.5695678 1.9570116
1.2246859 0.5645557 1.9844677
1.3552307 0.56052887 2.0129604
1.499833 0.55739737 2.0442071
1.1408139 0.56872135 1.9380977
1.2733063 0.56574148 1.9635718
1.3985555 0.55800462 1.9770914
1.5471916 0.55884004 2.0093346
1.1905614 0.56877702 1.9241625
1.319803 0.5640434 1.9366615
1.4501045 0.56025177 1.9521586
1.5873485 0.55648929 1.9645251
1.2382157 0.56893039 1.9052668
1.3704457 0.56620377 1.9167455
1.4944745 0.55968738 1.9183061
1.6336697 0.5579716 1.9276721
1.2868657 0.56808031 1.8863341
1.4159054 0.56454545 1.8878547
1.5408667 0.56009758 1.8854338
1.6779541 0.55949736 1.8888575
1.3314004 0.56635326 1.8614606
1.4613727 0.56488681 1.8589997
1.5913597 0.56240261 1.8575208
1.7181374 0.55912817 1.8450837
1.3810208 0.56753546 1.8405459
1.5150375 0.5680182 1.8400453
1.6285586 0.56102628 1.8147848
1.7542429 0.55784589 1.7973683
1.4316783 0.5686779 1.8216116
1.5563668 0.5665009 1.8042319
1.6739323 0.56145811 1.7809317
1.7985724 0.56133515 1.7605889
1.4771979 0.56796521 1.7957377
1.6028152 0.5668568 1.7743585
1.7111537 0.56106359 1.7392135
1.8367188 0.56100929 1.7148534
1.5257394 0.56822342 1.7708251
1.6461854 0.56629598 1.7405249
1.7565126 0.56251329 1.7043786
1.8759104 0.56264341 1.6711344
1.5773408 0.56941646 1.7488731
1.6854961 0.56480396 1.7037495
1.7957566 0.56309336 1.6636406
1.915102 0.56427753 1.6274152
1.6156441 0.5659284 1.7120805
1.732911 0.56619227 1.6718761
1.8462013 0.56745225 1.6327646
1.9471745 0.56404561 1.5777938
1.6702524 0.56911039 1.6901082
1.7803484 0.56856239 1.6410203
1.8813443 0.56613743 1.5870672
1.9772515 0.56482077 1.5282279
1.7126189 0.56755328 1.6562753
1.8206255 0.56810272 1.6022447
1.9215919 0.56771368 1.5463284
2.0164471 0.56745464 1.4845269
1.7621083 0.56886214 1.6283629
1.8660069 0.57053429 1.5684277
1.9608208 0.56931156 1.5046086
2.0465238 0.56822979 1.434961
1.8054783 0.56830126 1.5945294
1.9042244 0.56913626 1.5266727
1.9959905 0.56997824 1.4599471
2.0776007 0.56900132 1.3853762
1.857975 0.57159901 1.5665967
1.9454865 0.569691 1.4868966
2.0189779 0.56685156 1.406442
2.1066816 0.57077986 1.3358471
1.906348 0.57202011 1.5326871
1.9837117 0.57029271 1.4451777
2.0683331 0.57230443 1.3706044
2.1357627 0.57255828 1.2863181
1.9526842 0.57248455 1.4968158
2.030041 0.57377476 1.4083607
2.0994287 0.57305783 1.3220195
2.1577432 0.57245272 1.2318863
1.9939425 0.57203948 1.4570218
2.0631843 0.57246709 1.3627012
2.1234426 0.57190907 1.2695312
2.1868284 0.57523113 1.1823751
2.0362043 0.57259065 1.417227
2.1054165 0.57505411 1.3209431
2.1565793 0.57361901 1.222926
2.209832 0.57610375 1.1289421
2.0764253 0.57218528 1.3754524
2.1425858 0.57571363 1.2762439
2.186656 0.57439405 1.1733601
2.2328537 0.57695824 1.0765088
2.1216908 0.57372552 1.3356193
2.1807587 0.57736933 1.2315441
2.2147334 0.57517636 1.1238319
2.255861 0.57883072 1.0230937
2.1669374 0.57528383 1.2947866
2.2057686 0.57521725 1.1790191
2.2427957 0.5769766 1.0733218
2.2738652 0.57972121 0.96975464
2.2091057 0.57592535 1.2499934
2.2449267 0.5778873 1.1333188
2.2738805 0.5797478 1.0237732
2.2928545 0.581626 0.91541523
2.2502742 0.57657057 1.2052191
2.2739816 0.57768434 1.0827539
2.2938616 0.57964939 0.96937883
2.3138661 0.58450544 0.86205584
2.2934463 0.57820839 1.1604253
2.3070617 0.57944846 1.0331497
2.3279684 0.58339149 0.92079151
2.3248117 0.58447552 0.80583125
2.3315406 0.5789367 1.1117089
2.3360825 0.58028138 0.98060364
2.3429091 0.58234751 0.86447388
2.3407788 0.58540946 0.75053048
2.3726568 0.58063596 1.0639535
2.3681443 0.58206731 0.93001848
2.3618944 0.58325249 0.81011635
2.3507469 0.58636481 0.69534242
2.4076915 0.58042943 1.0122763
2.3971653 0.58290023 0.8774724
2.3838832 0.58514655 0.75572044
2.3657222 0.589302 0.64009643
2.4447334 0.58221543 0.96059757
2.4251714 0.58475465 0.8239634
2.4088941 0.58801162 0.70228589
2.372668 0.58928639 0.58394706
2.491838 0.58591098 0.91176599
2.448137 0.58566344 0.76853108
2.4168172 0.58701074 0.64510006
2.379637 0.59025258 0.52881533
2.5177577 0.58484548 0.85424185
2.4700994 0.585576 0.7130996
2.4327695 0.5889625 0.58881766
2.3926125 0.59319693 0.473607
2.5628061 0.58860248 0.80244887
2.4980683 0.5874666 0.65759134
2.4477406 0.59089988 0.5335536
2.3965631 0.59419191 0.41753203
2.5947559 0.59049684 0.74586582
2.5240228 0.59038234 0.60113901
2.4636705 0.59186989 0.47625351
2.4045393 0.59715426 0.36241761
2.6196198 0.58948922 0.6853615
2.5419333 0.59136331 0.54280162
2.4756236 0.59383607 0.42004627
2.4054871 0.59716022 0.30638099
2.6444876 0.58948141 0.62487531
2.5668693 0.59430081 0.4853684
2.4855583 0.59582752 0.36287689
2.4064419 0.59916586 0.2503804
2.6743813 0.59143722 0.5653308
2.5857611 0.59529626 0.42601261
2.4964705 0.59683365 0.30467102
2.4264467 0.60506642 0.19609419
2.705256 0.59340751 0.50476789
2.5996349 0.59632778 0.36575106
2.5084088 0.59981769 0.24748211
2.4003603 0.60018831 0.13947517
2.7340937 0.5954212 0.44224319
2.6074874 0.59639907 0.30458462
2.4922643 0.59495789 0.18767621
2.4143436 0.60512865 0.084284022
2.7569096 0.59647471 0.37881356
2.5501912 0.57979697 0.23933493
2.4601111 0.58715606 0.12811688
2.416321 0.60811245 0.02928232
2.7776887 0.59757149 0.3134222
2.4849114 0.56220573 0.17521718
2.4680688 0.59013641 0.072002783
2.4223058 0.61308151 -0.025758501
2.7854395 0.59573358 0.2472214
2.4998264 0.56419724 0.11695421
2.455992 0.58820742 0.015174733
2.3202634 0.58737111 -0.075329863
2.8102257 0.5988158 0.1817909
2.5357649 0.57311231 0.058422774
2.4399116 0.58529299 -0.041596156
2.2892904 0.58240235 -0.12585697
2.8199427 0.59800673 0.11357122
2.5596757 0.57908893 -0.00093690306
2.3048627 0.55168432 -0.089691937
-0.02611593 -0.059798401 0.050936799
2.8547013 0.6040886 0.046007559
2.4184885 0.54362881 -0.055953588
-0.02611593 -0.059798401 0.050936799
1.0477057 0.24139032 -0.079764113
2.8694439 0.60524315 -0.021270383
1.27763 0.26171455 -0.036686674
1.1039083 0.23797278 -0.068874516
1.0262779 0.23686451 -0.10145214
2.4540827 0.50875878 -0.071255952
1.1791232 0.23848635 -0.058269851
1.0944192 0.23747557 -0.094714597
-0.02611593 -0.059798401 0.050936799
1.259415 0.23489226 -0.042832911
1.1656042 0.23502208 -0.085088506
2.3976755 0.58547348 -0.31989646
1.0752722 0.25571311 -0.15904802
2.4988172 0.5177958 -0.19397163
2.3333018 0.52690262 -0.27473536
-0.02611593 -0.059798401 0.050936799
1.0209463 0.24218059 -0.17328051
2.4946678 0.51691025 -0.25493062
2.4799597 0.56477612 -0.35482326
1.1019394 0.24388953 -0.17476651
1.0165017 0.2436289 -0.1971792
2.4995096 0.51901019 -0.31700432
2.2733331 0.51597619 -0.37684488
2.2718475 0.56357831 -0.46498585
1.0549091 0.25710177 -0.23166627
2.4574296 0.51017195 -0.37239513
2.26332 0.51598543 -0.43067548
2.2887521 0.57259768 -0.52515966
1.0315231 0.25354677 -0.25129938
2.2528141 0.46436432 -0.39440027
2.2971544 0.52701586 -0.49513125
2.3405211 0.59165251 -0.59480774
1.0181096 0.25299153 -0.27306569
2.3035972 0.47738767 -0.46213844
2.311033 0.53406447 -0.55628431
-0.02611593 -0.059798401 0.050936799
0.99972653 0.25041845 -0.29277474
2.3353682 0.48647985 -0.52959162
2.4622941 0.57631725 -0.65838671
-0.02611593 -0.059798401 0.050936799
0.21256895 0.012829407 -0.03524746
2.4965782 0.52573347 -0.63393521
2.4661143 0.58245617 -0.72236878
2.3710668 0.61794543 -0.78396821
0.19357152 0.0078803618 -0.033980884
2.4983537 0.52991605 -0.69991517
2.4062166 0.57150203 -0.76746076
-0.02611593 -0.059798401 0.050936799
-0.02611593 -0.059798401 0.050936799
2.4384186 0.51899809 -0.74700654
2.322506 0.55443603 -0.80121362
0.18754907 0.0019029109 -0.033976249
0.17251828 0.0029927534 -0.035675693
2.3874748 0.51106542 -0.79521257
-0.02611593 -0.059798401 0.050936799
-0.02611593 -0.059798401 0.050936799
-0.02611593 -0.059798401 0.050936799
-0.02611593 -0.059798401 0.050936799
0.18448859 -0.0040491247 -0.036027309
0.168458 -0.0029556896 -0.037707966
0.15148376 -0.0019129401 -0.036370851
0.19145288 -0.0080554765 -0.037230581
-0.02611593 -0.059798401 0.050936799
-0.02611593 -0.059798401 0.050936799
-0.02611593 -0.059798401 0.050936799
-0.02611593 -0.059798401 0.050936799
0.15746997 -0.0099512041 -0.035628077
0.14744221 -0.0078794751 -0.037403457
0.12751684 -0.0088798804 -0.03304702
0.16343443 -0.013953964 -0.036812559
-0.02611593 -0.059798401 0.050936799
-0.02611593 -0.059798401 0.050936799
-0.02611593 -0.059798401 0.050936799
-0.02611593 -0.059798401 0.050936799
0.13346951 -0.015882134 -0.034285549
0.12247939 -0.013842996 -0.034042813
0.1125078 -0.011825539 -0.032819219
0.13943791 -0.018885072 -0.035452012
-0.02611593 -0.059798401 0.050936799
-0.02611593 -0.059798401 0.050936799
-0.02611593 -0.059798401 0.050936799
-0.02611593 -0.059798401 0.050936799
0.11746065 -0.018824205 -0.034038953
0.11243591 -0.015770592 -0.035890281
0.10047948 -0.014763874 -0.03364744
0.12241052 -0.021805461 -0.036186293
-0.02611593 -0.059798401 0.050936799
-0.02611593 -0.059798401 0.050936799
-0.02611593 -0.059798401 0.050936799
-0.02611593 -0.059798401 0.050936799
0.1014666 -0.02278419 -0.032810725
0.099407785 -0.018705338 -0.036699716
0.090454735 -0.016709555 -0.034495238
0.10541664 -0.025761856 -0.034939263
-0.02611593 -0.059798401 0.050936799
-0.02611593 -0.059798401 0.050936799
-0.02611593 -0.059798401 0.050936799
-0.02611593 -0.059798401 0.050936799
0.088461123 -0.024737192 -0.032602489
0.089383036 -0.020651022 -0.03754751
0.080429986 -0.018655237 -0.035343036
0.09437336 -0.027685862 -0.03676793
-0.02611593 -0.059798401 0.050936799
-0.02611593 -0.059798401 0.050936799
-0.02611593 -0.059798401 0.050936799
-0.02611593 -0.059798401 0.050936799
0.07943619 -0.026686464 -0.033469059
0.079358295 -0.0225967 -0.038395297
0.0714425 -0.020640688 -0.034210294
0.080405511 -0.029671457 -0.034541573
-0.02611593 -0.059798401 0.050936799
-0.02611593 -0.059798401 0.050936799
-0.02611593 -0.059798401 0.050936799
-0.02611593 -0.059798401 0.050936799
0.067449257 -0.028661147 -0.032279961
0.065442681 -0.02563639 -0.033187974
0.063417383 -0.022593543 -0.035095669
0.07236167 -0.031606223 -0.036426611
-0.02611593 -0.059798401 0.050936799
-0.02611593 -0.059798401 0.050936799
-0.02611593 -0.059798401 0.050936799
-0.02611593 -0.059798401 0.050936799
0.060423963 -0.030617591 -0.033184115
0.060383502 -0.026564008 -0.036111031
0.053448811 -0.024593491 -0.032944471
0.061393272 -0.033602588 -0.034256626
-0.02611593 -0.059798401 0.050936799
-0.02611593 -0.059798401 0.050936799
-0.02611593 -0.059798401 0.050936799
-0.02611593 -0.059798401 0.050936799
0.049493007 -0.032650132 -0.029014818
0.054328434 -0.026488207 -0.038997274
0.046460956 -0.026586119 -0.031849321
0.054357108 -0.033541285 -0.036124419
-0.02611593 -0.059798401 0.050936799
-0.02611593 -0.059798401 0.050936799
-0.02611593 -0.059798401 0.050936799
-0.02611593 -0.059798401 0.050936799
0.044437751 -0.032577921 -0.031919848
0.046359491 -0.028495336 -0.036883663
0.039458305 -0.027560828 -0.031735804
0.047350537 -0.035515822 -0.036028925
-0.02611593 -0.059798401 0.050936799
-0.02611593 -0.059798401 0.050936799
-0.02611593 -0.059798401 0.050936799
-0.02611593 -0.059798401 0.050936799
0.038434923 -0.033556219 -0.031825125
0.040356662 -0.029473633 -0.036788937
0.035417672 -0.028510123 -0.03367798
0.039348066 -0.036486942 -0.035896614
-0.02611593 -0.059798401 0.050936799
-0.02611593 -0.059798401 0.050936799
-0.02611593 -0.059798401 0.050936799
-0.02611593 -0.059798401 0.050936799
0.033394471 -0.034501925 -0.033748511
0.034316383 -0.030415747 -0.03869354
0.028452467 -0.029521011 -0.031565148
0.033349168 -0.03646541 -0.035783872
-0.02611593 -0.059798401 0.050936799
-0.02611593 -0.059798401 0.050936799
-0.02611593 -0.059798401 0.050936799
-0.02611593 -0.059798401 0.050936799
0.025448173 -0.035527315 -0.030617222
0.028350998 -0.031430222 -0.036599487
0.024415756 -0.029470477 -0.033489302
0.027327614 -0.037425615 -0.036688808
-0.02611593 -0.059798401 0.050936799
-0.02611593 -0.059798401 0.050936799
-0.02611593 -0.059798401 0.050936799
-0.02611593 -0.059798401 0.050936799
0.021411456 -0.035476778 -0.032541376
0.022348169 -0.032408521 -0.03650476
0.019431459 -0.030470446 -0.032413702
0.022309808 -0.037389584 -0.037594512
-0.02611593 -0.059798401 0.050936799
-0.02611593 -0.059798401 0.050936799
-0.02611593 -0.059798401 0.050936799
-0.02611593 -0.059798401 0.050936799
0.017374748 -0.035426248 -0.034465548
0.018292731 -0.032339897 -0.039428584
-0.02611593 -0.059798401 0.050936799
-0.02611593 -0.059798401 0.050936799
-0.02611593 -0.059798401 0.050936799
-0.02611593 -0.059798401 0.050936799
-0.02611593 -0.059798401 0.050936799
-0.02611593 -0.059798401 0.050936799
-0.02611593 -0.059798401 0.050936799
0.014256018 -0.032289363 -0.041352741
-0.02611593 -0.059798401 0.050936799
-0.02611593 -0.059798401 0.050936799
-0.02611593 -0.059798401 0.050936799
-0.02611593 -0.059798401 0.050936799
-0.02611593 -0.059798401 0.050936799
-0.02611593 -0.059798401 0.050936799
-0.02611593 -0.059798401 0.050936799
-0.02611593 -0.059798401 0.050936799
-0.02611593 -0.059798401 0.050936799
-0.02611593 -0.059798401 0.050936799
-0.02611593 -0.059798401 0.050936799
-0.02611593 -0.059798401 0.050936799
-0.02611593 -0.059798401 0.050936799
-0.02611593 -0.059798401 0.050936799
-0.02611593 -0.059798401 0.050936799
0.0042726435 -0.033271395 -0.040183198
-0.02611593 -0.059798401 0.050936799
-0.02611593 -0.059798401 0.050936799
-0.02611593 -0.059798401 0.050936799
-0.02611593 -0.059798401 0.050936799
-0.02611593 -0.059798401 0.050936799
-0.02611593 -0.059798401 0.050936799
-0.02611593 -0.059798401 0.050936799
-0.02611593 -0.059798401 0.050936799
-0.02611593 -0.059798401 0.050936799
-0.02611593 -0.059798401 0.050936799
-0.02611593 -0.059798401 0.050936799
-0.02611593 -0.059798401 0.050936799
-0.02611593 -0.059798401 0.050936799
-0.02611593 -0.059798401 0.050936799
-0.02611593 -0.059798401 0.050936799
-0.02611593 -0.059798401 0.050936799
-0.02611593 -0.059798401 0.050936799
-0.02611593 -0.059798401 0.050936799
-0.02611593 -0.059798401 0.050936799
-0.02611593 -0.059798401 0.050936799
-0.02611593 -0.059798401 0.050936799
-0.02611593 -0.059798401 0.050936799
-0.02611593 -0.059798401 0.050936799
-0.02611593 -0.059798401 0.050936799
-0.02611593 -0.059798401 0.050936799
-0.02611593 -0.059798401 0.050936799
-0.02611593 -0.059798401 0.050936799
-0.02611593 -0.059798401 0.050936799
-0.02611593 -0.059798401 0.050936799
-0.02611593 -0.059798401 0.050936799
-0.02611593 -0.059798401 0.050936799
-0.02611593 -0.059798401 0.050936799
-0.02611593 -0.059798401 0.050936799
-0.02611593 -0.059798401 0.050936799
-0.02611593 -0.059798401 0.050936799
-0.02611593 -0.059798401 0.050936799
-0.02611593 -0.059798401 0.050936799
-0.02611593 -0.059798401 0.050936799
-0.02611593 -0.059798401 0.050936799
-0.02611593 -0.059798401 0.050936799
-0.02611593 -0.059798401 0.050936799
-0.02611593 -0.059798401 0.050936799
-0.02611593 -0.059798401 0.050936799
-0.02611593 -0.059798401 0.050936799
-0.02611593 -0.059798401 0.050936799
-0.02611593 -0.059798401 0.050936799
-0.02611593 -0.059798401 0.050936799
-0.02611593 -0.059798401 0.050936799
-0.02611593 -0.059798401 0.050936799
-0.02611593 -0.059798401 0.050936799
-0.02611593 -0.059798401 0.050936799
-0.02611593 -0.059798401 0.050936799
-0.02611593 -0.059798401 0.050936799
-0.02611593 -0.059798401 0.050936799
-0.02611593 -0.059798401 0.050936799
-0.025834205 -0.033055194 -0.04561745
-0.02611593 -0.059798401 0.050936799
-0.02611593 -0.059798401 0.050936799
-0.02611593 -0.059798401 0.050936799
-0.02611593 -0.059798401 0.050936799
-0.02611593 -0.059798401 0.050936799
-0.02611593 -0.059798401 0.050936799
-0.02611593 -0.059798401 0.050936799
-0.02611593 -0.059798401 0.050936799
-0.02611593 -0.059798401 0.050936799
-0.02611593 -0.059798401 0.050936799
-0.02611593 -0.059798401 0.050936799
-0.02611593 -0.059798401 0.050936799
-0.02611593 -0.059798401 0.050936799
-0.02611593 -0.059798401 0.050936799
-0.02611593 -0.059798401 0.050936799
-0.02611593 -0.059798401 0.050936799
-0.02611593 -0.059798401 0.050936799
-0.02611593 -0.059798401 0.050936799
-0.02611593 -0.059798401 0.050936799
-0.02611593 -0.059798401 0.050936799
-0.02611593 -0.059798401 0.050936799
-0.02611593 -0.059798401 0.050936799
-0.02611593 -0.059798401 0.050936799
-0.02611593 -0.059798401 0.050936799
-0.02611593 -0.059798401 0.050936799
-0.02611593 -0.059798401 0.050936799
-0.02611593 -0.059798401 0.050936799
-0.02611593 -0.059798401 0.050936799
-0.02611593 -0.059798401 0.050936799
-0.02611593 -0.059798401 0.050936799
-0.02611593 -0.059798401 0.050936799
-0.02611593 -0.059798401 0.050936799
-0.02611593 -0.059798401 0.050936799
-0.02611593 -0.059798401 0.050936799
-0.02611593 -0.059798401 0.050936799
-0.02611593 -0.059798401 0.050936799
-0.02611593 -0.059798401 0.050936799
-0.02611593 -0.059798401 0.050936799
-0.02611593 -0.059798401 0.050936799
-0.02611593 -0.059798401 0.050936799
-0.02611593 -0.059798401 0.050936799
-0.02611593 -0.059798401 0.050936799
-0.02611593 -0.059798401 0.050936799
-0.02611593 -0.059798401 0.050936799
-0.02611593 -0.059798401 0.050936799
-0.02611593 -0.059798401 0.050936799
-0.02611593 -0.059798401 0.050936799
-0.02611593 -0.059798401 0.050936799
-0.02611593 -0.059798401 0.050936799
-0.02611593 -0.059798401 0.050936799
-0.02611593 -0.059798401 0.050936799
-0.02611593 -0.059798401 0.050936799
-0.02611593 -0.059798401 0.050936799
-0.02611593 -0.059798401 0.050936799
-0.02611593 -0.059798401 0.050936799
-0.02611593 -0.059798401 0.050936799
-0.02611593 -0.059798401 0.050936799
-0.02611593 -0.059798401 0.050936799
-0.02611593 -0.059798401 0.050936799
-0.02611593 -0.059798401 0.050936799
-0.02611593 -0.059798401 0.050936799
-0.02611593 -0.059798401 0.050936799
-0.02611593 -0.059798401 0.050936799
-0.058719754 -0.034045123 -0.039017413
-0.02611593 -0.059798401 0.050936799
-0.02611593 -0.059798401 0.050936799
-0.02611593 -0.059798401 0.050936799
-0.02611593 -0.059798401 0.050936799
-0.02611593 -0.059798401 0.050936799
-0.02611593 -0.059798401 0.050936799
-0.02611593 -0.059798401 0.050936799
-0.02611593 -0.059798401 0.050936799
-0.02611593 -0.059798401 0.050936799
-0.02611593 -0.059798401 0.050936799
-0.02611593 -0.059798401 0.050936799
-0.02611593 -0.059798401 0.050936799
-0.02611593 -0.059798401 0.050936799
-0.02611593 -0.059798401 0.050936799
-0.02611593 -0.059798401 0.050936799
-0.067695454 -0.03303108 -0.037830617
-0.02611593 -0.059798401 0.050936799
-0.073668696 -0.03604522 -0.035772603
-0.02611593 -0.059798401 0.050936799
-0.02611593 -0.059798401 0.050936799
-0.02611593 -0.059798401 0.050936799
-0.02611593 -0.059798401 0.050936799
-0.02611593 -0.059798401 0.050936799
-0.071657285 -0.033052906 -0.03575613
-0.068639107 -0.033081759 -0.034812842
-0.077611804 -0.036085129 -0.032698464
-0.02611593 -0.059798401 0.050936799
-0.02611593 -0.059798401 0.050936799
-0.02611593 -0.059798401 0.050936799
-0.02611593 -0.059798401 0.050936799
-0.02611593 -0.059798401 0.050936799
-0.075619102 -0.033074725 -0.03368165
-0.072634451 -0.032067571 -0.034719661
-0.082592167 -0.03608527 -0.031604841
-0.02611593 -0.059798401 0.050936799
-0.02611593 -0.059798401 0.050936799
-0.02611593 -0.059798401 0.050936799
-0.02611593 -0.059798401 0.050936799
-0.081569701 -0.035107121 -0.030605949
-0.080618188 -0.033056781 -0.033587694
-0.077614807 -0.032067716 -0.03362605
-0.089620471 -0.034024313 -0.0334366
-0.02611593 -0.059798401 0.050936799
-0.02611593 -0.059798401 0.050936799
-0.02611593 -0.059798401 0.050936799
-0.02611593 -0.059798401 0.050936799
-0.08654613 -0.034107435 -0.029494327
-0.089702301 -0.030934377 -0.038380846
-0.082595177 -0.032067861 -0.032532435
-0.092548959 -0.035085734 -0.029399604
-0.02611593 -0.059798401 0.050936799
-0.02611593 -0.059798401 0.050936799
-0.02611593 -0.059798401 0.050936799
-0.02611593 -0.059798401 0.050936799
-0.090489231 -0.034147345 -0.02642018
-0.093645401 -0.030974286 -0.0353067
-0.085538454 -0.032111362 -0.029477078
-0.10157691 -0.033017591 -0.031193767
-0.02611593 -0.059798401 0.050936799
-0.02611593 -0.059798401 0.050936799
-0.02611593 -0.059798401 0.050936799
-0.02611593 -0.059798401 0.050936799
-0.099535897 -0.032061119 -0.029214013
-0.098607041 -0.030992519 -0.033213429
-0.095641106 -0.029967276 -0.035251103
-0.10958631 -0.030971132 -0.032007072
-0.02611593 -0.059798401 0.050936799
-0.02611593 -0.059798401 0.050936799
-0.02611593 -0.059798401 0.050936799
-0.02611593 -0.059798401 0.050936799
-0.10451626 -0.032061264 -0.028120391
-0.10561662 -0.028949652 -0.034045517
-0.099584207 -0.030007191 -0.032176964
-0.11554384 -0.029985946 -0.029876981
-0.02611593 -0.059798401 0.050936799
-0.02611593 -0.059798401 0.050936799
-0.02611593 -0.059798401 0.050936799
-0.02611593 -0.059798401 0.050936799
-0.11757699 -0.02894276 -0.031820714
-0.11361124 -0.02792111 -0.033877175
-0.10454585 -0.030025423 -0.030083675
-0.12758996 -0.027888954 -0.032614447
-0.02611593 -0.059798401 0.050936799
-0.02611593 -0.059798401 0.050936799
-0.02611593 -0.059798401 0.050936799
-0.02611593 -0.059798401 0.050936799
-0.12355324 -0.027939487 -0.030690283
-0.12262438 -0.02687089 -0.034689698
-0.11457361 -0.027953699 -0.031859066
-0.13556193 -0.025878668 -0.031428427
-0.02611593 -0.059798401 0.050936799
-0.02611593 -0.059798401 0.050936799
-0.02611593 -0.059798401 0.050936799
-0.02611593 -0.059798401 0.050936799
-0.1274589 -0.028015576 -0.025616817
-0.1285632 -0.025903791 -0.031559959
-0.11849798 -0.028011698 -0.027785253
-0.14655204 -0.02383953 -0.031185694
-0.02611593 -0.059798401 0.050936799
-0.02611593 -0.059798401 0.050936799
-0.02611593 -0.059798401 0.050936799
-0.02611593 -0.059798401 0.050936799
-0.13946757 -0.025954759 -0.026354954
-0.13855352 -0.02386824 -0.031336021
-0.12952557 -0.02593638 -0.029541835
-0.15449047 -0.022865258 -0.028018367
-0.02611593 -0.059798401 0.050936799
-0.02611593 -0.059798401 0.050936799
-0.02611593 -0.059798401 0.050936799
-0.02611593 -0.059798401 0.050936799
-0.14945395 -0.022919381 -0.026112992
-0.14651459 -0.02387571 -0.029186361
-0.13951981 -0.02490066 -0.029335916
-0.16847615 -0.019815525 -0.027701244
-0.02611593 -0.059798401 0.050936799
-0.02611593 -0.059798401 0.050936799
-0.02611593 -0.059798401 0.050936799
-0.02611593 -0.059798401 0.050936799
-0.15941076 -0.021919841 -0.023907751
-0.15546766 -0.02187993 -0.02698189
-0.14647715 -0.023911886 -0.027187042
-0.1844575 -0.015758781 -0.027328517
-0.02611593 -0.059798401 0.050936799
-0.02611593 -0.059798401 0.050936799
-0.02611593 -0.059798401 0.050936799
-0.02611593 -0.059798401 0.050936799
-0.18044344 -0.016791057 -0.026422035
-0.16945724 -0.019830026 -0.026682787
-0.1493682 -0.025009483 -0.021150727
-0.21048535 -0.0096122213 -0.029730842
-0.02611593 -0.059798401 0.050936799
-0.02611593 -0.059798401 0.050936799
-0.02611593 -0.059798401 0.050936799
-0.02611593 -0.059798401 0.050936799
-0.20345704 -0.011673183 -0.027899079
-0.18845676 -0.015744425 -0.027253356
-0.16740537 -0.020891298 -0.023739405
-0.23645702 -0.003519929 -0.029134177
-0.02611593 -0.059798401 0.050936799
-0.02611593 -0.059798401 0.050936799
-0.02611593 -0.059798401 0.050936799
-0.02611593 -0.059798401 0.050936799
-0.23448004 -0.0045088488 -0.030189436
-0.21951722 -0.008543916 -0.031543028
-0.18942307 -0.016776845 -0.025253259
-0.26642403 0.0035865454 -0.028444331
-0.02611593 -0.059798401 0.050936799
-0.02611593 -0.059798401 0.050936799
-0.02611593 -0.059798401 0.050936799
-0.02611593 -0.059798401 0.050936799
-0.25841856 0.00054025301 -0.027649045
-0.2384645 -0.0055124126 -0.029132631
-0.21645465 -0.011626528 -0.027654801
-0.9684056 0.18573734 -0.21506968
-0.02611593 -0.059798401 0.050936799
-0.02611593 -0.059798401 0.050936799
-0.02611593 -0.059798401 0.050936799
-0.98202074 0.18742546 -0.19477735
-0.96757513 0.18087931 -0.22317585
-0.26440269 -0.00045612967 -0.026554652
-0.24546322 -0.0054872902 -0.029001094
-0.99465466 0.18912809 -0.17550349
-0.98121291 0.18158568 -0.20390123
-0.02611593 -0.059798401 0.050936799
-0.02611593 -0.059798401 0.050936799
-1.0082659 0.19181603 -0.15519315
-0.99183255 0.18226324 -0.18368326
-0.97437668 0.17368856 -0.21117452
-0.25531164 -0.0055961139 -0.020815894
-1.018863 0.19347534 -0.13395752
-1.0014336 0.18291907 -0.16248447
-0.98298579 0.17234117 -0.19003054
-0.02611593 -0.059798401 0.050936799
-1.0124264 0.19002014 -0.11013246
-1.0150487 0.18460719 -0.14219214
-0.99861932 0.17405455 -0.17070028
-0.98824489 0.16357769 -0.2020947
-1.0260189 0.19269003 -0.088822454
-1.0196359 0.18422718 -0.12010565
-1.0062287 0.17270356 -0.14957511
-0.99785382 0.1622339 -0.18093194
-1.0225928 0.19126338 -0.065904632
-1.0222087 0.18282208 -0.09707509
-1.0128154 0.17233071 -0.12745103
-1.0124726 0.16292578 -0.16063881
-0.02611593 -0.059798401 0.050936799
-1.0307912 0.18345624 -0.074895412
-1.0224017 0.17196865 -0.10527058
-1.0200633 0.16155669 -0.13851395
-1.0667777 0.20068152 -0.023892775
-1.0353785 0.18307623 -0.052808918
-1.0269889 0.17158863 -0.083184078
-1.013612 0.1570836 -0.11370727
-1.0883381 0.20636152 -0.001378715
-1.06997 0.18983886 -0.032031894
-1.0465842 0.17328019 -0.061779357
-1.0262125 0.15775022 -0.092452064
-1.0998787 0.2079701 0.022874672
-1.0845436 0.19249423 -0.009703435
-1.0761847 0.17802525 -0.041132309
-1.0348028 0.15638474 -0.070308432
-1.1054392 0.20957522 0.046015657
-1.102098 0.19514227 0.013681058
-1.0787348 0.17760186 -0.017084077
-1.0533798 0.15805463 -0.047922835
-1.1309614 0.2152334 0.070604183
-1.1116389 0.1967437 0.037896864
-1.0992885 0.18026069 0.0063567832
-1.0889791 0.1628212 -0.027163059
-1.1365032 0.21682043 0.094744824
-1.123161 0.1983342 0.063149922
-1.1088334 0.18086226 0.03055457
-1.0925329 0.1614016 -0.0031140521
-0.02611593 -0.059798401 0.050936799
-1.1287251 0.1989395 0.08627288
-1.1173637 0.18044235 0.055715211
-1.0990674 0.15997466 0.021990988
-1.1814553 0.22802478 0.14880745
-1.1492188 0.20254387 0.11273074
-1.1338995 0.18306869 0.080080576
-1.1155885 0.1615831 0.047337994
-1.197927 0.2325965 0.17620784
-1.1597182 0.20511252 0.13898268
-1.1374307 0.18263084 0.10514726
-1.123119 0.16115959 0.072479844
-0.02611593 -0.059798401 0.050936799
-1.1801744 0.20868072 0.16743988
-1.1489377 0.18320341 0.13138196
-1.1366444 0.16175742 0.097752452
-1.2218426 0.23967193 0.23280276
-1.1946505 0.21224546 0.19478466
-1.174389 0.18778938 0.15995111
-0.02611593 -0.059798401 0.050936799
-0.02611593 -0.059798401 0.050936799
-0.02611593 -0.059798401 0.050936799
-1.1878544 0.18933278 0.18824074
-1.1716111 0.16490917 0.15248269
-1.2695992 0.25270581 0.29695439
-1.2374797 0.22131632 0.25577128
-1.2152641 0.19488958 0.2188648
-0.02611593 -0.059798401 0.050936799
-1.2859734 0.25818691 0.32937112
-1.2449087 0.22280204 0.2859475
-0.02611593 -0.059798401 0.050936799
-1.212479 0.16899177 0.21234199
-0.02611593 -0.059798401 0.050936799
-1.2811927 0.23128211 0.32279271
-1.2699748 0.20489483 0.28609291
-0.02611593 -0.059798401 0.050936799
-0.02611593 -0.059798401 0.050936799
-1.3025285 0.23674498 0.3573027
-1.2734125 0.20436652 0.31615791
-1.2632213 0.17600125 0.27844122
-1.3498942 0.27750278 0.43695375
-1.3278035 0.2431678 0.39490482
-1.3046864 0.21081088 0.35387278
-0.02611593 -0.059798401 0.050936799
-2.8592019 0.66631705 0.94641793
-1.3361535 0.24558458 0.42911649
-1.2931721 0.20826522 0.38162059
-0.02611593 -0.059798401 0.050936799
-2.8320725 0.66312057 1.0068727
-3.0940707 0.65708023 1.0106701
-0.02611593 -0.059798401 0.050936799
-0.02611593 -0.059798401 0.050936799
-2.8039806 0.65995681 1.0653093
-3.0896554 0.65871227 1.0856423
-3.0944393 0.58718258 1.0044105
-1.3305479 0.18371832 0.4198893
-2.772912 0.65580046 1.1226718
-3.1060705 0.66427428 1.1690786
-3.1168013 0.591712 1.0909405
-3.0968082 0.51227486 0.99909794
-2.7418208 0.65262592 1.1810521
-3.0966413 0.66487044 1.2449385
-3.1788545 0.60613006 1.1923975
-3.1102064 0.51279074 1.0843871
-2.6988783 0.64553559 1.2321373
-3.0604274 0.65955168 1.3101864
-3.2397993 0.6194362 1.2998155
-3.1841528 0.52514368 1.1920315
-2.6896095 0.64829421 1.2990363
-3.0381062 0.65719205 1.3807497
-3.3096185 0.6356656 1.4134548
-3.2441099 0.53544676 1.2993768
-2.6575747 0.64517033 1.3543988
-2.9870381 0.64894664 1.4386641
-3.3812876 0.65175748 1.535129
-3.3198276 0.54858959 1.4190726
-2.6354098 0.64597309 1.4160192
-2.9498622 0.64366043 1.5018939
-3.4171927 0.66192001 1.6450223
-3.4162259 0.56551772 1.5552299
-2.6083329 0.64383078 1.4734929
-2.9235561 0.64230448 1.5714003
-3.3351767 0.64658254 1.7012284
-3.5045881 0.58238101 1.6932362
-2.5782335 0.64265943 1.5319279
-2.8922963 0.63896704 1.6387776
-3.3165469 0.64594758 1.7878973
-3.8433044 0.64481068 1.9657996
-2.5471754 0.64052087 1.5883269
-2.8620512 0.6366511 1.7051919
-3.2830482 0.64136803 1.8682147
-3.8401811 0.64476281 2.0787785
-2.5121558 0.63840413 1.6426514
-2.8367035 0.63626248 1.7767346
-3.2446249 0.63684291 1.9444394
-3.6451068 0.60983354 2.0874972
-2.4781361 0.63629097 1.6969947
-2.7925849 0.63100541 1.8368337
-3.2288935 0.63812798 2.0361991
-3.8041017 0.64170432 2.2961214
-2.4450977 0.63416326 1.7523564
-2.7622948 0.63065302 1.9052835
-3.1993256 0.63650799 2.1196444
-3.7929196 0.64257318 2.4119668
-2.4041581 0.63109756 1.8025515
-2.6412799 0.60609615 1.9095751
-3.1627858 0.63288134 2.2019227
-3.1360097 0.52251476 2.1043918
-2.3701344 0.62998426 1.8569127
-2.6986995 0.62891948 2.0431082
-2.6145034 0.51688784 1.9144616
-3.7111526 0.63362211 2.6133425
-2.3281946 0.62691492 1.907089
-2.6663945 0.62754202 2.1125019
-3.1044514 0.63246357 2.3788829
-2.6073823 0.42842543 1.937736
