# .PCD v0.7 - Point Cloud Data file format
VERSION 0.7
FIELDS x y z
SIZE 4 4 4
TYPE F F F
COUNT 1 1 1
WIDTH 1373
HEIGHT 1
VIEWPOINT 0 0 0 1 0 0 0
POINTS 1373
DATA ascii
1.450123 0.60127288 0.50841081
1.2163302 0.60095012 0.52178675
1.291088 0.59989816 0.50836349
1.3698114 0.59986782 0.4928838
1.4574475 0.60189539 0.47227269
1.2409601 0.60823905 0.50045025
1.3005245 0.60040492 0.47818574
1.3781919 0.60043246 0.45972589
1.4587278 0.60057592 0.43421197
1.2403562 0.60280085 0.46935263
1.3089612 0.60091531 0.44802681
1.3875802 0.60299319 0.42658517
1.4650564 0.60220188 0.39811066
1.2538786 0.60622036 0.44315246
1.3174165 0.60140759 0.41886753
1.3959645 0.60455763 0.39344525
1.4713889 0.60482758 0.36202735
1.2573417 0.60371304 0.41503268
1.3268609 0.60391402 0.38872582
1.3973197 0.60316592 0.3593832
1.4435339 0.59170473 0.31929702
1.2758899 0.60909623 0.38977423
1.3332752 0.60344988 0.35758677
1.4007013 0.6037485 0.32631919
-0.02611593 -0.059798401 0.050936799
1.2743088 0.60464334 0.35971314
1.3417199 0.60595989 0.32746387
1.1347154 0.47920084 0.24701934
1.1288239 0.45298308 0.20464101
1.293842 0.61104083 0.33345419
1.3360981 0.60055768 0.29546055
1.1231322 0.47378409 0.2171281
-0.02611593 -0.059798401 0.050936799
1.2862352 0.60462791 0.30247015
1.1435577 0.50641716 0.23334149
1.1246451 0.47424722 0.19109932
0.76554608 0.29295254 0.11751825
1.2866802 0.60214943 0.2734071
1.1299857 0.49898976 0.20445143
0.83505505 0.33937135 0.13506247
0.77322322 0.29724878 0.099446088
1.1344013 0.5236637 0.22182097
-0.02611593 -0.059798401 0.050936799
0.7233094 0.2883212 0.10622142
0.7538209 0.28968009 0.079665743
0.98425728 0.44604397 0.17721289
0.71551472 0.2971856 0.11553086
0.73503119 0.29456657 0.090109468
0.7524693 0.29102725 0.060708992
0.92257708 0.41381118 0.14777467
0.71922225 0.29946035 0.099497154
0.72868353 0.29191419 0.072174251
0.75213623 0.29235265 0.04273311
0.71346468 0.30828136 0.11076834
0.71990383 0.29976428 0.082484126
0.73135382 0.29422867 0.054160021
0.75080335 0.29368168 0.024776021
0.72117943 0.3125414 0.094695508
0.72258896 0.30106083 0.065451533
0.73506135 0.29650345 0.03812632
0.74744815 0.29403615 0.00583883
0.72085327 0.31084925 0.07766524
0.72728151 0.3043499 0.048417401
0.72471446 0.29386544 0.020266268
0.7411083 0.29338342 -0.012060344
0.72656429 0.31411666 0.061611973
0.72998923 0.3066282 0.032402489
0.7333954 0.29915789 0.0021933466
0.74576735 0.29770854 -0.031075787
0.726246 0.31442416 0.044617735
0.72967094 0.3069357 0.01540825
0.73907298 0.30346128 -0.015841223
0.73544312 0.29605225 -0.047918156
0.72896463 0.31468472 0.029566444
0.72935265 0.30724323 -0.0015859902
0.74074739 0.30677921 -0.033818647
0.74609798 0.30437317 -0.067973927
0.72965008 0.31598845 0.012571434
0.7430445 0.31551725 -0.019698806
0.74141806 0.30910087 -0.051795304
0.75274575 0.31070882 -0.087990567
0.73133546 0.31728861 -0.0044423677
0.74271142 0.31684265 -0.037674688
0.75006562 0.31542933 -0.071849525
0.75538653 0.31505916 -0.10796808
0.74001634 0.32258108 -0.022515293
0.74937415 0.32216039 -0.056709692
0.74773675 0.31776175 -0.08976981
0.75502384 0.31842044 -0.12790726
0.74170172 0.32388121 -0.039529085
0.75304812 0.3254711 -0.074724689
0.7543807 0.32309756 -0.10980447
0.72277659 0.30673632 -0.13851845
0.74737924 0.32818463 -0.057563666
0.75271887 0.3277964 -0.09268257
0.76002866 0.32943678 -0.12980232
0.63671803 0.26897904 -0.13358852
0.75105333 0.33149534 -0.075578675
0.75537837 0.33212861 -0.11166043
0.75968474 0.33277997 -0.14874184
0.5826149 0.245195 -0.13400595
0.74871671 0.33182815 -0.093534976
0.75701541 0.33548272 -0.13163717
0.62776107 0.26997501 -0.13140208
-0.02611593 -0.059798401 0.050936799
0.75237197 0.33515698 -0.11254966
0.75069422 0.33481196 -0.14853668
-0.02611593 -0.059798401 0.050936799
0.21178424 0.062806405 -0.033328094
0.75103903 0.33648598 -0.13050674
0.66363883 0.29304087 -0.14266038
-0.02611593 -0.059798401 0.050936799
0.19574097 0.05588311 -0.03415323
0.75569814 0.3408111 -0.14952219
-0.02611593 -0.059798401 0.050936799
0.20978463 0.06281358 -0.033290513
-0.02611593 -0.059798401 0.050936799
0.66962379 0.2990545 -0.14466432
-0.02611593 -0.059798401 0.050936799
-0.02611593 -0.059798401 0.050936799
0.16272946 0.04196775 -0.03178608
0.60156286 0.2662499 -0.14098221
-0.02611593 -0.059798401 0.050936799
0.18172388 0.050934199 -0.033980254
-0.02611593 -0.059798401 0.050936799
0.58635485 0.26048565 -0.15080506
0.19675256 0.05887901 -0.034117967
-0.02611593 -0.059798401 0.050936799
0.14167924 0.03306273 -0.032553311
0.21378087 0.066816628 -0.034293257
-0.02611593 -0.059798401 0.050936799
0.15073074 0.036993571 -0.030651029
-0.02611593 -0.059798401 0.050936799
-0.02611593 -0.059798401 0.050936799
0.16770285 0.044985469 -0.033825297
-0.02611593 -0.059798401 0.050936799
0.11968535 0.024107039 -0.030302763
0.18272761 0.05193045 -0.033981025
-0.02611593 -0.059798401 0.050936799
0.13467266 0.031088198 -0.032457817
-0.02611593 -0.059798401 0.050936799
-0.02611593 -0.059798401 0.050936799
0.14865622 0.037073106 -0.034612089
-0.02611593 -0.059798401 0.050936799
0.10267969 0.017151147 -0.029109791
0.16067365 0.042029195 -0.034747485
-0.02611593 -0.059798401 0.050936799
0.11566344 0.023139652 -0.031245276
-0.02611593 -0.059798401 0.050936799
-0.02611593 -0.059798401 0.050936799
0.12467356 0.026106846 -0.031360336
-0.02611593 -0.059798401 0.050936799
0.090666175 0.013194898 -0.02895638
0.14162698 0.034116827 -0.035534281
-0.02611593 -0.059798401 0.050936799
0.10162763 0.018208841 -0.032071967
-0.02611593 -0.059798401 0.050936799
-0.02611593 -0.059798401 0.050936799
0.10963402 0.020179791 -0.032186259
-0.02611593 -0.059798401 0.050936799
0.077667631 0.0082243197 -0.027802534
0.1176404 0.022150733 -0.032300543
-0.02611593 -0.059798401 0.050936799
0.085655309 0.010213351 -0.028916482
-0.02611593 -0.059798401 0.050936799
-0.02611593 -0.059798401 0.050936799
0.089677222 0.011180737 -0.027973969
-0.02611593 -0.059798401 0.050936799
0.071604714 0.0063004512 -0.030724809
0.10560818 0.018212575 -0.03314678
-0.02611593 -0.059798401 0.050936799
0.078596495 0.0092929173 -0.031801954
-0.02611593 -0.059798401 0.050936799
-0.02611593 -0.059798401 0.050936799
0.084599324 0.010271206 -0.031896677
-0.02611593 -0.059798401 0.050936799
0.063579597 0.0043475977 -0.031610187
0.092586987 0.012260246 -0.033010617
-0.02611593 -0.059798401 0.050936799
0.067616314 0.0042970637 -0.029686026
-0.02611593 -0.059798401 0.050936799
-0.02611593 -0.059798401 0.050936799
0.073600419 0.0052934499 -0.030780409
-0.02611593 -0.059798401 0.050936799
0.052622065 0.0003334895 -0.028476581
0.07958845 0.0072896667 -0.031856779
-0.02611593 -0.059798401 0.050936799
0.056640059 0.00030104478 -0.027552083
-0.02611593 -0.059798401 0.050936799
-0.02611593 -0.059798401 0.050936799
0.064590275 0.0023262582 -0.030665345
-0.02611593 -0.059798401 0.050936799
0.045615494 -0.0016410494 -0.028381079
0.072544433 0.0053513059 -0.033760604
-0.02611593 -0.059798401 0.050936799
0.050614581 -0.0016589939 -0.028475035
-0.02611593 -0.059798401 0.050936799
-0.02611593 -0.059798401 0.050936799
0.057564981 0.00036981225 -0.031569518
-0.02611593 -0.059798401 0.050936799
0.037638694 -0.0056478353 -0.026303507
0.061564252 0.00035545661 -0.03164468
-0.02611593 -0.059798401 0.050936799
0.042622987 -0.0046478603 -0.027379107
-0.02611593 -0.059798401 0.050936799
-0.02611593 -0.059798401 0.050936799
0.049573392 -0.0026190542 -0.030473582
-0.02611593 -0.059798401 0.050936799
0.032616958 -0.0066116322 -0.027227238
0.051587824 -0.0036441553 -0.029529523
-0.02611593 -0.059798401 0.050936799
0.038567547 -0.0045792372 -0.030302923
-0.02611593 -0.059798401 0.050936799
-0.02611593 -0.059798401 0.050936799
0.039615676 -0.0066367546 -0.02735877
-0.02611593 -0.059798401 0.050936799
0.028565452 -0.0055431789 -0.030133039
0.045562334 -0.0056041903 -0.030452475
-0.02611593 -0.059798401 0.050936799
0.033531021 -0.0045251143 -0.03220829
-0.02611593 -0.059798401 0.050936799
-0.02611593 -0.059798401 0.050936799
0.035560243 -0.006568132 -0.030282587
-0.02611593 -0.059798401 0.050936799
0.022596139 -0.0075574843 -0.028057009
0.039540783 -0.0065643983 -0.031357415
-0.02611593 -0.059798401 0.050936799
0.026576687 -0.0075537516 -0.029131833
-0.02611593 -0.059798401 0.050936799
-0.02611593 -0.059798401 0.050936799
0.029572206 -0.0085643446 -0.029206224
-0.02611593 -0.059798401 0.050936799
-0.02611593 -0.059798401 0.050936799
0.033534028 -0.0085425228 -0.031280711
-0.02611593 -0.059798401 0.050936799
0.022536043 -0.008503044 -0.031074014
-0.02611593 -0.059798401 0.050936799
-0.02611593 -0.059798401 0.050936799
0.023584172 -0.010560562 -0.028129857
-0.02611593 -0.059798401 0.050936799
-0.02611593 -0.059798401 0.050936799
0.026560977 -0.011553071 -0.029203907
-0.02611593 -0.059798401 0.050936799
0.016551938 -0.0094994344 -0.029979624
-0.02611593 -0.059798401 0.050936799
-0.02611593 -0.059798401 0.050936799
0.019547455 -0.010510028 -0.030054014
-0.02611593 -0.059798401 0.050936799
-0.02611593 -0.059798401 0.050936799
0.024475584 -0.0094557898 -0.034128599
-0.02611593 -0.059798401 0.050936799
-0.02611593 -0.059798401 0.050936799
-0.02611593 -0.059798401 0.050936799
-0.02611593 -0.059798401 0.050936799
0.012593123 -0.013538661 -0.026977558
-0.02611593 -0.059798401 0.050936799
-0.02611593 -0.059798401 0.050936799
0.016536225 -0.01349875 -0.030051697
-0.02611593 -0.059798401 0.050936799
-0.02611593 -0.059798401 0.050936799
-0.02611593 -0.059798401 0.050936799
-0.02611593 -0.059798401 0.050936799
-0.02611593 -0.059798401 0.050936799
-0.02611593 -0.059798401 0.050936799
-0.02611593 -0.059798401 0.050936799
0.011533213 -0.01448064 -0.029975764
-0.02611593 -0.059798401 0.050936799
-0.02611593 -0.059798401 0.050936799
-0.02611593 -0.059798401 0.050936799
-0.02611593 -0.059798401 0.050936799
0.0055047204 -0.012423267 -0.031826302
-0.02611593 -0.059798401 0.050936799
-0.02611593 -0.059798401 0.050936799
0.0074965009 -0.014430105 -0.031899922
-0.02611593 -0.059798401 0.050936799
-0.02611593 -0.059798401 0.050936799
-0.02611593 -0.059798401 0.050936799
-0.02611593 -0.059798401 0.050936799
-0.02611593 -0.059798401 0.050936799
-0.02611593 -0.059798401 0.050936799
-0.02611593 -0.059798401 0.050936799
0.0044448082 -0.013365237 -0.034824524
-0.02611593 -0.059798401 0.050936799
-0.02611593 -0.059798401 0.050936799
-0.02611593 -0.059798401 0.050936799
-0.02611593 -0.059798401 0.050936799
-0.02611593 -0.059798401 0.050936799
-0.02611593 -0.059798401 0.050936799
-0.02611593 -0.059798401 0.050936799
-0.02611593 -0.059798401 0.050936799
-0.02611593 -0.059798401 0.050936799
-0.02611593 -0.059798401 0.050936799
-0.02611593 -0.059798401 0.050936799
-0.02611593 -0.059798401 0.050936799
-0.02611593 -0.059798401 0.050936799
-0.02611593 -0.059798401 0.050936799
-0.02611593 -0.059798401 0.050936799
-0.0036098971 -0.013282259 -0.037673183
-0.02611593 -0.059798401 0.050936799
-0.02611593 -0.059798401 0.050936799
-0.02611593 -0.059798401 0.050936799
-0.02611593 -0.059798401 0.050936799
-0.02611593 -0.059798401 0.050936799
-0.02611593 -0.059798401 0.050936799
-0.02611593 -0.059798401 0.050936799
-0.0085754646 -0.014300327 -0.035597924
-0.02611593 -0.059798401 0.050936799
-0.02611593 -0.059798401 0.050936799
-0.02611593 -0.059798401 0.050936799
-0.02611593 -0.059798401 0.050936799
-0.02611593 -0.059798401 0.050936799
-0.02611593 -0.059798401 0.050936799
-0.02611593 -0.059798401 0.050936799
-0.02611593 -0.059798401 0.050936799
-0.02611593 -0.059798401 0.050936799
-0.02611593 -0.059798401 0.050936799
-0.02611593 -0.059798401 0.050936799
-0.02611593 -0.059798401 0.050936799
-0.02611593 -0.059798401 0.050936799
-0.02611593 -0.059798401 0.050936799
-0.02611593 -0.059798401 0.050936799
-0.02611593 -0.059798401 0.050936799
-0.02611593 -0.059798401 0.050936799
-0.02611593 -0.059798401 0.050936799
-0.02611593 -0.059798401 0.050936799
-0.02611593 -0.059798401 0.050936799
-0.02611593 -0.059798401 0.050936799
-0.02611593 -0.059798401 0.050936799
-0.02611593 -0.059798401 0.050936799
-0.02611593 -0.059798401 0.050936799
-0.02611593 -0.059798401 0.050936799
-0.02611593 -0.059798401 0.050936799
-0.02611593 -0.059798401 0.050936799
-0.02611593 -0.059798401 0.050936799
-0.02611593 -0.059798401 0.050936799
-0.02611593 -0.059798401 0.050936799
-0.02611593 -0.059798401 0.050936799
-0.02611593 -0.059798401 0.050936799
-0.02611593 -0.059798401 0.050936799
-0.02611593 -0.059798401 0.050936799
-0.02611593 -0.059798401 0.050936799
-0.02611593 -0.059798401 0.050936799
-0.02611593 -0.059798401 0.050936799
-0.02611593 -0.059798401 0.050936799
-0.02611593 -0.059798401 0.050936799
-0.02611593 -0.059798401 0.050936799
-0.02611593 -0.059798401 0.050936799
-0.02611593 -0.059798401 0.050936799
-0.02611593 -0.059798401 0.050936799
-0.02611593 -0.059798401 0.050936799
-0.02611593 -0.059798401 0.050936799
-0.02611593 -0.059798401 0.050936799
-0.02611593 -0.059798401 0.050936799
-0.02611593 -0.059798401 0.050936799
-0.02611593 -0.059798401 0.050936799
-0.02611593 -0.059798401 0.050936799
-0.02611593 -0.059798401 0.050936799
-0.02611593 -0.059798401 0.050936799
-0.02611593 -0.059798401 0.050936799
-0.02611593 -0.059798401 0.050936799
-0.02611593 -0.059798401 0.050936799
-0.02611593 -0.059798401 0.050936799
-0.02611593 -0.059798401 0.050936799
-0.02611593 -0.059798401 0.050936799
-0.02611593 -0.059798401 0.050936799
-0.02611593 -0.059798401 0.050936799
-0.02611593 -0.059798401 0.050936799
-0.02611593 -0.059798401 0.050936799
-0.02611593 -0.059798401 0.050936799
-0.02611593 -0.059798401 0.050936799
-0.02611593 -0.059798401 0.050936799
-0.02611593 -0.059798401 0.050936799
-0.02611593 -0.059798401 0.050936799
-0.02611593 -0.059798401 0.050936799
-0.02611593 -0.059798401 0.050936799
-0.02611593 -0.059798401 0.050936799
-0.02611593 -0.059798401 0.050936799
-0.046564583 -0.013164113 -0.034865864
-0.02611593 -0.059798401 0.050936799
-0.02611593 -0.059798401 0.050936799
-0.02611593 -0.059798401 0.050936799
-0.02611593 -0.059798401 0.050936799
-0.02611593 -0.059798401 0.050936799
-0.02611593 -0.059798401 0.050936799
-0.02611593 -0.059798401 0.050936799
-0.02611593 -0.059798401 0.050936799
-0.02611593 -0.059798401 0.050936799
-0.054498181 -0.006172773 -0.032590091
-0.02611593 -0.059798401 0.050936799
-0.02611593 -0.059798401 0.050936799
-0.02611593 -0.059798401 0.050936799
-0.02611593 -0.059798401 0.050936799
-0.057381369 -0.0052707102 -0.026517734
-0.054525677 -0.013171581 -0.032716222
-0.02611593 -0.059798401 0.050936799
-0.058460001 -0.0061945957 -0.030515596
-0.02611593 -0.059798401 0.050936799
-0.02611593 -0.059798401 0.050936799
-0.02611593 -0.059798401 0.050936799
-0.02611593 -0.059798401 0.050936799
-0.061376709 -0.0042565237 -0.02642455
-0.059516903 -0.011153978 -0.032586228
-0.02611593 -0.059798401 0.050936799
-0.062455345 -0.0051804092 -0.030422416
-0.02611593 -0.059798401 0.050936799
-0.02611593 -0.059798401 0.050936799
-0.02611593 -0.059798401 0.050936799
-0.02611593 -0.059798401 0.050936799
-0.065368116 -0.0022425069 -0.02631335
-0.063478723 -0.011175801 -0.030511733
-0.02611593 -0.059798401 0.050936799
-0.066417165 -0.0052022319 -0.028347936
-0.02611593 -0.059798401 0.050936799
-0.02611593 -0.059798401 0.050936799
-0.065380819 -0.010259237 -0.02545784
-0.02611593 -0.059798401 0.050936799
-0.068330124 -0.0022679181 -0.024257652
-0.06847389 -0.010158026 -0.030399766
-0.02611593 -0.059798401 0.050936799
-0.069379173 -0.0052276431 -0.026292246
-0.02611593 -0.059798401 0.050936799
-0.02611593 -0.059798401 0.050936799
-0.070405565 -0.0072056269 -0.02730915
-0.02611593 -0.059798401 0.050936799
-0.074354686 0.00078928174 -0.026090182
-0.073469043 -0.009140254 -0.030287795
-0.02611593 -0.059798401 0.050936799
-0.076418348 -0.0011489346 -0.029087622
-0.02611593 -0.059798401 0.050936799
-0.02611593 -0.059798401 0.050936799
-0.075367205 -0.0072238604 -0.025215879
-0.02611593 -0.059798401 0.050936799
-0.080379255 0.0038464814 -0.027922697
-0.078441553 -0.007140737 -0.029158153
-0.02611593 -0.059798401 0.050936799
-0.082424194 0.0018901762 -0.029920474
-0.02611593 -0.059798401 0.050936799
-0.02611593 -0.059798401 0.050936799
-0.081391774 -0.0041666566 -0.027048398
-0.02611593 -0.059798401 0.050936799
-0.083341263 0.0038210703 -0.025867008
-0.084451318 -0.005101453 -0.030009024
-0.02611593 -0.059798401 0.050936799
-0.085367471 0.0018466758 -0.026865125
-0.02611593 -0.059798401 0.050936799
-0.02611593 -0.059798401 0.050936799
-0.02611593 -0.059798401 0.050936799
-0.02611593 -0.059798401 0.050936799
-0.088313766 0.0058205868 -0.024737362
-0.092471592 -0.0010372447 -0.031785958
-0.02611593 -0.059798401 0.050936799
-0.089325368 0.0028246841 -0.024772625
-0.02611593 -0.059798401 0.050936799
-0.02611593 -0.059798401 0.050936799
-0.095417887 0.0029366626 -0.02965818
-0.02611593 -0.059798401 0.050936799
-0.095334224 0.0098812105 -0.026533075
-0.097429305 -5.5651413e-05 -0.029674657
-0.02611593 -0.059798401 0.050936799
-0.097349569 0.0058890656 -0.026567567
-0.02611593 -0.059798401 0.050936799
-0.02611593 -0.059798401 0.050936799
-0.099357054 0.0038965819 -0.026566021
-0.02611593 -0.059798401 0.050936799
-0.10233596 0.013923737 -0.027329121
-0.1064494 0.0040121498 -0.031432796
-0.02611593 -0.059798401 0.050936799
-0.10636573 0.01095669 -0.028307684
-0.02611593 -0.059798401 0.050936799
-0.02611593 -0.059798401 0.050936799
-0.10939176 0.0089858919 -0.029286999
-0.02611593 -0.059798401 0.050936799
-0.10830828 0.015926842 -0.026180685
-0.11238819 0.0049792468 -0.028303053
-0.02611593 -0.059798401 0.050936799
-0.11334874 0.014981135 -0.028104078
-0.02611593 -0.059798401 0.050936799
-0.02611593 -0.059798401 0.050936799
-0.11231631 0.0089243026 -0.025231991
-0.02611593 -0.059798401 0.050936799
-0.11732445 0.020994475 -0.027920805
-0.12240025 0.01105029 -0.030006353
-0.02611593 -0.059798401 0.050936799
-0.12031695 0.017987654 -0.026918821
-0.02611593 -0.059798401 0.050936799
-0.02611593 -0.059798401 0.050936799
-0.12432801 0.015002524 -0.026897714
-0.02611593 -0.059798401 0.050936799
-0.120249 0.020932885 -0.023865789
-0.13339733 0.016107012 -0.030709233
-0.02611593 -0.059798401 0.050936799
-0.1303142 0.023040785 -0.027640488
-0.02611593 -0.059798401 0.050936799
-0.02611593 -0.059798401 0.050936799
-0.13430654 0.020037565 -0.026619717
-0.02611593 -0.059798401 0.050936799
-0.13225675 0.028010936 -0.025513489
-0.14134663 0.019099034 -0.028505519
-0.02611593 -0.059798401 0.050936799
-0.13827831 0.02705073 -0.026418425
-0.02611593 -0.059798401 0.050936799
-0.02611593 -0.059798401 0.050936799
-0.14529967 0.026094111 -0.027304575
-0.02611593 -0.059798401 0.050936799
-0.14225009 0.034063891 -0.026217133
-0.15533136 0.027166007 -0.029097971
-0.02611593 -0.059798401 0.050936799
-0.15026733 0.034110691 -0.027066473
-0.02611593 -0.059798401 0.050936799
-0.02611593 -0.059798401 0.050936799
-0.15725519 0.032118071 -0.025971312
-0.02611593 -0.059798401 0.050936799
-0.15724944 0.043152381 -0.027772427
-0.17129701 0.035222068 -0.028653175
-0.02611593 -0.059798401 0.050936799
-0.16222286 0.040134646 -0.02573321
-0.02611593 -0.059798401 0.050936799
-0.02611593 -0.059798401 0.050936799
-0.17927499 0.045267168 -0.029322334
-0.02611593 -0.059798401 0.050936799
-0.1671866 0.049151067 -0.025477089
-0.19027299 0.045306645 -0.029115636
-0.02611593 -0.059798401 0.050936799
-0.17919917 0.050212055 -0.026233256
-0.02611593 -0.059798401 0.050936799
-0.02611593 -0.059798401 0.050936799
-0.19422209 0.053301558 -0.027896658
-0.02611593 -0.059798401 0.050936799
-0.18416293 0.059228469 -0.025977131
-0.21423627 0.058408652 -0.02943008
-0.02611593 -0.059798401 0.050936799
-0.20018566 0.062321551 -0.02762175
-0.02611593 -0.059798401 0.050936799
-0.02611593 -0.059798401 0.050936799
-0.21214601 0.062328443 -0.025396943
-0.02611593 -0.059798401 0.050936799
-0.20413086 0.071316279 -0.026384756
-0.23816209 0.071474485 -0.02774521
-0.02611593 -0.059798401 0.050936799
-0.21509139 0.071319588 -0.02417874
-0.02611593 -0.059798401 0.050936799
-0.02611593 -0.059798401 0.050936799
-0.23909697 0.078440718 -0.025600955
-0.02611593 -0.059798401 0.050936799
-0.22005908 0.079336174 -0.023940638
-0.27008551 0.089586265 -0.026819576
-0.02611593 -0.059798401 0.050936799
-0.24906281 0.091492489 -0.026178475
-0.02611593 -0.059798401 0.050936799
-0.02611593 -0.059798401 0.050936799
-0.91841108 0.51277721 -0.22509329
-0.02611593 -0.059798401 0.050936799
-0.25001249 0.099476613 -0.025015868
-0.97299999 0.51459432 -0.20303088
-0.96616119 0.5408181 -0.2166892
-0.02611593 -0.059798401 0.050936799
-0.02611593 -0.059798401 0.050936799
-0.98558086 0.52026016 -0.18168563
-0.97976452 0.54550576 -0.1963428
-1.0551708 0.62546688 -0.23249686
-1.0523866 0.65677649 -0.24998856
-0.99814302 0.52590787 -0.15934068
-0.98835796 0.54815763 -0.17512676
-1.0988359 0.65140337 -0.21920565
-1.0559592 0.65537494 -0.22693922
-1.0107238 0.53157359 -0.13799542
-0.99993908 0.55381978 -0.15380028
-1.1093916 0.65402627 -0.1959527
-1.06155 0.65399867 -0.20485193
-1.0242819 0.5382247 -0.11561367
-1.0355692 0.57467407 -0.13775052
-1.119962 0.6576671 -0.17368138
-1.081174 0.66274333 -0.18632008
-1.0328301 0.54284012 -0.092362255
-1.1502396 0.64403886 -0.13234702
-1.1275032 0.65926135 -0.14950316
-1.0807405 0.65830982 -0.16240028
-1.0583693 0.55855083 -0.07059253
-1.1657561 0.65166074 -0.10791035
-1.1280428 0.65681297 -0.12452889
-1.0843132 0.65690833 -0.13935092
-1.1818727 0.63180256 -0.056950539
-1.1702566 0.654208 -0.08177115
-1.1215807 0.6503222 -0.098758541
-1.090892 0.65853524 -0.11719079
-1.2133389 0.65147984 -0.03199701
-1.1637529 0.64868075 -0.053983487
-1.1201206 0.64786667 -0.073821843
-1.0924689 0.65612662 -0.094197065
-1.2078047 0.64893764 -0.003136836
-1.1662618 0.64922106 -0.027917899
-1.1256624 0.64945376 -0.049681187
-1.0980519 0.65675002 -0.072073743
-1.2082537 0.65041631 0.025908172
-1.1687627 0.651761 -0.0018162802
-1.1251982 0.64800173 -0.02470769
-1.0996249 0.65534133 -0.049061976
-1.2027344 0.64889199 0.053786702
-1.16628 0.65028369 0.024119306
-1.1277446 0.64857817 -0.00064142793
-1.0961957 0.64989728 -0.025216572
-1.197215 0.64736778 0.081665248
-1.1637789 0.64878821 0.051054548
-1.1282948 0.64814764 0.023369234
-1.0947732 0.64747804 -0.0022791997
-1.1897147 0.64585441 0.10850655
-1.1583009 0.64630038 0.076915748
-1.1248351 0.6456849 0.048268344
-1.1003523 0.6491012 0.019862123
-1.1822181 0.64334124 0.13532983
-1.156829 0.64684433 0.10190651
-1.1303692 0.64927173 0.072445028
-1.0999255 0.64768535 0.042836316
-1.1797053 0.64484531 0.16231912
-1.1453826 0.64135355 0.12660125
-1.1259511 0.64584184 0.095308013
-1.1024905 0.64827991 0.065902911
-1.1702052 0.64332479 0.18912286
-1.1488755 0.64589667 0.1527577
-1.1244792 0.64638585 0.12029877
-1.1010866 0.64587873 0.087840624
-1.1577364 0.63881207 0.21481645
-1.1394209 0.64241266 0.17752606
-1.1230301 0.64594805 0.14427185
-1.1026478 0.64746946 0.11090645
-1.1512468 0.63932008 0.24071294
-1.1359493 0.64294946 0.20247921
-1.1155937 0.64248931 0.16807812
-1.1012026 0.64603192 0.1348615
-1.1427615 0.63882107 0.26655382
-1.1294863 0.64147592 0.22734
-1.1131448 0.64204806 0.19203241
-1.0997721 0.6456123 0.15783492
-1.1322992 0.6373331 0.2913394
-1.1220233 0.63999879 0.25218195
-1.1116877 0.64360994 0.21604152
-1.0953538 0.64218241 0.18069792
-1.1248096 0.63783747 0.31721708
-1.1175523 0.64053202 0.27711636
-1.1042475 0.64115101 0.23986582
-1.0899321 0.63974881 0.20356011
-1.1232809 0.6433444 0.34429723
-1.1120772 0.64206147 0.30204993
-1.1007987 0.64070612 0.26380134
-1.0894976 0.64033258 0.22657037
-1.104877 0.63686484 0.3668431
-1.1016375 0.63959181 0.32581788
-1.0963461 0.64125741 0.28773603
-1.0900402 0.64190161 0.25061703
-1.0884799 0.63340992 0.38848096
-1.1011499 0.64413875 0.35089952
-1.0899205 0.63982004 0.31059748
-1.0876099 0.64147836 0.27357167
-1.0809826 0.63591409 0.41439468
-1.0847605 0.63868415 0.37250131
-1.0804995 0.63737208 0.33338451
-1.0841799 0.64105159 0.29650751
-1.0675583 0.63445151 0.43712455
-1.0733397 0.63622904 0.3952508
-1.0770427 0.6389268 0.35735607
-1.0817269 0.64161009 0.32047981
-1.0501801 0.63101113 0.45774397
-1.0609379 0.63378823 0.41698179
-1.0666406 0.63649333 0.37912467
-1.0713326 0.63717699 0.34221238
-1.0417242 0.63254791 0.48162153
-1.0554551 0.63731742 0.44195142
-1.0582154 0.63504875 0.40194851
-1.0678985 0.63775003 0.36516622
-1.0273149 0.63209969 0.50335097
-1.0381032 0.63189554 0.46153516
-1.0507861 0.63460749 0.42480922
-1.0624502 0.63729793 0.38906413
-1.0119284 0.63066614 0.52404404
-1.0316433 0.63443935 0.48546833
-1.039384 0.63217044 0.44655901
-1.0530665 0.63488609 0.40985185
-1.0024875 0.63321733 0.54692119
-1.0192375 0.63299847 0.50721735
-1.0319507 0.63272905 0.46943769
-1.0496137 0.63544101 0.43380538
-0.9880783 0.63276911 0.5686506
-1.0088236 0.63356453 0.52904004
-1.0235364 0.63330227 0.49129796
-1.0451573 0.6369921 0.45775813
-0.97171068 0.6313501 0.5883252
-0.99443692 0.6321345 0.54975182
-1.0131263 0.63286841 0.51310259
-1.0357509 0.63556206 0.47956353
-0.95635772 0.63095254 0.60703689
-0.98699576 0.63469279 0.57266653
-1.0066702 0.63441241 0.53701776
-1.0253488 0.63312852 0.5013321
-0.94096726 0.63051885 0.62774789
-0.96965486 0.63128865 0.5912866
-0.99626017 0.63397855 0.55882239
-1.0188926 0.63467258 0.52524728
-0.92263752 0.62912881 0.64538556
-0.95725608 0.63286537 0.61209005
-0.98289198 0.63257027 0.57855332
-1.0104822 0.63424587 0.54708952
-0.90728444 0.62873125 0.66409725
-0.94091105 0.63046461 0.63074696
-0.97050494 0.6311475 0.59930271
-0.99908018 0.63180876 0.56883931
-0.89192754 0.62933362 0.68282694
-0.92556202 0.62906724 0.64944065
-0.95711416 0.63072097 0.62005126
-0.98571599 0.62940067 0.58855224
-0.87361652 0.62796164 0.69946504
-0.91118622 0.62965506 0.66918874
-0.94670022 0.63128698 0.64187396
-0.97925597 0.63194454 0.61248541
-0.86218703 0.6325233 0.72134095
-0.89583719 0.62825763 0.68788242
-0.93135113 0.62988961 0.66056758
-0.96982312 0.632496 0.6353265
-0.84289885 0.63016611 0.73694247
-0.88441163 0.63181955 0.7097404
-0.91600597 0.62749243 0.67924327
-0.95841712 0.63105875 0.65709436
-0.81871688 0.6248818 0.74739766
-0.86810017 0.63045484 0.72641593
-0.90656519 0.63004363 0.70212042
-0.94307196 0.62866145 0.67577004
-0.80532908 0.62847281 0.76721865
-0.84488457 0.62413818 0.73887128
-0.89121222 0.62964612 0.72083211
-0.93363518 0.63021284 0.69862908
-0.7889871 0.63008934 0.78494799
-0.82659614 0.62178445 0.75449157
-0.88177145 0.6321972 0.74370921
-0.91629428 0.62680864 0.71724921
-0.76189244 0.62186712 0.7912941
-0.81909794 0.62930578 0.77949566
-0.85462451 0.62292093 0.75303644
-0.90390331 0.62638569 0.73801661
-0.7445882 0.62351644 0.80700529
-0.79982454 0.62796634 0.7941156
-0.8432216 0.6255011 0.77387661
-0.89246684 0.62792981 0.76083815
-0.72339785 0.62024254 0.81755292
-0.77860063 0.62365651 0.80664444
-0.82884574 0.62608886 0.79362482
-0.87514079 0.62554353 0.77847654
-0.70804781 0.62386245 0.83533698
-0.76323587 0.62625849 0.82541025
-0.81053865 0.62371713 0.8102448
-0.86272717 0.62610233 0.80026162
-0.68783468 0.62157398 0.84692109
-0.74300796 0.6229521 0.83797598
-0.79420066 0.62433386 0.82795608
-0.84540117 0.62371606 0.81790006
-0.6715036 0.62520838 0.86368668
-0.72473043 0.62261611 0.8526327
-0.78275239 0.62887752 0.85083163
-0.82804859 0.6233114 0.8365742
-0.64837372 0.62098181 0.87117982
-0.70449454 0.6213094 0.86523443
-0.76150584 0.62554944 0.86437821
-0.81267685 0.62289572 0.85628551
-0.6281715 0.62071097 0.88180017
-0.68819004 0.62296212 0.8809644
-0.74323231 0.62421364 0.87901688
-0.79534686 0.62150937 0.87394202
-0.60699594 0.61845511 0.89136624
-0.66698104 0.61967027 0.89251167
-0.72685289 0.62579411 0.89874554
-0.77799422 0.62110466 0.89261609
-0.58874792 0.62015498 0.90405965
-0.64869559 0.62133396 0.90720439
-0.70273101 0.61956424 0.90618372
-0.76359183 0.62367392 0.91340005
-0.57050008 0.62185484 0.91675305
-0.63041413 0.62199783 0.92187911
-0.68541193 0.62019563 0.92287654
-0.74817091 0.62622172 0.93516469
-0.55031645 0.62160218 0.92637384
-0.60923862 0.61974198 0.93144506
-0.66515744 0.61887068 0.93647796
-0.72301579 0.61895227 0.94456542
-0.52819735 0.61939698 0.93292201
-0.58997607 0.62042034 0.94510126
-0.64974731 0.62343615 0.95727909
-0.70274246 0.61760938 0.95916653
-0.50799108 0.62012601 0.94356048
-0.57073224 0.62111682 0.95775795
-0.62659878 0.61919153 0.96577179
-0.68440485 0.61821896 0.97684026
-0.48689044 0.61794251 0.94912779
-0.5485943 0.6188935 0.96530581
-0.61021149 0.62277162 0.98553646
-0.66409022 0.61783963 0.99345863
-0.46670297 0.61868972 0.9587667
-0.52839202 0.61862278 0.97592628
-0.58705896 0.6195268 0.99404716
-0.64283985 0.61551136 1.0070232
-0.44655681 0.61847317 0.96638811
-0.50816315 0.62033349 0.98758239
-0.56775504 0.62116879 1.0097207
-0.62256265 0.61516827 1.0216423
-0.42447117 0.61730391 0.97095501
-0.48602527 0.61811024 0.99513024
-0.54555708 0.61989105 1.0202856
-0.60611528 0.61969388 1.0444241
-0.4043664 0.6161238 0.97655916
-0.46390611 0.61590499 1.0016785
-0.52048767 0.6147117 1.024724
-0.57902759 0.61448938 1.0498245
-0.38134497 0.61300558 0.97807223
-0.44367722 0.61761582 1.0133346
-0.4983311 0.61247039 1.0332716
-0.55777317 0.61316091 1.0634072
-0.3621307 0.61573786 0.9887656
-0.42159945 0.61444688 1.0178654
-0.47706497 0.61414135 1.0469083
-0.53646964 0.6147958 1.0790433
-0.34015042 0.61165959 0.98828012
-0.39851788 0.61227423 1.0223956
-0.45394593 0.61193258 1.0534376
-0.51516998 0.61543077 1.0946611
-0.32095492 0.61440998 0.9979738
-0.3783077 0.61400312 1.0330521
-0.43272117 0.61263996 1.065057
-0.48810095 0.61024433 1.099062
-0.29986122 0.61524403 1.0025954
-0.35522223 0.61283028 1.0376002
-0.4096022 0.61043108 1.0715865
-0.46583894 0.61091197 1.1126618
-0.27977127 0.61508185 1.007218
-0.33407238 0.61361009 1.0452209
-0.38741502 0.61117113 1.0811877
-0.44167876 0.60966319 1.1211898
-0.25774568 0.61296701 1.0087678
-0.31294125 0.6144079 1.0518419
-0.36518654 0.61287475 1.0928063
-0.41745847 0.60935998 1.1327349
-0.23767053 0.6138227 1.0124087
-0.29083294 0.61422044 1.0574266
-0.34395394 0.61558181 1.1044616
-0.39421535 0.61004215 1.1453164
-0.21659948 0.613675 1.0160128
-0.26874724 0.61305118 1.0619934
-0.318001 0.60950762 1.1028653
-0.36813828 0.60685885 1.149772
-0.1947394 0.60770565 1.0094932
-0.2466764 0.61289984 1.0655787
-0.29485542 0.60928035 1.1104305
-0.34490997 0.60855889 1.1613717
-0.17461896 0.61052477 1.0151695
-0.22367367 0.60979968 1.0660921
-0.27264172 0.61200184 1.1210673
-0.31974998 0.60730654 1.1698809
-0.15456252 0.61139858 1.0178107
-0.2024933 0.61356091 1.0747665
-0.24853377 0.61180717 1.1266143
-0.29368767 0.60514128 1.173355
-0.13448343 0.61325401 1.0214695
-0.17946398 0.61244231 1.0763156
-0.22444455 0.61163062 1.1311617
-0.27030867 0.61171383 1.1920424
-0.11353651 0.61021537 1.0190216
-0.15654007 0.60841477 1.0728123
-0.19941953 0.60950512 1.1326551
-0.24331059 0.6075995 1.1924628
-0.092627019 0.6072129 1.0145742
-0.13453323 0.60631812 1.0733626
-0.17628483 0.61129558 1.1392566
-0.21720302 0.60739768 1.1979723
-0.072566651 0.60908651 1.0172335
-0.11232647 0.61205715 1.0830539
-0.15217295 0.61210078 1.1448216
-0.19015963 0.60524684 1.2004277
-0.05250629 0.61096013 1.0198927
-0.090398446 0.60903299 1.0795875
-0.12720805 0.60902959 1.1432981
-0.16404814 0.60604477 1.2059551
-0.031555437 0.60892129 1.0174627
-0.068365023 0.60891789 1.0811734
-0.10317498 0.60890728 1.1448467
-0.13708749 0.60196668 1.2043762
-0.01155124 0.61084914 1.017123
-0.045369234 0.60883534 1.0807413
-0.07814604 0.60778153 1.1463581
-0.11184777 0.606659 1.2159925
0.0073812604 0.60883558 1.0137309
-0.023395909 0.60777462 1.0793103
-0.054112989 0.60765922 1.1479064
-0.084796548 0.60650784 1.218484
0.027404178 0.61074537 1.0143908
-0.0023357309 0.60964471 1.0819507
-0.029076194 0.6085332 1.149454
-0.057700016 0.60832018 1.223011
0.047317773 0.60874629 1.0099803
0.020728011 0.61250734 1.0845714
-0.0051446054 0.60650164 1.145968
-0.030836932 0.6033327 1.2164156
0.067257941 0.60872883 1.0066055
0.042535841 0.60759205 1.075071
0.018915026 0.60836089 1.1485521
-0.003717754 0.60612667 1.2219603
0.086130351 0.60576963 1.0001965
0.06344533 0.60458958 1.0706236
0.042827889 0.60634744 1.1440665
0.022296209 0.60601532 1.2224714
0.10609317 0.60673392 0.99783933
0.085385144 0.60456485 1.0672114
0.067887336 0.60820317 1.1466317
0.049249895 0.60495478 1.2199467
0.12498822 0.60475641 0.99244797
0.10734366 0.60452205 1.0647986
0.091762751 0.60622591 1.1401466
0.076162204 0.60293055 1.2154047
0.14389114 0.60477865 0.98709261
0.12928739 0.60549724 1.0614042
0.11572091 0.60617596 1.1376964
0.10182255 0.59412819 1.1987594
0.16389534 0.60670662 0.98675287
0.15118583 0.60450888 1.0559746
0.14066018 0.60614043 1.1342278
0.1301188 0.60377276 1.2124087
0.18280216 0.60772872 0.98141557
0.17208445 0.60352403 1.0505636
0.16349439 0.60320318 1.1257441
0.15701632 0.60276651 1.206885
0.20163713 0.60480571 0.9730072
0.19400552 0.60351747 1.0461515
0.18845631 0.60414946 1.123293
0.18287265 0.6008001 1.1993628
0.21955894 0.60481346 0.96867037
0.21705841 0.6083979 1.0478089
0.21125311 0.60124826 1.1128101
0.21083401 0.60173565 1.1968554
0.23844314 0.60485375 0.96231532
0.2368518 0.60450774 1.0373642
0.23628294 0.60513979 1.1134121
0.23671299 0.60075098 1.1903508
0.25841379 0.60781771 0.95999426
0.25773564 0.60454088 1.0309718
0.26014358 0.60418051 1.1059456
0.26359573 0.60076267 1.1838455
0.27623415 0.60591626 0.95062304
0.27751422 0.6016686 1.0195457
0.28194055 0.60128289 1.0954815
0.29054248 0.60271972 1.1803752
0.29409587 0.60497838 0.94326913
0.29837933 0.60171992 1.0121534
0.30580509 0.60132337 1.088033
0.31632388 0.60082567 1.1688544
0.31198025 0.60502231 0.93693298
0.32037228 0.60565835 1.0108124
0.32969227 0.60234559 1.081602
0.34112817 0.59991705 1.1583699
0.32984591 0.60508436 0.92959714
0.34017354 0.60376775 1.0004039
0.35256094 0.6033895 1.0741903
0.37014249 0.60481215 1.1579151
0.34977913 0.60808444 0.92527676
0.3600201 0.60384065 0.99203086
0.37432048 0.60052818 1.0617268
0.39278165 0.60005599 1.1393989
0.36555848 0.60522652 0.91392571
0.37982529 0.60294998 0.9816404
0.39821553 0.60355008 1.0553319
0.41971755 0.60403079 1.1349652
0.38131911 0.60238677 0.90157515
0.39965311 0.60304099 0.97226763
0.40738228 0.58324122 1.0147791
0.39932328 0.53916889 1.0201347
0.40125626 0.60638654 0.89727271
0.41843587 0.60117221 0.96087831
0.44181034 0.60277212 1.0334942
0.47031504 0.60422766 1.1130139
0.41703948 0.60452849 0.88593972
0.44033125 0.60420114 0.954521
0.46359646 0.60189235 1.0220666
0.49197701 0.60045689 1.0955342
0.43593156 0.60656852 0.87962079
0.45809549 0.60235399 0.94215083
0.48434532 0.60105234 1.0086583
0.51675171 0.60158408 1.0830865
0.45171878 0.60571015 0.86830592
0.47586358 0.60150671 0.9297986
0.50718045 0.60313219 0.99926519
0.53945881 0.59977323 1.0676233
0.46854714 0.60581195 0.85898954
0.49569538 0.60259748 0.92044389
0.52792925 0.60229218 0.98585707
0.56217366 0.599962 1.0521963
0.48435304 0.60493559 0.84867424
0.51446718 0.60274637 0.90809095
0.54766351 0.60247368 0.97148603
0.58384746 0.59919071 1.0347706
0.5021891 0.60703355 0.83937508
0.535348 0.60679704 0.90077078
0.56737113 0.60067356 0.95607919
0.60862219 0.6003179 1.0223229
0.51902145 0.60813516 0.83007669
0.55205226 0.60400778 0.88540238
0.59019148 0.60377133 0.94570446
0.63031852 0.60052836 1.0059149
0.53481257 0.60827672 0.81877977
0.5687831 0.60320026 0.87106967
0.60788471 0.60299641 0.92935365
0.65303743 0.60171694 0.99050581
0.55060369 0.60841829 0.80748284
0.58655906 0.60435247 0.85875344
0.62349164 0.59930146 0.90898764
0.67577899 0.60388732 0.97611445
0.56124109 0.60270536 0.78917414
0.60431236 0.60452306 0.8454197
0.64118487 0.59852636 0.89263684
0.69539303 0.60217762 0.95570934
0.58012223 0.60676312 0.78189158
0.62002468 0.60373718 0.83010614
0.66194546 0.60068589 0.87928271
0.71811587 0.60436612 0.94031829
0.59589863 0.60792261 0.76961297
0.63880438 0.60588568 0.8177892
0.68268734 0.60286349 0.8649289
0.73264802 0.60074711 0.91597247
0.6086036 0.60514784 0.75431979
0.6504308 0.60218698 0.79849809
0.70038444 0.60308826 0.8485961
0.74818003 0.59712452 0.89160794
0.62235767 0.60533273 0.74106115
0.6651206 0.60042292 0.78218561
0.72010779 0.60528743 0.83326137
0.76786602 0.59935987 0.87427384
0.63813001 0.60549235 0.72876453
0.68594909 0.60552758 0.7718845
0.73474151 0.60357767 0.81394994
0.78852904 0.60060996 0.85590351
0.65086162 0.60469919 0.71450692
0.69555324 0.60085428 0.75161326
0.74731159 0.59992963 0.791641
0.80515152 0.60091072 0.83559072
0.66766429 0.60783654 0.70324528
0.7122919 0.60204643 0.73731661
0.76194918 0.59921968 0.77234757
0.82173252 0.60024786 0.81326079
0.67935473 0.60608333 0.68698925
0.7320832 0.60719079 0.72503489
0.78169906 0.60340047 0.75804859
0.84036243 0.60254115 0.79294652
0.6941312 0.60724628 0.67472941
0.74166864 0.60253567 0.70376402
0.79734433 0.60468662 0.73877239
0.85392541 0.60190707 0.76967323
0.70682532 0.6064893 0.6584726
0.75637025 0.60377109 0.68750566
0.81298566 0.60497284 0.71947819
0.86951053 0.6022476 0.74738002
0.72158712 0.60867023 0.64523119
0.76700461 0.60207564 0.66826934
0.82558614 0.60430628 0.69822305
0.88509572 0.60258812 0.72508687
0.73025531 0.605946 0.62801373
0.78170627 0.60331112 0.65201092
0.83922398 0.60359985 0.6789484
0.89765877 0.60195768 0.70183241
0.74601692 0.60812336 0.61475354
0.79438561 0.60357195 0.63477242
0.84980619 0.6029585 0.65673119
0.91225195 0.60430151 0.67959404
0.75569284 0.60739517 0.59755337
0.81009483 0.60680348 0.61853123
0.86547405 0.60522634 0.63847262
0.92175162 0.60173643 0.65336084
0.76839089 0.60763794 0.5813145
0.821733 0.60610425 0.59929413
0.87805974 0.60557765 0.61623579
0.93836701 0.6050548 0.63210261
0.77706319 0.60591346 0.56411511
0.83135289 0.60543031 0.57909501
0.88561982 0.60396528 0.59305722
0.94789332 0.60447127 0.6069051
0.78876138 0.60615987 0.54789507
0.84808457 0.60963988 0.56385273
0.90229541 0.60822922 0.57481593
0.95944172 0.60486239 0.5826878
0.8024897 0.60938042 0.53269118
0.85163355 0.60504246 0.54069525
0.90983677 0.60663503 0.55063778
0.96897179 0.60527873 0.55750835
0.80911702 0.60569966 0.51349396
0.86632425 0.60829562 0.52347326
0.92146397 0.60795355 0.53043705
0.98052418 0.6066696 0.53330904
0.82286412 0.60890216 0.49928969
0.87392187 0.60664713 0.502294
0.93205017 0.60831201 0.50823784
0.9900769 0.60806769 0.50914729
0.83354777 0.61017001 0.4821068
0.88354558 0.60697299 0.48211285
0.94566619 0.61164111 0.48703593
1.0016372 0.61145824 0.48498401
0.84320503 0.60945994 0.46390697
0.89721775 0.61024785 0.46390998
0.94920427 0.60906142 0.46291485
1.0111712 0.61287445 0.45982257
0.85186625 0.60975325 0.44574395
0.90079337 0.60763198 0.4417882
0.95877582 0.61044139 0.43975276
1.0146759 0.61133063 0.43372017
0.8635537 0.61201727 0.42856026
0.90941727 0.60796148 0.42162585
0.96534383 0.61083233 0.41662902
1.020188 0.61177945 0.40761626
0.87119257 0.61133248 0.40939838
0.92007124 0.61126512 0.40247965
0.97594172 0.61419034 0.3944838
1.0277262 0.61420268 0.38251042
0.87785029 0.61063313 0.39125493
0.92867643 0.61161268 0.38131765
0.98453212 0.61555582 0.3723402
1.0362644 0.61662227 0.35738584
0.88346702 0.60897374 0.37111288
0.94033426 0.61591274 0.3621707
0.98605585 0.61400115 0.34727502
1.0317173 0.61114413 0.32936239
0.89211351 0.61028498 0.35196823
0.94188756 0.61232221 0.33906883
0.98759836 0.61242849 0.32320955
1.0362337 0.61259627 0.30329522
0.89775282 0.60960728 0.33284393
0.94446725 0.61070979 0.31698388
0.99314785 0.61284107 0.29910493
1.0488093 0.61998266 0.27918524
0.91145158 0.61486369 0.31567675
0.95711011 0.61602408 0.29683647
0.99972779 0.61623156 0.27603525
1.0392593 0.61352253 0.25123772
0.91607225 0.61420768 0.29557151
0.96069348 0.61540782 0.27475074
1.0022738 0.615655 0.25196901
1.044798 0.61595291 0.22616947
0.92572254 0.61651522 0.27642608
0.9632771 0.61479515 0.25268382
1.0048428 0.61606032 0.22892042
1.0262113 0.60454416 0.1973013
0.92431384 0.6128993 0.25537992
0.96886808 0.61617142 0.23059654
0.74096382 0.4422245 0.16469467
-0.02611593 -0.059798401 0.050936799
0.92791218 0.61126518 0.23427583
0.63255364 0.38582069 0.15470071
0.60898685 0.35534269 0.13058245
0.62056786 0.34968048 0.10925597
0.61365861 0.38779813 0.16009207
0.60412449 0.36626831 0.13587292
0.58962089 0.34272057 0.113711
0.58615458 0.32913166 0.09152256
0.58622539 0.36724231 0.14122747
0.58677697 0.35362095 0.11996353
0.58131802 0.33702168 0.098758295
0.59892547 0.33833677 0.077445194
0.5829668 0.36348891 0.12821616
0.57145572 0.34294799 0.10505227
0.56700832 0.32934457 0.083882295
-0.02611593 -0.059798401 0.050936799
0.55960071 0.34586394 0.11232944
0.56818241 0.34021249 0.091059327
0.56473869 0.32760537 0.069888584
0.57732046 0.32695684 0.047633745
0.58948654 0.36593375 0.10212949
0.5609206 0.33547366 0.078105181
0.5685063 0.33082569 0.05687188
-0.02611593 -0.059798401 0.050936799
0.55810231 0.34333831 0.086302996
0.55967343 0.33471259 0.065110363
0.55723751 0.32410148 0.043956857
-0.02611593 -0.059798401 0.050936799
0.55486643 0.34056669 0.074309371
0.55840755 0.33396956 0.051115878
0.55900151 0.32632911 0.030959718
0.57555002 0.33171952 0.0057388395
0.55562288 0.34079823 0.061294988
0.57322335 0.34513095 0.039036289
0.56776917 0.33454871 0.016939498
0.57629949 0.33496863 -0.0082211457
0.55838287 0.34202251 0.048261039
0.55593598 0.33342916 0.026143912
0.56450373 0.33381292 0.0029825941
-0.02611593 -0.059798401 0.050936799
0.55716926 0.3402254 0.037247524
0.56571829 0.34062722 0.013086539
0.56524926 0.33606222 -0.010995414
-0.02611593 -0.059798401 0.050936799
0.55692977 0.34146035 0.024269946
0.56447899 0.34186578 0.00012775883
0.57700551 0.3462888 -0.026035629
0.61348599 0.36873111 -0.058323633
0.5637008 0.34566975 0.011214897
0.57023537 0.34709665 -0.013890151
0.57575142 0.34854528 -0.039976064
0.59822184 0.36302111 -0.071145475
0.56947201 0.34988269 -0.0018213689
0.5659849 0.34534651 -0.026846617
0.59047753 0.36079693 -0.057035938
0.74672693 0.46831873 -0.1190374
0.5862391 0.36309081 -0.016901489
0.57872617 0.35658741 -0.04288727
0.60620737 0.37404481 -0.074096583
0.76035273 0.48368195 -0.14202239
-0.02611593 -0.059798401 0.050936799
0.59146345 0.3668285 -0.058945939
0.75969386 0.4843598 -0.1239917
0.75999784 0.48904288 -0.16192552
0.57773417 0.35859066 -0.042832445
0.6051898 0.37908372 -0.075987026
0.76134253 0.49071336 -0.14391439
0.80752444 0.52846092 -0.19511357
0.59346014 0.37083873 -0.05991111
0.7576912 0.48838437 -0.1248817
0.78294504 0.51008338 -0.16897695
0.93869478 0.62912786 -0.25977039
0.60419387 0.38008711 -0.07595022
0.7603358 0.49373448 -0.14484119
0.91421998 0.6086421 -0.22767183
0.2109956 0.11178358 -0.031426735
0.75769514 0.48938423 -0.12486368
0.82085001 0.54014081 -0.18014669
0.940718 0.63511968 -0.25969988
0.19295569 0.10085004 -0.031286709
0.75935471 0.49371997 -0.14382274
0.93016356 0.62369066 -0.23370019
0.20901078 0.11077283 -0.030407511
-0.02611593 -0.059798401 0.050936799
0.82586086 0.54312235 -0.1801866
0.93572968 0.63311982 -0.25864226
0.19297442 0.10083195 -0.03028705
0.16092043 0.080932103 -0.029046461
0.92519712 0.6176554 -0.23071533
0.20503715 0.10775151 -0.028387085
-0.02611593 -0.059798401 0.050936799
-0.02611593 -0.059798401 0.050936799
0.93276691 0.62807721 -0.25567701
0.19694804 0.10385327 -0.032307483
0.17187496 0.08896362 -0.03310765
0.14284702 0.07103458 -0.030887734
0.20902556 0.10975491 -0.029425871
-0.02611593 -0.059798401 0.050936799
-0.02611593 -0.059798401 0.050936799
-0.02611593 -0.059798401 0.050936799
0.19595908 0.10183911 -0.031325061
0.16888244 0.085956812 -0.032105677
0.14782436 0.075052142 -0.032908931
0.12081871 0.058097668 -0.029708922
-0.02611593 -0.059798401 0.050936799
-0.02611593 -0.059798401 0.050936799
-0.02611593 -0.059798401 0.050936799
-0.02611593 -0.059798401 0.050936799
0.1639199 0.080921337 -0.029102832
0.14783524 0.073034398 -0.031945314
0.12878463 0.0641222 -0.032750115
0.10381997 0.048124205 -0.027570348
-0.02611593 -0.059798401 0.050936799
-0.02611593 -0.059798401 0.050936799
-0.02611593 -0.059798401 0.050936799
-0.02611593 -0.059798401 0.050936799
0.14385378 0.06801343 -0.029960919
0.13078427 0.064115025 -0.032787699
0.11473706 0.056191899 -0.033630863
0.092764914 0.043200709 -0.029453065
-0.02611593 -0.059798401 0.050936799
-0.02611593 -0.059798401 0.050936799
-0.02611593 -0.059798401 0.050936799
-0.02611593 -0.059798401 0.050936799
0.12681761 0.058076136 -0.029821664
0.11474793 0.054174148 -0.032667235
0.095768295 0.044189773 -0.029491421
0.080762275 0.03722671 -0.028336029
-0.02611593 -0.059798401 0.050936799
-0.02611593 -0.059798401 0.050936799
-0.02611593 -0.059798401 0.050936799
-0.02611593 -0.059798401 0.050936799
0.10879643 0.04712452 -0.028681982
0.098730303 0.044215184 -0.031547118
0.086698055 0.040277015 -0.032393359
0.071729481 0.033277772 -0.029238649
-0.02611593 -0.059798401 0.050936799
-0.02611593 -0.059798401 0.050936799
-0.02611593 -0.059798401 0.050936799
-0.02611593 -0.059798401 0.050936799
0.089808933 0.035140481 -0.0255422
0.08869376 0.03927001 -0.032448959
0.076698981 0.035295669 -0.031295892
0.060741447 0.026282268 -0.027158763
-0.02611593 -0.059798401 0.050936799
-0.02611593 -0.059798401 0.050936799
-0.02611593 -0.059798401 0.050936799
-0.02611593 -0.059798401 0.050936799
0.080790952 0.030173633 -0.025463175
0.077676132 0.034310341 -0.032332353
0.067662261 0.030346915 -0.032216523
0.055686191 0.026354481 -0.030063789
-0.02611593 -0.059798401 0.050936799
-0.02611593 -0.059798401 0.050936799
-0.02611593 -0.059798401 0.050936799
-0.02611593 -0.059798401 0.050936799
0.07372427 0.027253533 -0.028384682
0.071613222 0.032386478 -0.035254639
0.057681896 0.025347471 -0.030119389
0.046705652 0.021351449 -0.02798545
-0.02611593 -0.059798401 0.050936799
-0.02611593 -0.059798401 0.050936799
-0.02611593 -0.059798401 0.050936799
-0.02611593 -0.059798401 0.050936799
0.064706281 0.02228668 -0.028305657
0.058655143 0.023362311 -0.031173881
0.052622717 0.024419852 -0.033042442
0.037743825 0.016330335 -0.02490744
-0.02611593 -0.059798401 0.050936799
-0.02611593 -0.059798401 0.050936799
-0.02611593 -0.059798401 0.050936799
-0.02611593 -0.059798401 0.050936799
0.055707015 0.017301736 -0.027226977
0.052629657 0.02140227 -0.032096829
0.044627193 0.020431161 -0.031964522
0.033688389 0.016398959 -0.027831264
-0.02611593 -0.059798401 0.050936799
-0.02611593 -0.059798401 0.050936799
-0.02611593 -0.059798401 0.050936799
-0.02611593 -0.059798401 0.050936799
0.050666556 0.016356036 -0.029150363
0.044634134 0.017413571 -0.031018924
0.04057176 0.020499783 -0.034888353
0.024756156 0.0093420055 -0.022789977
-0.02611593 -0.059798401 0.050936799
-0.02611593 -0.059798401 0.050936799
-0.02611593 -0.059798401 0.050936799
-0.02611593 -0.059798401 0.050936799
0.042671032 0.012367335 -0.02807245
0.039608471 0.01544995 -0.031960662
0.031609938 0.015478661 -0.03181034
0.02170839 0.011406694 -0.025696542
-0.02611593 -0.059798401 0.050936799
-0.02611593 -0.059798401 0.050936799
-0.02611593 -0.059798401 0.050936799
-0.02611593 -0.059798401 0.050936799
0.033705283 0.0063463845 -0.025012463
0.031631671 0.01144316 -0.029883094
0.027588015 0.014511276 -0.032752864
0.018656697 0.012471559 -0.028621137
-0.02611593 -0.059798401 0.050936799
-0.02611593 -0.059798401 0.050936799
-0.02611593 -0.059798401 0.050936799
-0.02611593 -0.059798401 0.050936799
0.029649844 0.0064150072 -0.027936287
0.027580161 0.012511615 -0.032788899
0.019629937 0.010486397 -0.029675625
0.013653688 0.011489673 -0.028545205
-0.02611593 -0.059798401 0.050936799
-0.02611593 -0.059798401 0.050936799
-0.02611593 -0.059798401 0.050936799
-0.02611593 -0.059798401 0.050936799
0.024642905 0.004433298 -0.027878374
0.023524726 0.012580237 -0.035712719
0.016596971 0.011533173 -0.031600554
0.010601992 0.012554537 -0.031469792
-0.02611593 -0.059798401 0.050936799
-0.02611593 -0.059798401 0.050936799
-0.02611593 -0.059798401 0.050936799
-0.02611593 -0.059798401 0.050936799
0.018654866 0.0024370812 -0.026802003
0.018517785 0.010598521 -0.035654806
0.01257505 0.010565787 -0.032543078
0.0055989833 0.011572651 -0.03139386
-0.02611593 -0.059798401 0.050936799
-0.02611593 -0.059798401 0.050936799
-0.02611593 -0.059798401 0.050936799
-0.02611593 -0.059798401 0.050936799
