# .PCD v0.7 - Point Cloud Data file format
VERSION 0.7
FIELDS x y z
SIZE 4 4 4
TYPE F F F
COUNT 1 1 1
WIDTH 1418
HEIGHT 1
VIEWPOINT 0 0 0 1 0 0 0
POINTS 1418
DATA ascii
-1.1792321 0.30407703 0.14614064
-1.1589707 0.27962095 0.11130709
-1.1386867 0.25614661 0.077491231
-1.2378283 0.3430917 0.21396643
-1.2026761 0.31065547 0.17470825
-1.1774422 0.28419986 0.13874505
-0.02611593 -0.059798401 0.050936799
-1.2412956 0.34459919 0.24206814
-0.02611593 -0.059798401 0.050936799
-1.194895 0.28875715 0.16716388
-1.1846504 0.26435503 0.13151859
-1.282611 0.35915047 0.27611646
-1.2484813 0.32573611 0.23585936
-1.2312684 0.29832751 0.19902882
-0.02611593 -0.059798401 0.050936799
-1.2940049 0.36463174 0.30743954
-1.2489569 0.32523322 0.26386866
-0.02611593 -0.059798401 0.050936799
-1.2145354 0.26941609 0.19018956
-1.322301 0.37510082 0.34317079
-1.2961923 0.34073347 0.30204636
-1.2670617 0.30733705 0.26188323
-0.02611593 -0.059798401 0.050936799
-1.2978611 0.36856347 0.36760324
-1.3135478 0.34620008 0.33548152
-1.2824587 0.31183285 0.29326347
-0.02611593 -0.059798401 0.050936799
-1.3152084 0.37602979 0.40107444
-1.3269037 0.35165238 0.36884153
-1.300799 0.31628516 0.32769907
-1.2328537 0.27087745 0.27958924
-1.36132 0.39441743 0.44528538
-1.3233426 0.35109892 0.39877498
-1.2992374 0.31573892 0.3576701
-0.02611593 -0.059798401 0.050936799
-2.09554 0.64754379 0.71170104
-1.3575176 0.36348069 0.44065297
-0.02611593 -0.059798401 0.050936799
-0.02611593 -0.059798401 0.050936799
-2.0816813 0.64666504 0.75744116
-2.2566895 0.65134656 0.75780261
-1.3258824 0.32457146 0.42835268
-1.3087573 0.28921846 0.38837904
-2.069818 0.64679331 0.80323684
-2.2387645 0.64838153 0.80743015
-2.428755 0.65209907 0.80905509
-1.347883 0.29956421 0.43331394
-2.0490055 0.64392579 0.84681016
-2.2287886 0.64840841 0.85926151
-2.4246285 0.65200275 0.86899644
-2.6723497 0.65969265 0.88477892
-2.0361428 0.6440506 0.89258707
-2.2098634 0.64543974 0.90887022
-2.4105678 0.64992523 0.92571485
-2.6680958 0.65846986 0.95169979
-2.016345 0.64220464 0.93519747
-2.1979067 0.64547747 0.95966429
-2.3994646 0.64882207 0.98450691
-2.6429591 0.6522631 1.0131377
-1.9955474 0.64035529 0.97778904
-2.1740241 0.64152718 1.0071619
-2.3923347 0.64971489 1.0444099
-2.6346872 0.65100801 1.0809832
-1.9806849 0.64047271 1.0235285
-2.156091 0.6405617 1.0568254
-2.3722978 0.64663404 1.0999978
-2.6273925 0.65073812 1.149865
-1.9549485 0.63765979 1.063009
-2.144093 0.64156324 1.1096368
-2.3532376 0.64453846 1.1566223
-2.6161025 0.64945412 1.2186538
-1.9341283 0.63679212 1.1066183
-2.1271224 0.64056516 1.1613184
-2.3500092 0.64635509 1.2216167
-2.5978589 0.64618146 1.2852756
-1.9133308 0.63494271 1.14921
-2.1062086 0.63960701 1.2099261
-2.3180571 0.64130384 1.2729445
-2.5815885 0.64489752 1.3529707
-1.8945065 0.63508201 1.1928748
-2.0773642 0.63567489 1.2553303
-2.3048906 0.64213896 1.3347341
-2.5583797 0.64264297 1.4175172
-1.8697619 0.63427228 1.2324102
-2.0643435 0.6376546 1.3091406
-2.2818501 0.64004713 1.3902837
-2.5321789 0.6383779 1.4819714
-1.8410487 0.63046682 1.2708168
-2.0354953 0.63472229 1.3545629
-2.2568061 0.63894796 1.4458137
-2.5158486 0.63803959 1.5526835
-1.8192436 0.63061345 1.3134257
-2.0037076 0.63083375 1.3969116
-2.2287705 0.63583845 1.5012513
-2.4916172 0.63676316 1.6182289
-1.7895639 0.6278404 1.3498323
-1.9856919 0.63179553 1.45061
-2.1967955 0.631769 1.5535967
-2.4623945 0.63346916 1.6836444
-1.7667589 0.62798351 1.3924222
-1.956817 0.63084489 1.4970678
-2.1648316 0.62971723 1.6049788
-2.434145 0.63216037 1.7501144
-1.7321403 0.62424695 1.4257178
-1.9279649 0.62891251 1.5425081
-2.1377501 0.62857479 1.6624705
-2.4068952 0.63085502 1.8166029
-1.7024568 0.62247366 1.4621423
-1.9000899 0.62796539 1.588985
-2.1038094 0.62553424 1.712797
-2.3776271 0.62952447 1.8840539
-1.6865453 0.62555093 1.5099162
-1.8653177 0.62508398 1.6302958
-2.0708082 0.62344271 1.7661594
-2.3404808 0.62627417 1.9453205
-1.6558431 0.62375605 1.5473216
-1.8325036 0.62317336 1.6736615
-2.0319242 0.62043834 1.8133931
-2.2983727 0.62304193 2.0044937
-1.6271368 0.62296814 1.5847827
-1.8163821 0.62705141 1.7324498
-1.8801134 0.57785529 1.7567613
-1.9124112 0.51503515 1.7532284
-1.5846585 0.6173299 1.6108942
-1.7815456 0.62611532 1.7767956
-1.8314718 0.57103282 1.7917391
-1.850956 0.50432944 1.7788929
-1.5529941 0.61556768 1.6462815
-1.7359784 0.619376 1.8078312
-1.8896872 0.60269541 1.93445
-1.8513249 0.51279742 1.8640819
-1.5203298 0.61380172 1.68165
-1.6913655 0.61460382 1.8409208
-1.8919425 0.61607921 2.024765
-2.0397339 0.58339787 2.1499834
-1.486722 0.61208647 1.7140007
-1.6546084 0.61273313 1.8812124
-1.8402599 0.61020964 2.0617037
-2.1024203 0.61557174 2.3207967
-1.4491564 0.6093933 1.744259
-1.6129684 0.60995317 1.9153941
-1.7964331 0.60724169 2.1058445
-2.03479 0.60668141 2.3553815
-1.4155297 0.60766006 1.7776092
-1.5742117 0.60807526 1.9556481
-1.7593873 0.60709929 2.1611671
-1.9827775 0.60350388 2.4093688
-1.3886949 0.61077011 1.8211778
-1.5364321 0.60718274 1.9969386
-1.7174547 0.60704756 2.2103977
-1.9376206 0.60322422 2.4705391
-1.355027 0.61000043 1.8565457
-1.4918343 0.60342848 2.0290465
-1.677447 0.60693055 2.2636645
-1.8826648 0.60009015 2.5214705
-1.3145219 0.60635096 1.8837304
-1.455013 0.60350317 2.0723732
-1.6296396 0.60396636 2.3067305
-1.8306296 0.59789425 2.5764751
-1.2808461 0.6075809 1.9191343
-1.4152486 0.60362136 2.1126444
-1.5808285 0.60199833 2.3497956
-1.7756472 0.5967418 2.6284425
-1.2442387 0.60585493 1.9514285
-1.3716052 0.60183412 2.1468067
-1.5339719 0.60200095 2.3949337
-1.7167709 0.59266585 2.6752825
-1.2047068 0.60419059 1.9796678
-1.3308221 0.60193068 2.1880589
-1.4832171 0.60008001 2.4349623
-1.6559058 0.59060049 2.7211211
-1.1651748 0.60252625 2.0079072
-1.2852204 0.59917259 2.220166
-1.4362856 0.60001034 2.4840989
-1.5950634 0.58755338 2.7659419
-1.126564 0.60179293 2.0401819
-1.2327963 0.59455246 2.2431087
-1.3767319 0.59523851 2.5139077
-1.5380025 0.58732122 2.8218882
-1.0879718 0.60107774 2.0714571
-1.1919721 0.5956127 2.2863781
-1.3259318 0.595281 2.5559716
-1.4684318 0.58249533 2.852509
-1.0435984 0.59754038 2.0915692
-1.1434456 0.59291613 2.3144305
-1.2692946 0.59244734 2.5898714
-1.4113669 0.58326298 2.9084735
-1.007859 0.60070866 2.1299703
-1.0919948 0.59028125 2.3384278
-1.2145783 0.59054822 2.6278257
-1.3455966 0.58127016 2.9492197
-0.96246707 0.59714967 2.151063
-1.0473062 0.59045386 2.3746064
-1.1502352 0.58495754 2.6465261
-1.2807844 0.58024454 2.9920022
-0.92095035 0.59649611 2.1782835
-0.99963683 0.59063375 2.409729
-1.0582787 0.56253213 2.5943811
-1.0118886 0.47056955 2.525826
-0.87935483 0.59676987 2.2095201
-0.95194876 0.59079558 2.4458511
-0.94748938 0.52610475 2.48261
-0.91725475 0.4474411 2.4566121
-0.83491743 0.59517801 2.2326672
-0.89287472 0.58347654 2.4506145
-0.86171907 0.50388181 2.4205809
-0.83051407 0.42725039 2.392601
-0.79329926 0.59643364 2.2649214
-0.81491566 0.56110144 2.3987327
-0.77994794 0.48167312 2.3586276
-0.74959207 0.40991795 2.337754
-0.74689966 0.59487069 2.2860317
-0.73811013 0.53787464 2.3388541
-0.7078144 0.46517387 2.3149636
-0.67278564 0.39170846 2.2769661
-0.7014212 0.59423888 2.3111773
-0.66904396 0.51844096 2.2921934
-0.6340152 0.44497553 2.2541957
-0.59982079 0.3753683 2.2242866
-0.64006096 0.57756191 2.2797163
-0.60109001 0.49911922 2.2395542
-0.56603467 0.42763537 2.2025919
-0.53465152 0.36287528 2.1818259
-0.57515574 0.55528772 2.2250795
-0.53703773 0.48072127 2.1920059
-0.50379395 0.41408095 2.1641686
-0.47060236 0.34849477 2.1333501
-0.51507312 0.5348683 2.1795697
-0.47786051 0.46523219 2.1506038
-0.44453388 0.40051922 2.126801
-0.41033071 0.33792889 2.0960178
-0.45882043 0.51931757 2.1422229
-0.41976577 0.44781944 2.1051855
-0.38646486 0.3861421 2.0794377
-0.35304374 0.3263559 2.0597239
-0.40366897 0.50186139 2.09986
-0.36552358 0.43429375 2.0669124
-0.33304217 0.37545669 2.0502343
-0.2996093 0.31866992 2.0305746
-0.35237399 0.48729238 2.0646241
-0.31502545 0.4235467 2.041764
-0.28255492 0.36672741 2.0241222
-0.25412288 0.32003778 2.0557561
-0.30395824 0.47462517 2.0354786
-0.26918459 0.4185091 2.0338118
-0.24151587 0.37460548 2.0775144
-0.21087039 0.32970938 2.1201432
-0.26084679 0.47134468 2.0416141
-0.22920151 0.4264451 2.084224
-0.19919917 0.38622612 2.1449552
-0.16553943 0.34030131 2.188509
-0.22270182 0.48214263 2.1001153
-0.18794078 0.43812355 2.1486845
-0.15396184 0.39690846 2.2083228
-0.15945786 0.54986084 3.3235707
-0.18253455 0.49391514 2.1595962
-0.14358307 0.45070061 2.2181051
-0.1313943 0.56149018 3.0051479
-0.08020626 0.5503239 3.3360996
-0.14031145 0.50562608 2.2220385
-0.11062268 0.56644368 2.7257535
-0.063279614 0.56011963 3.0108497
-0.001191128 0.54800451 3.3365784
-0.10168697 0.57533962 2.5076735
-0.050330173 0.5669387 2.740639
0.0059137009 0.55967301 3.0205493
0.075693317 0.54581904 3.3300972
-0.048471995 0.57493234 2.5186734
0.0098046996 0.56557894 2.7474906
0.074968114 0.55735338 3.0232153
0.15573092 0.54447776 3.3315749
0.005720146 0.57353967 2.5286372
0.069958299 0.56420088 2.755342
0.14414664 0.55792469 3.0319333
0.23463765 0.54326671 3.3260736
0.058852375 0.57120508 2.5356023
0.13107428 0.56285554 2.7611756
0.2150657 0.55472463 3.0275464
0.31354043 0.54105592 3.3205545
0.11306718 0.57079422 2.5465837
0.19418986 0.56150299 2.7669713
0.28398907 0.5525316 3.0232148
0.39352971 0.54176867 3.3190694
0.16820295 0.56945229 2.5535295
0.25619334 0.5602625 2.766788
0.35624981 0.55501944 3.0359111
-0.02611593 -0.059798401 0.050936799
0.22533838 0.56810319 2.5604377
0.31819284 0.5580222 2.7665868
-0.02611593 -0.059798401 0.050936799
0.5512535 0.54043698 3.3030868
0.28045544 0.56677938 2.5663836
-0.02611593 -0.059798401 0.050936799
0.49375162 0.54895931 3.0092182
0.25495487 0.19711618 1.4397925
-0.02611593 -0.059798401 0.050936799
0.44431958 0.55742538 2.7722161
0.56685853 0.55058849 3.0138803
0.28887376 0.19706652 1.4351549
0.39575663 0.56705892 2.5812349
0.51050258 0.55900729 2.7810087
0.28390974 0.22515205 1.4317548
0.78647232 0.53829575 3.2596292
0.45275703 0.56483662 2.5811276
0.27911818 0.25407463 1.4373697
0.7031545 0.54473096 2.9762096
0.86096388 0.53649729 3.232193
0.26934624 0.28299704 1.444078
0.63726163 0.55575097 2.7675722
0.77616775 0.5464505 2.9758737
0.93857127 0.53557932 3.210716
0.57206142 0.56610173 2.5959218
0.70438826 0.55738354 2.7733469
0.84696752 0.54637659 2.9645429
1.0141828 0.53566825 3.1892946
0.62875056 0.56116933 2.5797658
0.76610303 0.55441475 2.7581325
0.91461414 0.54545832 2.9452536
1.0897571 0.53579348 3.1658742
0.68881834 0.56188142 2.582655
0.82882148 0.55244225 2.7429175
0.98645508 0.5463444 2.9359212
-0.02611593 -0.059798401 0.050936799
0.74772477 0.55974239 2.5775118
0.89367855 0.55233562 2.7346983
1.054023 0.54449874 2.9126146
0.40109298 0.14094499 1.0839196
0.80977362 0.56046546 2.5793638
0.95741951 0.55134124 2.7204823
-0.02611593 -0.059798401 0.050936799
0.52634484 0.18555896 1.3004551
0.87066489 0.55933708 2.5732012
-0.02611593 -0.059798401 0.050936799
0.51131773 0.20671779 1.2951173
1.3804076 0.53394932 3.0383561
0.92945904 0.55730665 2.5620599
0.42288765 0.18626481 1.1173428
1.2618948 0.54379797 2.8506894
1.4517577 0.53430593 3.0030143
-0.02611593 -0.059798401 0.050936799
0.53349769 0.22954446 1.3001167
1.3241975 0.54122353 2.8134637
1.521067 0.53370613 2.9656932
0.51567316 0.24951522 1.3058136
1.2153533 0.54938889 2.6615977
1.3938329 0.5423159 2.7931726
1.587302 0.53318942 2.9244299
1.1119269 0.5541206 2.5325758
1.2841386 0.55034 2.6493227
1.4582179 0.54166162 2.759944
1.6555592 0.53364724 2.8841462
1.1768068 0.55499572 2.5253747
1.3467301 0.54949397 2.6271279
1.5236216 0.54098564 2.7276964
1.7248763 0.53504705 2.8468614
1.2385666 0.55399042 2.5121958
1.4102837 0.54868054 2.6029153
1.5921447 0.54219007 2.7014263
1.7859209 0.53372931 2.7956772
1.302349 0.55395973 2.4999967
1.4769571 0.54974741 2.5846801
1.6513958 0.54068053 2.6612761
1.8459657 0.53241515 2.7445121
1.366094 0.55396521 2.4857986
1.5404733 0.5489701 2.5584681
1.7219414 0.54285955 2.6359863
1.9101526 0.53395957 2.7003231
1.4328797 0.55492359 2.4735613
1.6019299 0.54725438 2.5292766
1.7821546 0.54138255 2.5938179
1.9763993 0.53644234 2.6591139
1.4903892 0.55216819 2.4474261
1.6643943 0.54753482 2.500102
1.8434318 0.54184747 2.5546656
2.0323513 0.53523296 2.6030254
1.5591972 0.55410105 2.4361689
1.7350709 0.54958719 2.4818096
1.9016081 0.54041398 2.5105355
2.0924456 0.53688216 2.5539134
1.6094115 0.54764277 2.3950977
1.792341 0.54806679 2.4426968
1.9638703 0.54189312 2.4703829
2.1515172 0.53755325 2.5038028
1.680223 0.55056834 2.383821
1.8578272 0.54931813 2.4144838
2.0220504 0.54145938 2.426271
2.2013767 0.53645587 2.4428284
1.7478589 0.55166787 2.3635681
1.9161159 0.54777604 2.3763514
2.0771563 0.54110879 2.3782165
2.259419 0.53916627 2.3907733
1.8062783 0.54999912 2.3324335
1.9774491 0.54818666 2.3401985
2.1394224 0.5435878 2.3380821
2.3134162 0.53992766 2.3367579
1.8769324 0.55106974 2.3131232
2.0347044 0.54768407 2.3001039
2.1985879 0.54416835 2.2929695
2.3602428 0.53987706 2.2738588
1.9424562 0.55228496 2.2869096
2.0929408 0.54719603 2.258991
2.2394035 0.54113978 2.2301292
2.4091289 0.54076487 2.2139392
2.0038416 0.5516414 2.2537374
2.1521957 0.54668635 2.2188585
2.3077326 0.54554272 2.1929171
2.4651527 0.54350066 2.1609218
2.0621262 0.54909945 2.2155874
2.2155175 0.54910755 2.181704
2.3648648 0.54716647 2.1458607
2.4977682 0.54169959 2.0872538
2.1255155 0.54944867 2.1823957
2.2757387 0.54963028 2.1395717
2.4087255 0.54609066 2.0849993
2.548718 0.54452562 2.0303316
2.1868451 0.54885936 2.1462243
2.3288226 0.54830503 2.0905375
2.4648201 0.54775417 2.0359628
2.5925715 0.54646742 1.9685247
2.2532187 0.55021572 2.1119947
2.3900511 0.55082387 2.0484221
2.5137622 0.54858774 1.9790421
2.6364253 0.54840916 1.9067178
2.3277113 0.55343449 2.0836487
2.4431202 0.55051661 1.9984062
2.5525863 0.54756606 1.9162755
2.6762009 0.54943782 1.8409693
2.3899467 0.55293208 2.0424604
2.4931295 0.54927456 1.9454293
2.6106701 0.55124015 1.8662375
2.7220769 0.5523541 1.7801427
2.4460862 0.55154186 1.9963685
2.5512428 0.55091286 1.8973548
2.6666939 0.55397588 1.8132201
2.7517376 0.55252731 1.7085662
2.5062287 0.55113709 1.9502195
2.6123779 0.55352205 1.8502413
2.7115808 0.55487806 1.7533756
2.7915587 0.55551946 1.6448531
2.5714712 0.55262363 1.9090109
2.6674168 0.55524349 1.7982243
2.7493942 0.55587769 1.6896642
2.8253016 0.55760562 1.5772362
2.638658 0.55415732 1.8647658
2.7325552 0.55883825 1.7510538
2.7871661 0.55591363 1.6239353
2.8449049 0.55686921 1.5028306
2.6967299 0.55483186 1.8146737
2.7673199 0.5568853 1.6853453
2.8239384 0.5559532 1.5582254
2.8816843 0.5589084 1.4371566
2.7638788 0.55640167 1.7684293
2.813184 0.55680209 1.6244646
2.8667958 0.55889845 1.4964554
2.9073541 0.56109571 1.3656914
2.8198535 0.5561741 1.7133585
2.8782513 0.56146908 1.5733135
2.9015498 0.55896324 1.4297832
2.9320388 0.56226861 1.2952265
2.8747907 0.55598623 1.6563071
2.9220784 0.5614292 1.5104709
2.9403479 0.56097728 1.3650713
2.9647861 0.56535822 1.2276464
2.9347911 0.55772591 1.6021968
2.9578094 0.56050879 1.4427621
2.975091 0.56305987 1.2974356
2.9824157 0.56661052 1.154314
2.9937091 0.55754179 1.5440707
3.0086844 0.56340712 1.3818415
3.012852 0.5651136 1.2307431
3.0071268 0.56976509 1.0848849
3.0556345 0.55934662 1.4859242
3.0494559 0.56343234 1.3160563
3.0475988 0.56819606 1.1631254
3.0277936 0.57097042 1.0134957
3.1226037 0.563097 1.4297192
3.0912163 0.56547165 1.2492887
3.0692427 0.56841606 1.0906996
3.0353839 0.5712949 0.93833399
3.1602702 0.56022388 1.358938
3.1319356 0.56655103 1.1805226
3.0949273 0.56958538 1.0202161
3.056077 0.57448184 0.8679803
3.2211061 0.56312257 1.2958301
3.1807358 0.56952894 1.1156408
3.118556 0.57081622 0.94677097
3.0657086 0.57576293 0.79479837
3.2597389 0.56128192 1.2230488
3.2103367 0.56875658 1.0410473
3.1462438 0.57297814 0.87626779
3.0783429 0.57803297 0.72157806
3.3044162 0.56138319 1.1521901
3.2590852 0.57278866 0.97318447
3.1678917 0.57419801 0.80386001
3.0849934 0.57930666 0.64945215
3.3641956 0.56433976 1.086102
3.2826912 0.57303768 0.89872181
3.1865253 0.57644659 0.73052692
3.0976508 0.58255851 0.57724953
3.4057984 0.56452417 1.011301
3.3123 0.574265 0.82416439
3.2061398 0.5787096 0.65617537
3.1002831 0.58386469 0.50419909
3.4564261 0.5666579 0.93736666
3.3388679 0.57453948 0.74764597
3.2247694 0.57995838 0.58282429
3.0968943 0.58421057 0.43024373
3.5070539 0.56879163 0.86343229
3.3654399 0.57581377 0.67114556
3.2383437 0.58127928 0.50656825
3.0955422 0.58451319 0.35825008
3.5495853 0.57004464 0.78463197
3.3990371 0.57904446 0.59554935
3.253963 0.58455652 0.43230993
3.1022007 0.58778656 0.28616023
3.5981197 0.572276 0.70573694
3.4275751 0.58134753 0.51703012
3.2575355 0.58491349 0.3562237
3.1018565 0.59008521 0.21418384
3.6406138 0.57356524 0.62493724
3.4521101 0.58266521 0.438568
3.2610888 0.58528858 0.27913785
3.101512 0.59238386 0.14220747
3.6730311 0.57396281 0.54030883
3.4665866 0.58307314 0.3572768
3.2716863 0.58760202 0.20395578
3.105171 0.59566796 0.070173964
3.7124548 0.57633501 0.45558491
3.4880886 0.58543754 0.27688974
3.2872682 0.5909155 0.12769815
3.0498309 0.58712971 0.0010321923
3.7618847 0.58067095 0.37070912
3.5165782 0.58979464 0.19540751
3.2988546 0.59524304 0.051533677
2.9365106 0.56674731 -0.064236969
3.7842059 0.58019507 0.28125226
3.5190306 0.58826399 0.11330609
2.9432697 0.52584636 -0.016087057
2.9232361 0.56702065 -0.13200647
-0.02611593 -0.059798401 0.050936799
3.528456 0.58974403 0.029127866
2.9569912 0.53103995 -0.08527346
2.7221231 0.52870399 -0.18195112
3.5215175 0.5295347 0.097191706
2.9517474 0.48416486 -0.036006514
2.7397716 0.48887181 -0.13998786
2.7319424 0.53482139 -0.24604605
2.9886167 0.43903014 0.018505234
2.9754443 0.48834082 -0.10639851
2.7425804 0.49201483 -0.2040053
2.489135 0.48633155 -0.2773878
2.9812725 0.43633664 -0.05243003
2.7362437 0.44523376 -0.15971786
2.5655994 0.45950243 -0.24829485
2.5090168 0.49435839 -0.33863559
2.8209898 0.40906993 -0.11394317
2.7620041 0.45134798 -0.2271124
2.5065746 0.44967115 -0.30038524
2.3493063 0.46453124 -0.36919528
2.7647355 0.39844519 -0.17810389
2.5081544 0.40595132 -0.26119238
2.5453706 0.46071979 -0.36693433
2.2824471 0.45356607 -0.4121564
2.6895521 0.38581657 -0.23794499
2.5209799 0.40904036 -0.32439807
2.267966 0.40795827 -0.37569791
2.3043737 0.46354926 -0.47140643
2.5425591 0.36123136 -0.28465343
2.3682053 0.38225994 -0.35903388
2.3058188 0.41895619 -0.43922925
2.3342505 0.4755576 -0.53376973
2.3507905 0.3295736 -0.31764686
2.3043122 0.37232 -0.40403268
2.3346837 0.42796868 -0.5016278
2.5084629 0.52078164 -0.63924915
2.3078158 0.3236481 -0.3679665
2.3371165 0.38037258 -0.4695234
2.42029 0.45006388 -0.58085775
2.4725025 0.51883036 -0.68962824
2.342612 0.32969385 -0.43353084
2.3719058 0.38943589 -0.53603339
2.4768965 0.46624601 -0.65865117
2.4673955 0.52392936 -0.7494607
2.3704052 0.33476487 -0.49898168
2.5510294 0.42669761 -0.64474988
2.4956696 0.47538483 -0.72586018
2.4006007 0.51490963 -0.78938681
2.6292236 0.37904581 -0.62606949
2.4453228 0.40971062 -0.67808932
2.432822 0.46740481 -0.7688424
-0.02611593 -0.059798401 0.050936799
2.5293925 0.36416358 -0.66648328
2.480947 0.41993299 -0.75359696
2.3859084 0.46243912 -0.81606984
0.18950941 -0.008102566 -0.034194015
2.477397 0.35728857 -0.71765149
2.4170995 0.41195652 -0.79656041
-0.02611593 -0.059798401 0.050936799
-0.02611593 -0.059798401 0.050936799
2.448323 0.35542068 -0.77416015
-0.02611593 -0.059798401 0.050936799
0.18447196 -0.013065682 -0.035189807
0.16447562 -0.012993904 -0.034813996
2.4003682 0.34949496 -0.82338619
0.19045515 -0.017086536 -0.035374627
-0.02611593 -0.059798401 0.050936799
-0.02611593 -0.059798401 0.050936799
-0.02611593 -0.059798401 0.050936799
-0.02611593 -0.059798401 0.050936799
0.15647225 -0.018982261 -0.033772133
0.14346376 -0.016917855 -0.034491468
0.18441005 -0.024045723 -0.036387678
0.17038696 -0.020959811 -0.038069881
-0.02611593 -0.059798401 0.050936799
-0.02611593 -0.059798401 0.050936799
-0.02611593 -0.059798401 0.050936799
-0.02611593 -0.059798401 0.050936799
0.1364454 -0.021891885 -0.034450028
0.12743619 -0.019841833 -0.035244543
0.15938018 -0.02793723 -0.036989655
0.14737543 -0.024876582 -0.037709773
-0.02611593 -0.059798401 0.050936799
-0.02611593 -0.059798401 0.050936799
-0.02611593 -0.059798401 0.050936799
-0.02611593 -0.059798401 0.050936799
0.12141763 -0.024819449 -0.035221893
0.1084614 -0.023809144 -0.032960281
0.14035316 -0.03085044 -0.037686352
0.12836714 -0.027807884 -0.03740681
-0.02611593 -0.059798401 0.050936799
-0.02611593 -0.059798401 0.050936799
-0.02611593 -0.059798401 0.050936799
-0.02611593 -0.059798401 0.050936799
0.10344659 -0.027790518 -0.032938398
0.09645573 -0.025765734 -0.032770831
0.11838283 -0.033807151 -0.035327688
0.11532422 -0.029724712 -0.039197888
-0.02611593 -0.059798401 0.050936799
-0.02611593 -0.059798401 0.050936799
-0.02611593 -0.059798401 0.050936799
-0.02611593 -0.059798401 0.050936799
0.092422031 -0.029732611 -0.033767395
0.085449889 -0.027725918 -0.032600168
0.10533993 -0.035723981 -0.037118774
0.095390975 -0.032724775 -0.034877487
-0.02611593 -0.059798401 0.050936799
-0.02611593 -0.059798401 0.050936799
-0.02611593 -0.059798401 0.050936799
-0.02611593 -0.059798401 0.050936799
0.084382117 -0.030667551 -0.035634421
0.07544779 -0.028689859 -0.032430284
0.089391157 -0.037720483 -0.03385517
0.088332161 -0.033645216 -0.037762959
-0.02611593 -0.059798401 0.050936799
-0.02611593 -0.059798401 0.050936799
-0.02611593 -0.059798401 0.050936799
-0.02611593 -0.059798401 0.050936799
0.075361118 -0.03161699 -0.036482982
0.068407699 -0.029628389 -0.034316089
0.080351435 -0.038651835 -0.035703406
0.079292439 -0.034576572 -0.039611187
-0.02611593 -0.059798401 0.050936799
-0.02611593 -0.059798401 0.050936799
-0.02611593 -0.059798401 0.050936799
-0.02611593 -0.059798401 0.050936799
0.0633929 -0.033609763 -0.034294207
0.058439121 -0.031628337 -0.032164898
0.072311528 -0.039586775 -0.037570421
0.066343129 -0.036583845 -0.036403961
-0.02611593 -0.059798401 0.050936799
-0.02611593 -0.059798401 0.050936799
-0.02611593 -0.059798401 0.050936799
-0.02611593 -0.059798401 0.050936799
0.055409167 -0.034598973 -0.033162236
0.050455377 -0.032617547 -0.031032927
0.06034724 -0.040579714 -0.035363633
0.05930303 -0.037522372 -0.038289763
-0.02611593 -0.059798401 0.050936799
-0.02611593 -0.059798401 0.050936799
-0.02611593 -0.059798401 0.050936799
-0.02611593 -0.059798401 0.050936799
0.047402777 -0.036569919 -0.033047948
0.043448806 -0.034592085 -0.03093743
0.05627308 -0.040493004 -0.039287116
0.055228878 -0.037435662 -0.042213246
-0.02611593 -0.059798401 0.050936799
-0.02611593 -0.059798401 0.050936799
-0.02611593 -0.059798401 0.050936799
-0.02611593 -0.059798401 0.050936799
0.03845666 -0.037591718 -0.029897872
0.039393369 -0.034523457 -0.033861253
0.044361036 -0.042540044 -0.034099352
0.045282945 -0.03845387 -0.03904438
-0.02611593 -0.059798401 0.050936799
-0.02611593 -0.059798401 0.050936799
-0.02611593 -0.059798401 0.050936799
-0.02611593 -0.059798401 0.050936799
0.032453828 -0.038570017 -0.029803149
0.032409448 -0.035516258 -0.032748073
0.038339481 -0.043500252 -0.035004295
0.035351817 -0.040489994 -0.03489387
-0.02611593 -0.059798401 0.050936799
-0.02611593 -0.059798401 0.050936799
-0.02611593 -0.059798401 0.050936799
-0.02611593 -0.059798401 0.050936799
0.030379307 -0.038490482 -0.033764213
0.028391456 -0.035483815 -0.033672579
0.032340579 -0.04347872 -0.034891553
0.03129638 -0.04042137 -0.037817687
-0.02611593 -0.059798401 0.050936799
-0.02611593 -0.059798401 0.050936799
-0.02611593 -0.059798401 0.050936799
-0.02611593 -0.059798401 0.050936799
0.025361499 -0.038454447 -0.034669928
0.025317114 -0.035400692 -0.037614852
0.025337934 -0.044453427 -0.03477804
0.025312271 -0.041417755 -0.036723301
-0.02611593 -0.059798401 0.050936799
-0.02611593 -0.059798401 0.050936799
-0.02611593 -0.059798401 0.050936799
-0.02611593 -0.059798401 0.050936799
-0.02611593 -0.059798401 0.050936799
-0.02611593 -0.059798401 0.050936799
0.021301219 -0.04440289 -0.036702193
0.021275554 -0.041367222 -0.038647462
-0.02611593 -0.059798401 0.050936799
-0.02611593 -0.059798401 0.050936799
-0.02611593 -0.059798401 0.050936799
-0.02611593 -0.059798401 0.050936799
-0.02611593 -0.059798401 0.050936799
-0.02611593 -0.059798401 0.050936799
0.017245788 -0.04433427 -0.039626017
0.01625775 -0.041331187 -0.039553169
-0.02611593 -0.059798401 0.050936799
-0.02611593 -0.059798401 0.050936799
-0.02611593 -0.059798401 0.050936799
-0.02611593 -0.059798401 0.050936799
0.012251539 -0.038299255 -0.040423613
-0.02611593 -0.059798401 0.050936799
-0.02611593 -0.059798401 0.050936799
-0.02611593 -0.059798401 0.050936799
-0.02611593 -0.059798401 0.050936799
-0.02611593 -0.059798401 0.050936799
-0.02611593 -0.059798401 0.050936799
-0.02611593 -0.059798401 0.050936799
-0.02611593 -0.059798401 0.050936799
-0.02611593 -0.059798401 0.050936799
-0.02611593 -0.059798401 0.050936799
0.0071845055 -0.041226532 -0.043382693
-0.02611593 -0.059798401 0.050936799
-0.02611593 -0.059798401 0.050936799
-0.02611593 -0.059798401 0.050936799
-0.02611593 -0.059798401 0.050936799
-0.02611593 -0.059798401 0.050936799
-0.02611593 -0.059798401 0.050936799
-0.02611593 -0.059798401 0.050936799
-0.02611593 -0.059798401 0.050936799
-0.02611593 -0.059798401 0.050936799
-0.02611593 -0.059798401 0.050936799
-0.02611593 -0.059798401 0.050936799
-0.02611593 -0.059798401 0.050936799
-0.02611593 -0.059798401 0.050936799
-0.02611593 -0.059798401 0.050936799
-0.02611593 -0.059798401 0.050936799
-0.02611593 -0.059798401 0.050936799
-0.02611593 -0.059798401 0.050936799
-0.02611593 -0.059798401 0.050936799
-0.02611593 -0.059798401 0.050936799
-0.02611593 -0.059798401 0.050936799
-0.02611593 -0.059798401 0.050936799
-0.02611593 -0.059798401 0.050936799
-0.02611593 -0.059798401 0.050936799
-0.02611593 -0.059798401 0.050936799
-0.02611593 -0.059798401 0.050936799
-0.02611593 -0.059798401 0.050936799
-0.02611593 -0.059798401 0.050936799
-0.02611593 -0.059798401 0.050936799
-0.02611593 -0.059798401 0.050936799
-0.02611593 -0.059798401 0.050936799
-0.02611593 -0.059798401 0.050936799
-0.02611593 -0.059798401 0.050936799
-0.02611593 -0.059798401 0.050936799
-0.02611593 -0.059798401 0.050936799
-0.02611593 -0.059798401 0.050936799
-0.02611593 -0.059798401 0.050936799
-0.02611593 -0.059798401 0.050936799
-0.02611593 -0.059798401 0.050936799
-0.02611593 -0.059798401 0.050936799
-0.02611593 -0.059798401 0.050936799
-0.02611593 -0.059798401 0.050936799
-0.02611593 -0.059798401 0.050936799
-0.02611593 -0.059798401 0.050936799
-0.02611593 -0.059798401 0.050936799
-0.02611593 -0.059798401 0.050936799
-0.02611593 -0.059798401 0.050936799
-0.02611593 -0.059798401 0.050936799
-0.02611593 -0.059798401 0.050936799
-0.02611593 -0.059798401 0.050936799
-0.02611593 -0.059798401 0.050936799
-0.02611593 -0.059798401 0.050936799
-0.02611593 -0.059798401 0.050936799
-0.02611593 -0.059798401 0.050936799
-0.02611593 -0.059798401 0.050936799
-0.02611593 -0.059798401 0.050936799
-0.02611593 -0.059798401 0.050936799
-0.02611593 -0.059798401 0.050936799
-0.02611593 -0.059798401 0.050936799
-0.02611593 -0.059798401 0.050936799
-0.02611593 -0.059798401 0.050936799
-0.02611593 -0.059798401 0.050936799
-0.02611593 -0.059798401 0.050936799
-0.02611593 -0.059798401 0.050936799
-0.02611593 -0.059798401 0.050936799
-0.02611593 -0.059798401 0.050936799
-0.02611593 -0.059798401 0.050936799
-0.02611593 -0.059798401 0.050936799
-0.02611593 -0.059798401 0.050936799
-0.02611593 -0.059798401 0.050936799
-0.02611593 -0.059798401 0.050936799
-0.02611593 -0.059798401 0.050936799
-0.02611593 -0.059798401 0.050936799
-0.02611593 -0.059798401 0.050936799
-0.02611593 -0.059798401 0.050936799
-0.02611593 -0.059798401 0.050936799
-0.02611593 -0.059798401 0.050936799
-0.02611593 -0.059798401 0.050936799
-0.02611593 -0.059798401 0.050936799
-0.02611593 -0.059798401 0.050936799
-0.02611593 -0.059798401 0.050936799
-0.02611593 -0.059798401 0.050936799
-0.02611593 -0.059798401 0.050936799
-0.02611593 -0.059798401 0.050936799
-0.02611593 -0.059798401 0.050936799
-0.02611593 -0.059798401 0.050936799
-0.02611593 -0.059798401 0.050936799
-0.02611593 -0.059798401 0.050936799
-0.02611593 -0.059798401 0.050936799
-0.02611593 -0.059798401 0.050936799
-0.02611593 -0.059798401 0.050936799
-0.02611593 -0.059798401 0.050936799
-0.02611593 -0.059798401 0.050936799
-0.02611593 -0.059798401 0.050936799
-0.02611593 -0.059798401 0.050936799
-0.02611593 -0.059798401 0.050936799
-0.02611593 -0.059798401 0.050936799
-0.02611593 -0.059798401 0.050936799
-0.02611593 -0.059798401 0.050936799
-0.02611593 -0.059798401 0.050936799
-0.02611593 -0.059798401 0.050936799
-0.02611593 -0.059798401 0.050936799
-0.02611593 -0.059798401 0.050936799
-0.02611593 -0.059798401 0.050936799
-0.02611593 -0.059798401 0.050936799
-0.02611593 -0.059798401 0.050936799
-0.02611593 -0.059798401 0.050936799
-0.02611593 -0.059798401 0.050936799
-0.02611593 -0.059798401 0.050936799
-0.02611593 -0.059798401 0.050936799
-0.02611593 -0.059798401 0.050936799
-0.02611593 -0.059798401 0.050936799
-0.02611593 -0.059798401 0.050936799
-0.02611593 -0.059798401 0.050936799
-0.02611593 -0.059798401 0.050936799
-0.02611593 -0.059798401 0.050936799
-0.02611593 -0.059798401 0.050936799
-0.02611593 -0.059798401 0.050936799
-0.02611593 -0.059798401 0.050936799
-0.02611593 -0.059798401 0.050936799
-0.02611593 -0.059798401 0.050936799
-0.02611593 -0.059798401 0.050936799
-0.02611593 -0.059798401 0.050936799
-0.02611593 -0.059798401 0.050936799
-0.02611593 -0.059798401 0.050936799
-0.02611593 -0.059798401 0.050936799
-0.02611593 -0.059798401 0.050936799
-0.02611593 -0.059798401 0.050936799
-0.02611593 -0.059798401 0.050936799
-0.02611593 -0.059798401 0.050936799
-0.02611593 -0.059798401 0.050936799
-0.02611593 -0.059798401 0.050936799
-0.02611593 -0.059798401 0.050936799
-0.02611593 -0.059798401 0.050936799
-0.02611593 -0.059798401 0.050936799
-0.02611593 -0.059798401 0.050936799
-0.02611593 -0.059798401 0.050936799
-0.02611593 -0.059798401 0.050936799
-0.02611593 -0.059798401 0.050936799
-0.02611593 -0.059798401 0.050936799
-0.02611593 -0.059798401 0.050936799
-0.02611593 -0.059798401 0.050936799
-0.02611593 -0.059798401 0.050936799
-0.074673355 -0.042058695 -0.034862265
-0.02611593 -0.059798401 0.050936799
-0.02611593 -0.059798401 0.050936799
-0.02611593 -0.059798401 0.050936799
-0.02611593 -0.059798401 0.050936799
-0.02611593 -0.059798401 0.050936799
-0.02611593 -0.059798401 0.050936799
-0.070658378 -0.03807373 -0.034865353
-0.078635186 -0.042080518 -0.032787785
-0.079720758 -0.039986823 -0.03773126
-0.02611593 -0.059798401 0.050936799
-0.02611593 -0.059798401 0.050936799
-0.02611593 -0.059798401 0.050936799
-0.02611593 -0.059798401 0.050936799
-0.02611593 -0.059798401 0.050936799
-0.075657465 -0.038055785 -0.034771401
-0.085648693 -0.041037474 -0.033637889
-0.084697187 -0.038987141 -0.03661963
-0.02611593 -0.059798401 0.050936799
-0.02611593 -0.059798401 0.050936799
-0.02611593 -0.059798401 0.050936799
-0.02611593 -0.059798401 0.050936799
-0.081604131 -0.039088354 -0.031677689
-0.078585953 -0.039117206 -0.030734397
-0.091647595 -0.041015942 -0.033525147
-0.088659011 -0.03900896 -0.034545142
-0.02611593 -0.059798401 0.050936799
-0.02611593 -0.059798401 0.050936799
-0.02611593 -0.059798401 0.050936799
-0.02611593 -0.059798401 0.050936799
-0.086584494 -0.039088495 -0.030584071
-0.083599836 -0.03808134 -0.031622089
-0.096624032 -0.040016256 -0.03241352
-0.092602119 -0.039048873 -0.031470995
-0.02611593 -0.059798401 0.050936799
-0.02611593 -0.059798401 0.050936799
-0.02611593 -0.059798401 0.050936799
-0.02611593 -0.059798401 0.050936799
-0.094635263 -0.038005687 -0.033414721
-0.09061335 -0.0370383 -0.032472204
-0.10056713 -0.040056165 -0.029339373
-0.10267125 -0.0379408 -0.035263713
-0.02611593 -0.059798401 0.050936799
-0.02611593 -0.059798401 0.050936799
-0.02611593 -0.059798401 0.050936799
-0.02611593 -0.059798401 0.050936799
-0.10163006 -0.036980733 -0.033265166
-0.094579101 -0.038059954 -0.030415729
-0.10958029 -0.03900595 -0.030151889
-0.10862878 -0.03695561 -0.033133633
-0.02611593 -0.059798401 0.050936799
-0.02611593 -0.059798401 0.050936799
-0.02611593 -0.059798401 0.050936799
-0.02611593 -0.059798401 0.050936799
-0.10659171 -0.036998965 -0.031171888
-0.1015739 -0.037035 -0.030266173
-0.12164118 -0.035891037 -0.033870995
-0.11866046 -0.035883717 -0.034927029
-0.02611593 -0.059798401 0.050936799
-0.02611593 -0.059798401 0.050936799
-0.02611593 -0.059798401 0.050936799
-0.02611593 -0.059798401 0.050936799
-0.1105348 -0.037038878 -0.028097741
-0.10960595 -0.035970286 -0.032097165
-0.13265397 -0.034833644 -0.034645945
-0.12461799 -0.034898531 -0.032796949
-0.02611593 -0.059798401 0.050936799
-0.02611593 -0.059798401 0.050936799
-0.02611593 -0.059798401 0.050936799
-0.02611593 -0.059798401 0.050936799
-0.12158109 -0.034945473 -0.030853994
-0.1155674 -0.03598493 -0.029985089
-0.1365557 -0.033909898 -0.029554453
-0.13563079 -0.033841133 -0.033571895
-0.02611593 -0.059798401 0.050936799
-0.02611593 -0.059798401 0.050936799
-0.02611593 -0.059798401 0.050936799
-0.02611593 -0.059798401 0.050936799
-0.12347233 -0.036046661 -0.024836466
-0.12863207 -0.033866253 -0.033703428
-0.14551269 -0.032913949 -0.027367998
-0.14055105 -0.032895714 -0.029461272
-0.02611593 -0.059798401 0.050936799
-0.02611593 -0.059798401 0.050936799
-0.02611593 -0.059798401 0.050936799
-0.02611593 -0.059798401 0.050936799
-0.13753286 -0.03292457 -0.028517991
-0.1315379 -0.033945933 -0.028648753
-0.15750264 -0.03087122 -0.027106475
-0.15254492 -0.031852815 -0.029217765
-0.02611593 -0.059798401 0.050936799
-0.02611593 -0.059798401 0.050936799
-0.02611593 -0.059798401 0.050936799
-0.02611593 -0.059798401 0.050936799
-0.14850821 -0.031903353 -0.027293608
-0.13949504 -0.032953568 -0.026481085
-0.17149222 -0.028821316 -0.026807372
-0.16653058 -0.028803084 -0.028900642
-0.02611593 -0.059798401 0.050936799
-0.02611593 -0.059798401 0.050936799
-0.02611593 -0.059798401 0.050936799
-0.02611593 -0.059798401 0.050936799
-0.15948354 -0.030882129 -0.026069235
-0.14745615 -0.032961037 -0.024331439
-0.19049567 -0.025735546 -0.02739596
-0.18555278 -0.025699224 -0.030488897
-0.02611593 -0.059798401 0.050936799
-0.02611593 -0.059798401 0.050936799
-0.02611593 -0.059798401 0.050936799
-0.02611593 -0.059798401 0.050936799
-0.17347312 -0.028832229 -0.025770131
-0.16146445 -0.030893039 -0.025031995
-0.22154133 -0.019552957 -0.030703992
-0.20857029 -0.021581182 -0.03198396
-0.02611593 -0.059798401 0.050936799
-0.02611593 -0.059798401 0.050936799
-0.02611593 -0.059798401 0.050936799
-0.02611593 -0.059798401 0.050936799
-0.19549082 -0.024717771 -0.027283993
-0.18049057 -0.028789017 -0.026638258
-0.24752085 -0.015460324 -0.030143358
-0.23357265 -0.018473877 -0.032459803
-0.02611593 -0.059798401 0.050936799
-0.02611593 -0.059798401 0.050936799
-0.02611593 -0.059798401 0.050936799
-0.02611593 -0.059798401 0.050936799
-0.21949339 -0.02161406 -0.027778614
-0.2025122 -0.025674392 -0.028170127
-0.26239398 -0.012515532 -0.023809478
-0.25751513 -0.014424603 -0.029937439
-0.02611593 -0.059798401 0.050936799
-0.02611593 -0.059798401 0.050936799
-0.02611593 -0.059798401 0.050936799
-0.02611593 -0.059798401 0.050936799
-0.24647273 -0.017517839 -0.027199194
-0.22952901 -0.021541994 -0.02959004
-0.97941762 0.12958735 -0.20487577
-0.96493465 0.12300503 -0.23127492
-0.02611593 -0.059798401 0.050936799
-0.02611593 -0.059798401 0.050936799
-0.99203682 0.13027208 -0.18462022
-0.98057199 0.1237186 -0.2119627
-0.96910715 0.11716513 -0.23930514
-0.25447518 -0.018488955 -0.02706689
-1.0056521 0.1319602 -0.16432792
-0.98917323 0.12437084 -0.1907827
-0.96968031 0.11575283 -0.21631217
-0.02611593 -0.059798401 0.050936799
-1.020263 0.13465174 -0.14399877
-1.0017924 0.12505555 -0.17052716
-0.98532164 0.11546656 -0.19701797
-0.96084148 0.1038311 -0.2226955
-1.0228318 0.13424647 -0.12095021
-1.0113975 0.12471158 -0.14934638
-0.99392682 0.11511899 -0.17585596
-0.97647882 0.10454468 -0.20338327
-1.019387 0.13280171 -0.097032726
-1.0189801 0.12534218 -0.12718549
-0.9995178 0.11374274 -0.15376872
-0.99613816 0.10429085 -0.18501353
-1.0399969 0.13551478 -0.076590843
-1.0295811 0.12600161 -0.1059679
-1.0081229 0.11339517 -0.1326067
-0.99871093 0.10288573 -0.16198298
-1.0565886 0.13819544 -0.055224456
-1.0371677 0.12563235 -0.083825029
-1.0247415 0.11409422 -0.11227603
-1.0023062 0.10050247 -0.13995132
-1.0791718 0.14289725 -0.033709303
-1.0627728 0.12936321 -0.063271172
-1.0363234 0.11473917 -0.090039991
-1.030956 0.1022806 -0.12137647
-1.0877168 0.14349525 -0.0095303059
-1.0873632 0.13207255 -0.041754469
-1.0559413 0.115449 -0.069652945
-1.0385466 0.10091154 -0.09925162
-1.0992761 0.14512193 0.013723422
-1.0949085 0.13266696 -0.017594263
-1.0715187 0.11710814 -0.047323704
-1.0461183 0.099524364 -0.076127104
-1.115808 0.14874811 0.038106799
-1.1194576 0.13633995 0.0059397817
-1.0910805 0.11776368 -0.023937665
-1.0647177 0.10021252 -0.054759189
-1.1143588 0.14831038 0.062079877
-1.1139984 0.13387011 0.030801315
-1.0946304 0.1173439 0.00012935698
-1.0852795 0.10087166 -0.031354353
-1.1288948 0.15092959 0.086407661
-1.1315337 0.13650008 0.055185467
-1.1101742 0.11796701 0.024439886
-1.0928513 0.099484503 -0.0082298517
-1.1424125 0.15352707 0.1117163
-1.1500694 0.1391336 0.079588406
-1.1297133 0.11960431 0.048843607
-1.1063806 0.099082522 0.017024752
-1.1589109 0.15611726 0.13808098
-1.1515821 0.13867047 0.10561717
-1.1512296 0.12223054 0.074302584
-1.1209247 0.099702038 0.041316494
-1.186358 0.16171025 0.16670576
-1.1560944 0.1382181 0.13170232
-1.1467701 0.11976428 0.099182911
-1.1424485 0.1003286 0.066739433
-1.180872 0.16122198 0.19260298
-1.1795689 0.14181514 0.15921621
-1.1652533 0.12134375 0.12656681
-1.1459838 0.098890893 0.091788098
-1.2102813 0.16678594 0.22326463
-1.1960297 0.14436917 0.18758023
-1.1797411 0.121909 0.15385754
-0.02611593 -0.059798401 0.050936799
-0.02611593 -0.059798401 0.050936799
-1.2045 0.14489478 0.21575788
-1.1962057 0.12346317 0.18220353
-1.2049047 0.10309239 0.14898664
-1.2680212 0.17883779 0.28858584
-1.2239188 0.14842322 0.24619558
-1.2036761 0.12398521 0.21036237
-0.02611593 -0.059798401 0.050936799
-1.286399 0.1833263 0.32102209
-0.02611593 -0.059798401 0.050936799
-1.2181078 0.12449621 0.24065208
-1.1958921 0.098069467 0.20374562
-0.02611593 -0.059798401 0.050936799
-1.2686582 0.15641099 0.31220007
-1.2365122 0.12700312 0.27205265
-0.02611593 -0.059798401 0.050936799
-0.02611593 -0.059798401 0.050936799
-1.3019543 0.16188079 0.34893489
-0.02611593 -0.059798401 0.050936799
-1.2536447 0.10210458 0.26992232
-1.3374058 0.19565096 0.42523536
-1.3182842 0.16430816 0.38429654
-1.3031164 0.13494323 0.34546816
-0.02611593 -0.059798401 0.050936799
-3.0966341 0.54221547 1.0026375
-1.3365909 0.16772449 0.42071337
-1.2856257 0.13139434 0.37208554
-0.02611593 -0.059798401 0.050936799
-3.1091254 0.54783547 1.082
-3.1050084 0.47536415 0.99558258
-1.3666048 0.14376387 0.42484331
-0.02611593 -0.059798401 0.050936799
-3.1722302 0.56331122 1.1804948
-3.0996158 0.47601086 1.0695184
-3.1073766 0.40547365 0.98936063
-1.3319851 0.10586178 0.41150501
-3.2302804 0.57871479 1.2818947
-3.1676571 0.48843271 1.1720519
-3.0999737 0.40409544 1.0642225
-3.1117682 0.32959139 0.98306805
-3.2941945 0.59501308 1.3904229
-3.2346199 0.50177836 1.278583
-3.1530972 0.41051874 1.1633668
-3.0983777 0.32519215 1.0577631
-3.3798184 0.617136 1.5134679
-3.3054693 0.51502997 1.3911874
-3.2389104 0.42278817 1.2782345
-3.1683714 0.33055001 1.1642066
-3.4524567 0.63621289 1.6362146
-3.3880947 0.53212494 1.5150856
-3.297838 0.43105173 1.3875242
-3.2412667 0.33682799 1.2757227
-3.505167 0.65227264 1.7555324
-3.4676499 0.54813695 1.6429081
-3.3824453 0.44311851 1.5133692
-3.311069 0.34300485 1.3921808
-3.4400263 0.64390457 1.8171823
-4.0106101 0.64678025 2.0039806
-3.474875 0.45705095 1.6483976
-3.3877387 0.34908012 1.5157682
-3.4134693 0.64431304 1.8997204
-3.9837575 0.64589953 2.1024952
-5.014276 0.68774331 2.502682
-3.4781511 0.35797 1.6526681
-3.4264574 0.65346575 2.0051649
-3.9638059 0.6459533 2.2061577
-4.9799089 0.68433136 2.6290193
-4.7907648 0.5136624 2.4013138
-3.3247633 0.63836402 2.0440009
-3.49193 0.56488544 2.0508039
-4.6051483 0.62891382 2.5699806
-4.6524901 0.49485305 2.4714084
-3.2665725 0.63298428 2.1078358
-3.8852329 0.6402114 2.3966472
-3.4475384 0.45490548 2.0389793
-4.5825911 0.48372927 2.5739334
-3.1284406 0.61025757 2.117842
-3.8227472 0.63352811 2.4763837
-4.6334596 0.63558894 2.8717334
-3.4308426 0.34473658 2.0436754
-3.1946378 0.63189632 2.2635221
-3.1285112 0.51096696 2.1330523
-4.5220852 0.6218034 2.9464245
-3.49702 0.35230529 2.1931021
-2.5972009 0.50850254 1.9319921
-3.7737436 0.63551259 2.6885738
-4.4057713 0.60705429 3.0180039
-3.3744044 0.33720052 2.2275448
-2.9344678 0.5906083 2.2779093
-3.711179 0.62975675 2.7723269
-2.6254106 0.33815312 1.9004281
-3.4462807 0.34450141 2.3930786
-3.0497248 0.62457401 2.4717472
-2.7875934 0.46263304 2.1878135
-2.6266568 0.33948112 1.9935069
-2.630239 0.24767986 1.9268909
-2.9994087 0.622114 2.541784
-4.0025501 0.69986969 3.2742205
-2.6317787 0.34371436 2.0927131
-4.1612978 0.42912215 3.1812634
-2.9687693 0.62443554 2.6282818
-3.8895319 0.68642068 3.32988
-2.6112242 0.34314463 2.1753459
-4.0569329 0.41737941 3.2551222
-1.8859129 0.37892523 1.7522699
-2.3353782 0.3913905 2.1020291
-2.5394783 0.33513129 2.2158713
-3.9436858 0.40471315 3.3227956
-1.8334365 0.37325102 1.7781936
-1.8640617 0.30371428 1.7585025
-1.8976557 0.23716971 1.7399215
-2.3709538 0.21945488 2.1045859
-1.8623832 0.38744211 1.8850285
-1.8174493 0.29893485 1.7915546
-1.8441234 0.2314377 1.7688252
-1.8776957 0.16085762 1.7521714
-2.026505 0.43555367 2.1370571
-1.9404918 0.32971281 1.9974847
-1.8681026 0.23761222 1.875422
-1.8270466 0.15602763 1.7871476
-2.2284079 0.49568152 2.4520316
-2.1318486 0.37518355 2.2909894
-2.0400422 0.26952007 2.1403081
-1.9481111 0.17176476 1.9947693
-2.6245644 0.60717279 3.0116551
-3.2909358 0.6256299 3.6866941
-2.2488015 0.30845952 2.4670317
-2.1502223 0.19797072 2.3051329
-2.5585356 0.6039269 3.0663786
-3.2056563 0.62006301 3.7550199
-3.285954 0.48817348 3.765141
-3.3301296 0.34494936 3.7303655
-2.4954317 0.60061938 3.1251574
-3.1262221 0.6153726 3.8314738
-3.1868386 0.47970146 3.8251524
-3.2299397 0.33640137 3.7943566
-2.4303837 0.59735894 3.1808994
-3.0321391 0.60795456 3.8895977
-3.0897043 0.47121853 3.8862009
-3.1316888 0.32880607 3.8614025
-2.3701813 0.5949716 3.2447507
-2.9390376 0.60052186 3.9487402
-2.9994073 0.46561548 3.9554324
-3.0324759 0.32124344 3.9264305
-2.3080132 0.59361303 3.3065832
-2.857641 0.5958606 4.0231571
-2.9022682 0.45813239 4.016499
-2.9342818 0.31370243 3.9904771
-2.2477694 0.59218937 3.3724518
-2.7664936 0.59039861 4.0843725
-2.8031869 0.45069635 4.0745292
-2.8370082 0.30709252 4.0585594
-2.1884844 0.5917328 3.4403565
-2.673388 0.58396584 4.1435332
-2.7089689 0.44415137 4.1396685
-2.7417157 0.30047166 4.1276789
-2.1145735 0.58756691 3.4889138
-2.5832179 0.57948923 4.2057848
-2.6138411 0.43869326 4.1998096
-2.6347439 0.2941153 4.1795788
-2.0445602 0.58532459 3.5425806
-2.4939914 0.5749619 4.2710547
-2.5176985 0.4322136 4.2609124
-2.5433679 0.28943613 4.2528081
-1.9754906 0.58303154 3.5992651
-2.3979425 0.56857264 4.3271594
-2.4263937 0.4286066 4.3301616
-2.4402454 0.28294939 4.3127804
-1.8958133 0.57706147 3.6356776
-2.3077309 0.56505972 4.3914285
-2.3263264 0.42218485 4.3871913
-2.3410809 0.27744064 4.374845
-1.8324313 0.57749999 3.7085238
-2.2136402 0.5596413 4.4495888
-2.2291579 0.41768315 4.4493117
-2.2427435 0.27277252 4.4459438
-1.7661248 0.57800019 3.7773144
-2.1175461 0.55521554 4.5077295
-2.1367784 0.41400021 4.5225401
-2.1405942 0.26827097 4.5069699
-1.6777378 0.57026947 3.7985272
-2.0223727 0.55172086 4.5699058
-2.0366659 0.40954196 4.581605
-2.0393512 0.26368254 4.5730143
-1.6122961 0.57164645 3.8743522
-1.9262787 0.54729497 4.628046
-1.9355352 0.40506208 4.6416512
-1.9400289 0.26002875 4.6431122
-0.98082864 0.33787537 2.5008354
-0.97341031 0.25711364 2.4852304
-0.97078431 0.18118815 2.4798059
-0.96816206 0.10426284 2.4743636
-0.89613199 0.32074553 2.4339173
-0.8894918 0.24378778 2.4293993
-0.88491446 0.16990903 2.4209743
-0.87931854 0.096008629 2.4135301
-0.81912261 0.30635452 2.3831978
-0.81060606 0.23151587 2.3716807
-0.80115277 0.15974545 2.3562002
-0.79635763 0.088667236 2.3588257
-0.74334162 0.29118434 2.3204834
-0.73466343 0.21920046 2.3170176
-0.72514224 0.15037526 2.3045902
-0.71458381 0.081510328 2.2941432
-0.67717248 0.27868775 2.2780039
-0.66271627 0.20789924 2.2624476
-0.65310842 0.14200117 2.2540729
-0.6405986 0.075182989 2.2406254
-0.61019087 0.26636845 2.2255094
-0.59757268 0.19844188 2.2180419
-0.58596128 0.13353649 2.2096474
-0.57334602 0.06962733 2.2012525
-0.54903579 0.25490773 2.1821425
-0.53442883 0.18899173 2.1736736
-0.5218845 0.12615477 2.1612978
-0.50826168 0.064241663 2.15292
-0.49174094 0.24533437 2.145884
-0.47622377 0.18050505 2.1324165
-0.46067229 0.11965699 2.1200204
-0.44613534 0.059830423 2.1066616
-0.43740809 0.23573561 2.1116817
-0.41990221 0.17291689 2.0972128
-0.40436158 0.11408657 2.0838532
-0.38870853 0.055147707 2.0764914
-0.38415 0.22621281 2.0734994
-0.36563644 0.16539013 2.0590477
-0.34993812 0.10841476 2.0537214
-0.3333149 0.051508166 2.0443776
-0.33377507 0.21759211 2.0413895
-0.31417897 0.15869309 2.0309536
-0.29660815 0.10283702 2.01861
-0.28161708 0.048593394 2.0283513
-0.28528351 0.20986977 2.0153329
-0.26906398 0.15640533 2.0370696
-0.25391525 0.10401666 2.0548444
-0.23854575 0.050411072 2.0845971
-0.24645098 0.21293683 2.0586762
-0.22817959 0.15841109 2.0833559
-0.21261498 0.10662426 2.1231415
-0.19338122 0.052131135 2.145803
-0.20732972 0.21773219 2.1170502
-0.18790874 0.1630581 2.1497087
-0.16838625 0.1102933 2.1874015
-0.14706317 0.05470271 2.2150059
-0.1670175 0.22334287 2.18542
-0.1426388 0.16768722 2.2159672
-0.31768861 0.47005802 6.7872634
-0.25822282 0.32326895 7.3716936
-0.22357765 0.52908617 4.5458102
-0.19500911 0.4989824 5.4330311
-0.15959401 0.46840924 6.8442931
-0.079416767 0.30551451 7.096931
-0.12540928 0.52353632 4.5548744
-0.072903946 0.49846265 5.4907551
-0.00053040683 0.46273088 6.8472133
0.088713571 0.28849176 6.8393884
-0.02570112 0.52147567 4.5919828
0.070905142 0.64077032 6.9421282
0.15484637 0.4476088 6.7089844
0.24321002 0.2731753 6.6011376
0.073988296 0.5194332 4.6280918
0.17642829 0.49423429 5.5600338
0.30107766 0.42760175 6.5108171
0.38814682 0.25947833 6.3861032
0.1751374 0.51389074 4.6361008
0.30142319 0.48875037 5.5595942
0.4391419 0.40778622 6.3038034
0.52326173 0.24765405 6.1802902
0.27792382 0.51274681 4.6771688
0.42886019 0.48584273 5.5821633
0.56538475 0.3898505 6.1060486
0.65045696 0.23678604 5.9786439
0.38605809 0.51425886 4.7361922
0.58293396 0.50647372 5.8467417
0.6878382 0.3727302 5.9193826
0.76880366 0.22580558 5.7851639
0.49376869 0.51316941 4.7731681
0.70876288 0.49608707 5.7851768
0.8026005 0.35734868 5.748898
-0.02611593 -0.059798401 0.050936799
0.59869242 0.50782955 4.7691059
0.82899666 0.48227987 5.6926446
-0.02611593 -0.059798401 0.050936799
0.99356741 0.20787747 5.4545193
-0.02611593 -0.059798401 0.050936799
-0.02611593 -0.059798401 0.050936799
1.0174578 0.32933155 5.4252591
0.26360375 0.0066916309 1.4041739
0.1757663 0.073943891 1.1879617
1.0374269 0.44671011 5.401
0.26862702 0.03675903 1.3996222
0.29544812 0.0067214984 1.3955753
-0.02611593 -0.059798401 0.050936799
0.27486002 0.06762369 1.4060659
1.2067102 0.30504528 5.1221733
1.2840376 0.18789482 5.0015655
0.27916831 0.098423168 1.4165461
1.2187953 0.41330945 5.1058998
1.2971371 0.29513747 4.9862552
1.3744618 0.18200441 4.8647199
-0.02611593 -0.059798401 0.050936799
1.3073753 0.39924666 4.9789443
1.3805282 0.28529096 4.8484693
1.4600402 0.17698711 4.7359829
1.2992452 0.49976486 4.9529061
1.3888217 0.38433591 4.8451042
1.4662408 0.2761296 4.7276578
1.5426943 0.17190818 4.6113019
1.3841554 0.48339123 4.8439832
1.4714632 0.37124029 4.7212782
1.5479355 0.26700073 4.6059217
-0.02611593 -0.059798401 0.050936799
1.4596435 0.46444836 4.7131824
1.5482219 0.35905749 4.603581
-0.02611593 -0.059798401 0.050936799
