# .PCD v0.7 - Point Cloud Data file format
VERSION 0.7
FIELDS x y z
SIZE 4 4 4
TYPE F F F
COUNT 1 1 1
WIDTH 1414
HEIGHT 1
VIEWPOINT 0 0 0 1 0 0 0
POINTS 1414
DATA ascii
-1.4771158 0.59461135 2.0156069
-1.579101 0.59397757 2.0175054
-1.6898403 0.59815812 2.0316594
-1.8113569 0.60116136 2.0579977
-1.4276567 0.59398323 2.0396779
-1.5315478 0.59326625 2.0466123
-1.6440996 0.59727305 2.0708001
-1.7694618 0.6011458 2.1052291
-1.3752956 0.592435 2.0586758
-1.483995 0.59255487 2.0757189
-1.6003734 0.59741312 2.1089969
-1.7236501 0.59918851 2.1483505
-1.3258927 0.59186119 2.0797477
-1.434442 0.59183633 2.1047883
-1.547833 0.59368438 2.1379557
-1.6759138 0.59729648 2.1874359
-1.2745461 0.59133446 2.0977826
-1.3820475 0.58925205 2.1257672
-1.5001863 0.59288257 2.1720607
-1.6291209 0.59535372 2.2295389
-1.2222639 0.58885872 2.1127644
-1.3325697 0.58860588 2.1508377
-1.4515586 0.59209526 2.2051473
-1.5823244 0.59441078 2.2716599
-1.1729132 0.58933902 2.1308553
-1.2840503 0.58892697 2.1779447
-1.4000328 0.58938795 2.2331431
-1.5335695 0.59249699 2.3117261
-1.1255062 0.58977222 2.1519825
-1.2326744 0.58636445 2.197943
-1.3514011 0.58960056 2.2662475
-1.4838295 0.59159762 2.3507917
-1.0703969 0.58644873 2.1578927
-1.1803133 0.58481622 2.2169409
-1.2969545 0.58595502 2.2901702
-1.4292333 0.58780742 2.3827119
-1.0201479 0.58501625 2.1709301
-1.1298691 0.58520246 2.2400112
-1.2415419 0.58334196 2.3120933
-1.3668897 0.58222401 2.4014499
-0.97083068 0.58653247 2.1870399
-1.0756288 0.58175594 2.252938
-1.1929063 0.58455426 2.3452156
-1.3142066 0.58136809 2.4374602
-0.91771728 0.584216 2.1930053
-1.0261618 0.5831275 2.2770448
-1.1413914 0.58386475 2.3722479
-1.2672857 0.58331603 2.4856334
-0.86754304 0.58285582 2.2020445
-0.97577387 0.58356798 2.2971163
-1.0831369 0.57938594 2.3860807
-1.212659 0.58250719 2.5186071
-0.818286 0.58342659 2.2151372
-0.92351037 0.58111036 2.3110979
-1.0306783 0.57874709 2.4100952
-1.1513342 0.57694548 2.5363641
-0.77007014 0.58303726 2.2262311
-0.87028062 0.57968515 2.3230796
-0.97908062 0.5799849 2.4411619
-1.0928847 0.57428545 2.56023
-0.71897095 0.5817458 2.2312529
-0.81705087 0.57825994 2.3350613
-0.92370147 0.57840776 2.4611034
-1.0067279 0.55470014 2.5182486
-0.66883034 0.58142161 2.2383106
-0.76569664 0.57973284 2.3531327
-0.84556901 0.56188691 2.4173269
-0.91981882 0.53434658 2.4632344
-0.61778748 0.58018458 2.2403331
-0.70026135 0.56798643 2.3246853
-0.76861674 0.54253286 2.3645184
-0.83404839 0.51212364 2.4012053
-0.56406426 0.57422692 2.2262151
-0.63224334 0.55061018 2.2750807
-0.6937241 0.52224052 2.3087299
-0.75517529 0.491835 2.3443427
-0.50393951 0.55978835 2.1818128
-0.56443912 0.53143317 2.2144437
-0.62286431 0.50299853 2.2510357
-0.68307918 0.47537184 2.2986794
-0.44785526 0.54440045 2.135469
-0.50425816 0.51694036 2.1730409
-0.55876285 0.48756385 2.2055411
-0.61027986 0.45517707 2.2379305
-0.39360517 0.53287441 2.0972316
-0.44705394 0.50344002 2.1327119
-0.49474019 0.47120169 2.1560295
-0.54325783 0.43880427 2.1883628
-0.34321547 0.5232358 2.0661035
-0.39188677 0.48998311 2.0904214
-0.43743452 0.45961073 2.1207349
-0.48191541 0.42716262 2.1549923
-0.29392314 0.51269132 2.0299776
-0.33947873 0.48031923 2.0602551
-0.3812075 0.44709569 2.0814424
-0.42088827 0.41181111 2.1055555
-0.2524538 0.51910883 2.0533249
-0.28912646 0.47071671 2.0271273
-0.32878068 0.43741369 2.0522759
-0.36556351 0.4002091 2.0712981
-0.21516487 0.53780049 2.1179869
-0.24842441 0.47892043 2.0625257
-0.27921441 0.42961547 2.0301995
-0.31131345 0.38868302 2.033061
-0.17405695 0.55364108 2.1735225
-0.21014351 0.49560881 2.1271329
-0.24012184 0.44146392 2.0857005
-0.26599947 0.3892138 2.0492277
-0.13202411 0.5695504 2.2250412
-0.16782589 0.51224667 2.1936641
-0.197951 0.454229 2.1451621
-0.22387391 0.40001547 2.1066537
-0.084912516 0.57127285 2.2301917
-0.12689695 0.55142593 2.3416564
-0.15355888 0.47078732 2.2156544
-0.17957237 0.41264683 2.1730752
-0.037213922 0.56837237 2.2142408
-0.076012522 0.56343025 2.385936
-0.11543646 0.55812985 2.5776434
-0.14599279 0.49655563 2.5600955
0.0086239502 0.56735224 2.2053611
-0.023198579 0.56140316 2.3759072
-0.057451017 0.5569219 2.5765355
-0.092912816 0.55268794 2.819205
0.053600926 0.56820858 2.2035339
0.026694739 0.56031436 2.3699512
0.00057974458 0.55767739 2.5774629
-0.027677387 0.55321926 2.830997
0.099401355 0.56722456 2.1926548
0.078629062 0.56018192 2.3659751
0.057449125 0.55558175 2.5703578
0.0362656 0.55102611 2.8277593
0.14426206 0.56718969 2.1848116
0.12962365 0.56099874 2.3650348
0.11539713 0.55440992 2.5672505
0.10326814 0.54976779 2.827482
0.18900257 0.56526369 2.1709347
0.18035914 0.55805147 2.351027
0.17236799 0.55422342 2.5651801
0.16911715 0.54765785 2.8192081
-0.02611593 -0.059798401 0.050936799
0.23133895 0.5598861 2.3491049
0.23132367 0.55504769 2.5620899
0.23501146 0.54751146 2.8129697
0.13840204 0.27720857 1.1833365
-0.02611593 -0.059798401 0.050936799
0.28902435 0.5531112 2.5459692
0.30093929 0.54632902 2.8087125
0.32459238 0.56715512 2.1474223
0.17636049 0.29027644 1.3379147
-0.02611593 -0.059798401 0.050936799
-0.02611593 -0.059798401 0.050936799
0.36610094 0.56345731 2.1215694
0.21762997 0.30897176 1.4015018
0.40265861 0.55102801 2.5257969
0.43143547 0.54331154 2.7812054
0.27195665 0.36670429 1.4605489
0.25970417 0.32584476 1.4550372
0.24732068 0.28511184 1.442528
0.4974086 0.5440926 2.7789836
0.45483035 0.56539083 2.1059377
0.4812367 0.55799866 2.2883713
0.28137851 0.28693524 1.4449242
0.27403542 0.24714804 1.4343385
0.49548194 0.56456941 2.0871553
0.52888298 0.55615234 2.2694397
0.31651884 0.29068232 1.4513363
0.62575531 0.54122716 2.7435167
0.54031307 0.5665704 2.0773489
0.57755584 0.55628395 2.2515247
0.35146409 0.29261065 1.4477155
0.6936571 0.54307318 2.7372766
0.58090049 0.56380361 2.0555315
0.62626207 0.55537963 2.2355909
0.38542438 0.29352462 1.4450954
0.75836444 0.54311121 2.7210603
0.62043607 0.56209457 2.0307522
0.67289382 0.55455482 2.2156961
0.41509277 0.29172477 1.4275014
0.81989586 0.54132324 2.6958673
0.661129 0.56223685 2.0139871
0.72060812 0.55565375 2.1998174
0.44691843 0.29177275 1.4179032
0.88349098 0.54147339 2.673672
0.70284045 0.56235749 1.998203
0.76617998 0.55388689 2.1769245
0.47031397 0.28724825 1.3863727
0.94296664 0.53974676 2.6455178
-0.02611593 -0.059798401 0.050936799
-0.02611593 -0.059798401 0.050936799
-0.02611593 -0.059798401 0.050936799
-0.02611593 -0.059798401 0.050936799
0.39478689 0.26370552 1.0442449
0.40512142 0.23925768 1.0666168
0.95347893 0.55000663 2.3514066
0.51367855 0.23647036 1.3086158
0.54226106 0.35724077 1.316268
0.5252468 0.3040852 1.2726102
0.54483396 0.27735206 1.3087721
1.1296442 0.54132009 2.5730264
-0.02611593 -0.059798401 0.050936799
0.95485032 0.55847055 2.1034501
1.0596207 0.55143648 2.3044295
1.1869705 0.53974527 2.5369124
0.90722704 0.567155 1.909433
0.99729156 0.55684125 2.0736158
1.1059037 0.54793781 2.2664866
1.2443943 0.53908002 2.5058146
0.94170332 0.56451833 1.8817304
1.0376959 0.55525506 2.0418198
1.1533105 0.54732651 2.2345772
1.3038442 0.54038906 2.4757149
0.97818708 0.56387413 1.8540262
1.0801972 0.55457127 2.0150027
1.2017171 0.54671156 2.2026491
1.3601747 0.53981781 2.4396379
1.0137047 0.56219745 1.8283223
1.1237211 0.55486554 1.9891844
1.252225 0.54799873 2.1757176
1.4175462 0.54020661 2.4055591
1.052327 0.5634191 1.8076142
1.1641667 0.55424321 1.9594058
1.3006544 0.54836553 2.1448071
1.4749217 0.54159522 2.3714983
1.0888522 0.56373852 1.7819275
1.2056348 0.55459899 1.9306262
1.3490462 0.54876852 2.111897
1.5261219 0.54116851 2.3285177
1.1222763 0.56215954 1.7512627
1.248144 0.55591476 1.903845
1.3954198 0.54919678 2.0780251
1.5732251 0.53984678 2.2805953
1.1598614 0.56342095 1.7285742
1.2844554 0.55443358 1.8671257
1.4376966 0.54872996 2.0392118
1.6244442 0.53940195 2.2386143
1.1892264 0.56091064 1.6949676
1.3280059 0.55670941 1.8423431
1.4820104 0.5482198 2.0023606
1.6705331 0.53910172 2.1897295
1.231916 0.56506318 1.6772374
1.3674369 0.55710852 1.8116018
1.5273693 0.54966962 1.9675257
1.7269125 0.54149377 2.1557055
1.2664227 0.56540793 1.6505885
1.4048121 0.55756909 1.7778988
1.5696499 0.55020267 1.9287306
1.7730051 0.54219335 2.1068387
1.298851 0.56483233 1.6199605
1.4442245 0.55798632 1.7461578
1.6129305 0.55073214 1.8899168
1.820154 0.54283512 2.0609519
1.3323246 0.56621665 1.5913492
1.4795625 0.55849022 1.7104932
1.6542153 0.55226862 1.8511585
1.8662841 0.54349852 2.0140843
1.3667939 0.56659746 1.5627011
1.5149194 0.55897599 1.6758282
1.700578 0.55471468 1.8163227
1.9154778 0.54609656 1.9701955
1.3972079 0.567047 1.5311291
1.5543169 0.56041116 1.6431055
1.7387657 0.55535245 1.7726046
1.951396 0.54499525 1.9124835
1.4296589 0.56745315 1.5015187
1.5866141 0.55996221 1.6054798
1.7647527 0.55221498 1.719043
1.9945118 0.54668725 1.8646908
1.4610726 0.56789905 1.4699279
1.6209377 0.56148756 1.5688524
1.8111194 0.55566084 1.6842254
2.0314898 0.54652792 1.8099769
1.4894454 0.56739211 1.4363762
1.6572796 0.5629878 1.5331872
1.8483114 0.55730206 1.6405441
2.0786316 0.55018717 1.7631446
1.5228854 0.56981248 1.4057835
1.687521 0.5626002 1.4926002
1.8865219 0.55892169 1.5978434
2.1156137 0.5510276 1.708449
1.5542991 0.57025838 1.3741928
1.7187849 0.56319082 1.453012
1.9237176 0.56156278 1.55418
2.1536372 0.55282813 1.6557517
1.5775754 0.56885993 1.3357188
1.7490491 0.56378508 1.4134427
1.9558316 0.56229454 1.5065758
2.1926827 0.55560678 1.6040534
1.606956 0.57034898 1.3021841
1.7772574 0.56444067 1.3709121
1.988968 0.56400448 1.4599705
2.2205541 0.55658805 1.5435288
1.6342956 0.57088161 1.2666699
1.8054844 0.56507826 1.329381
2.0221047 0.56571442 1.4133654
2.2545216 0.55845714 1.4879079
1.6656986 0.57334536 1.2341155
1.8408117 0.56760007 1.2927529
2.0532041 0.56746763 1.3647983
2.2814269 0.55840605 1.4293833
1.6849154 0.57101572 1.1926994
1.8629423 0.56734973 1.2463181
2.0731812 0.56636947 1.3103859
2.3032577 0.55844522 1.3669542
1.7183405 0.57445395 1.1611253
1.8942143 0.56994003 1.2067661
2.105303 0.56910086 1.2628179
2.3331926 0.56136459 1.309427
1.73858 0.57310247 1.120708
1.9234264 0.57159191 1.1642348
2.1293249 0.56995171 1.2103658
2.3590872 0.56333482 1.2499576
1.7740127 0.57853317 1.0891322
1.9435799 0.57233053 1.1188555
2.1503248 0.56983173 1.1569523
2.389045 0.56723607 1.1934482
1.7962743 0.57815623 1.0496953
1.9697552 0.57402945 1.074381
2.1652651 0.56878757 1.1006345
2.4068577 0.56730759 1.1300945
1.816499 0.57782274 1.0082966
1.9909047 0.57376462 1.0289648
2.1893137 0.57162005 1.0492181
2.4257162 0.56933916 1.0687574
1.839787 0.57942379 0.96987647
2.0170836 0.57646328 0.98450834
2.2052958 0.57153606 0.99489892
2.4425519 0.57039607 1.0064402
1.8670969 0.58199233 0.93239886
2.0382411 0.57819813 0.93912828
2.2253222 0.57340115 0.94253999
2.4644511 0.57338035 0.94706398
1.8832849 0.58170927 0.88907599
2.0573575 0.57897657 0.8917684
2.2392671 0.5733605 0.88625908
2.4641845 0.57158929 0.88001388
1.9085765 0.58430302 0.85063636
2.0805185 0.58170414 0.84636867
2.2582977 0.57622892 0.83393699
2.4890947 0.57756233 0.82063544
1.9257642 0.58401644 0.80729473
2.0966167 0.58251143 0.79806548
2.2793281 0.5790903 0.78157723
2.4888659 0.57573509 0.7555846
1.9469965 0.58567894 0.76591319
2.1167221 0.58530396 0.7497232
2.2862554 0.57909286 0.72442818
2.4987071 0.57781696 0.69341689
1.9662104 0.5873667 0.72356969
2.1297982 0.58514029 0.70045877
2.302264 0.58099031 0.67114478
2.511574 0.5818696 0.63222861
1.9844245 0.58905804 0.68124491
2.1428781 0.58597642 0.65121233
2.313236 0.58294201 0.61595589
2.5123715 0.58202028 0.56819469
2.0046382 0.59074229 0.63888258
2.1579804 0.58778709 0.60294586
2.3171639 0.58295536 0.55886328
2.5182321 0.58409846 0.50710183
2.0187931 0.59150249 0.59361595
2.1640203 0.58768463 0.5518136
2.3271401 0.58591032 0.50371128
2.5180564 0.58623427 0.4441224
2.0339701 0.5932408 0.54934824
2.1700602 0.58758223 0.5006814
2.3321092 0.58688372 0.44861713
2.515877 0.58737749 0.38116258
2.0431032 0.59303719 0.50315791
2.1881511 0.59139991 0.45139503
2.3400631 0.58886427 0.39248502
2.5157199 0.5894953 0.31918281
2.0532546 0.59281182 0.45794842
2.1922104 0.5912866 0.40130001
2.3450172 0.5908556 0.33640927
2.5155816 0.59159499 0.2582027
2.069417 0.59556454 0.41268027
2.1962507 0.59119141 0.35020533
2.3489907 0.59283239 0.28135198
2.489387 0.58782518 0.19560374
2.075532 0.59538972 0.36554667
2.2022982 0.59308857 0.2991091
2.3479421 0.59384537 0.22537094
2.4602118 0.58404797 0.13406077
2.0846686 0.59618598 0.31937435
2.2103457 0.59497863 0.24797527
2.3438942 0.59486914 0.16944629
2.4631221 0.58910018 0.07507769
-0.02611593 -0.059798401 0.050936799
1.2059166 0.3009738 0.13142315
2.349875 0.59883839 0.11438746
2.4560225 0.59118885 0.016228456
1.0860217 0.28426263 0.14136897
1.2374407 0.3103458 0.10399316
2.3468494 0.60084027 0.059461709
2.3718998 0.57452089 -0.039516948
1.0945786 0.28666413 0.11724402
2.2234941 0.60168821 0.094798565
2.330811 0.59888953 0.004708142
2.31183 0.56272966 -0.093623906
1.0920843 0.28514197 0.091254383
2.2275233 0.60361069 0.042740248
2.335777 0.60388029 -0.051313549
-0.02611593 -0.059798401 0.050936799
1.101645 0.28853971 0.067128658
2.2215843 0.60353333 -0.0071668681
2.3027668 0.59895492 -0.1038024
1.0698918 0.23711306 -0.069253311
1.1021539 0.28800657 0.04110067
2.2206333 0.60545564 -0.058131568
-0.02611593 -0.059798401 0.050936799
1.0544374 0.23560135 -0.092999354
0.93558699 0.23699106 0.022290051
2.212676 0.60540348 -0.10900076
1.0608923 0.25119725 -0.071830928
2.3456342 0.59674871 -0.32371944
1.1042211 0.28990012 -0.0089207403
-0.02611593 -0.059798401 0.050936799
1.0064915 0.23773712 -0.090062067
-0.02611593 -0.059798401 0.050936799
1.0867515 0.28439629 -0.032701269
1.0578543 0.26529607 -0.076520599
0.99005586 0.23621091 -0.11278965
1.0360333 0.24103646 -0.16858208
1.056291 0.27592152 -0.055291928
0.99047351 0.2468473 -0.092598215
1.0744123 0.26260695 -0.15290514
1.024582 0.24051026 -0.19238529
1.0228645 0.26642153 -0.075844906
0.99303156 0.24927032 -0.11661042
1.0519887 0.25908455 -0.17455637
1.0759169 0.26002589 -0.23200682
0.9335314 0.23998067 -0.087654643
1.0863645 0.27966952 -0.15882227
0.97077125 0.23852353 -0.18141001
-0.02611593 -0.059798401 0.050936799
0.93810767 0.24237844 -0.11070477
1.0310347 0.2651408 -0.17305399
1.0231208 0.25701767 -0.22006869
1.00322 0.2469198 -0.26589429
1.0554303 0.28072631 -0.15522277
0.94782466 0.24156934 -0.17892446
0.98082709 0.24742331 -0.23345493
0.98881042 0.24736799 -0.28762376
1.0120687 0.26819038 -0.17164327
0.94538361 0.24401034 -0.20284271
0.97039825 0.24787523 -0.25625926
0.2066223 0.011796842 -0.032153759
0.94381547 0.24861872 -0.18072248
0.93897271 0.24442983 -0.2247225
0.94604993 0.24428764 -0.27387425
0.18959096 0.0078766281 -0.032906052
0.93341631 0.2470348 -0.20156348
0.94848502 0.24988151 -0.25181115
0.20362678 0.01280744 -0.032079369
-0.02611593 -0.059798401 0.050936799
0.89714015 0.23740087 -0.21406281
0.92016697 0.24427243 -0.26738772
0.19458313 0.010876257 -0.03394562
0.16655292 0.0019782782 -0.033581648
0.92557895 0.24887377 -0.24639869
0.21456951 0.017839471 -0.036194619
-0.02611593 -0.059798401 0.050936799
-0.02611593 -0.059798401 0.050936799
0.89030665 0.24023609 -0.25889879
0.19657189 0.01288683 -0.034946814
0.17251134 0.006010327 -0.036621306
0.14253372 -0.0039345683 -0.033238787
0.20562339 0.016817667 -0.033044536
-0.02611593 -0.059798401 0.050936799
-0.02611593 -0.059798401 0.050936799
-0.02611593 -0.059798401 0.050936799
0.18860687 0.011879532 -0.032815188
0.16953062 0.0060030045 -0.035565265
0.14750715 -0.00091684656 -0.035278004
0.12550633 -0.006854956 -0.033973053
-0.02611593 -0.059798401 0.050936799
-0.02611593 -0.059798401 0.050936799
-0.02611593 -0.059798401 0.050936799
-0.02611593 -0.059798401 0.050936799
0.16058056 0.0039813835 -0.032433204
0.14651126 8.6576911e-05 -0.035241194
0.12552506 -0.0068730451 -0.032973401
0.10850853 -0.011811183 -0.032744057
-0.02611593 -0.059798401 0.050936799
-0.02611593 -0.059798401 0.050936799
-0.02611593 -0.059798401 0.050936799
-0.02611593 -0.059798401 0.050936799
0.14154176 -0.001931318 -0.033183958
0.12749511 -0.0048443833 -0.034974266
0.11446304 -0.0087789577 -0.035801731
0.092537113 -0.01478943 -0.03049814
-0.02611593 -0.059798401 0.050936799
-0.02611593 -0.059798401 0.050936799
-0.02611593 -0.059798401 0.050936799
-0.02611593 -0.059798401 0.050936799
0.1146089 -0.0099235047 -0.027822454
0.11446304 -0.0087789577 -0.035801731
0.098468982 -0.012738947 -0.034573488
0.084497206 -0.015724368 -0.032365158
-0.02611593 -0.059798401 0.050936799
-0.02611593 -0.059798401 0.050936799
-0.02611593 -0.059798401 0.050936799
-0.02611593 -0.059798401 0.050936799
0.10258058 -0.012861837 -0.028650686
0.10241994 -0.010699374 -0.0376116
0.08842551 -0.014666541 -0.036420949
0.072506338 -0.018698882 -0.031194061
-0.02611593 -0.059798401 0.050936799
-0.02611593 -0.059798401 0.050936799
-0.02611593 -0.059798401 0.050936799
-0.02611593 -0.059798401 0.050936799
0.094499305 -0.014760431 -0.032535046
0.088444225 -0.01468463 -0.03542129
0.077438384 -0.016644809 -0.035250627
0.067432359 -0.018608581 -0.035098761
-0.02611593 -0.059798401 0.050936799
-0.02611593 -0.059798401 0.050936799
-0.02611593 -0.059798401 0.050936799
-0.02611593 -0.059798401 0.050936799
0.07856141 -0.018774683 -0.028307825
0.076453365 -0.017659141 -0.034250189
0.068413459 -0.018594081 -0.036117211
0.056478761 -0.021622859 -0.031947132
-0.02611593 -0.059798401 0.050936799
-0.02611593 -0.059798401 0.050936799
-0.02611593 -0.059798401 0.050936799
-0.02611593 -0.059798401 0.050936799
0.066570543 -0.021749193 -0.027136728
0.071379393 -0.01756884 -0.038154881
0.057463784 -0.020608533 -0.032947559
0.045529086 -0.023637308 -0.028777488
-0.02611593 -0.059798401 0.050936799
-0.02611593 -0.059798401 0.050936799
-0.02611593 -0.059798401 0.050936799
-0.02611593 -0.059798401 0.050936799
0.061530091 -0.022694901 -0.029060118
0.061388161 -0.020550532 -0.037021372
0.05043849 -0.022564977 -0.033851728
0.042473469 -0.023572275 -0.031720102
-0.02611593 -0.059798401 0.050936799
-0.02611593 -0.059798401 0.050936799
-0.02611593 -0.059798401 0.050936799
-0.02611593 -0.059798401 0.050936799
0.051538862 -0.025676589 -0.027926613
0.055351816 -0.02049282 -0.038907956
0.045401957 -0.022510855 -0.035757102
0.03743694 -0.023518153 -0.033625469
-0.02611593 -0.059798401 0.050936799
-0.02611593 -0.059798401 0.050936799
-0.02611593 -0.059798401 0.050936799
-0.02611593 -0.059798401 0.050936799
0.047464699 -0.025589878 -0.031850096
0.047364153 -0.022481855 -0.037794001
0.037433013 -0.024517979 -0.033643488
0.030449087 -0.025510777 -0.032530308
-0.02611593 -0.059798401 0.050936799
-0.02611593 -0.059798401 0.050936799
-0.02611593 -0.059798401 0.050936799
-0.02611593 -0.059798401 0.050936799
0.036567267 -0.028658425 -0.025699481
0.037429083 -0.02551781 -0.033661507
0.032415204 -0.024481945 -0.034549203
0.024450187 -0.025489245 -0.032417566
-0.02611593 -0.059798401 0.050936799
-0.02611593 -0.059798401 0.050936799
-0.02611593 -0.059798401 0.050936799
-0.02611593 -0.059798401 0.050936799
0.03251183 -0.028589802 -0.028623305
0.03337365 -0.025449188 -0.036585331
0.028359769 -0.024413323 -0.037473019
0.019465892 -0.026489219 -0.031341974
-0.02611593 -0.059798401 0.050936799
-0.02611593 -0.059798401 0.050936799
-0.02611593 -0.059798401 0.050936799
-0.02611593 -0.059798401 0.050936799
0.027471371 -0.02953551 -0.030546691
0.026389726 -0.026441984 -0.035472155
0.020428266 -0.02645663 -0.033360083
-0.02611593 -0.059798401 0.050936799
-0.02611593 -0.059798401 0.050936799
-0.02611593 -0.059798401 0.050936799
-0.02611593 -0.059798401 0.050936799
-0.02611593 -0.059798401 0.050936799
-0.02611593 -0.059798401 0.050936799
0.018458221 -0.028485291 -0.031359222
0.016391553 -0.026406094 -0.035284247
-0.02611593 -0.059798401 0.050936799
-0.02611593 -0.059798401 0.050936799
-0.02611593 -0.059798401 0.050936799
-0.02611593 -0.059798401 0.050936799
-0.02611593 -0.059798401 0.050936799
-0.02611593 -0.059798401 0.050936799
0.015421328 -0.028438346 -0.033302169
0.011373744 -0.026370063 -0.036189955
-0.02611593 -0.059798401 0.050936799
-0.02611593 -0.059798401 0.050936799
-0.02611593 -0.059798401 0.050936799
-0.02611593 -0.059798401 0.050936799
-0.02611593 -0.059798401 0.050936799
-0.02611593 -0.059798401 0.050936799
0.010384792 -0.028384224 -0.035207544
0.0073557552 -0.026337616 -0.037114453
-0.02611593 -0.059798401 0.050936799
-0.02611593 -0.059798401 0.050936799
-0.02611593 -0.059798401 0.050936799
-0.02611593 -0.059798401 0.050936799
-0.02611593 -0.059798401 0.050936799
-0.02611593 -0.059798401 0.050936799
0.0063480847 -0.02833369 -0.037131701
0.0033190411 -0.026287083 -0.039038613
-0.02611593 -0.059798401 0.050936799
-0.02611593 -0.059798401 0.050936799
-0.02611593 -0.059798401 0.050936799
-0.02611593 -0.059798401 0.050936799
-0.02611593 -0.059798401 0.050936799
-0.02611593 -0.059798401 0.050936799
-0.02611593 -0.059798401 0.050936799
-0.02611593 -0.059798401 0.050936799
-0.02611593 -0.059798401 0.050936799
-0.02611593 -0.059798401 0.050936799
-0.02611593 -0.059798401 0.050936799
-0.02611593 -0.059798401 0.050936799
-0.02611593 -0.059798401 0.050936799
-0.02611593 -0.059798401 0.050936799
-0.02611593 -0.059798401 0.050936799
-0.02611593 -0.059798401 0.050936799
-0.02611593 -0.059798401 0.050936799
-0.02611593 -0.059798401 0.050936799
-0.02611593 -0.059798401 0.050936799
-0.02611593 -0.059798401 0.050936799
-0.02611593 -0.059798401 0.050936799
-0.02611593 -0.059798401 0.050936799
-0.02611593 -0.059798401 0.050936799
-0.02611593 -0.059798401 0.050936799
-0.02611593 -0.059798401 0.050936799
-0.02611593 -0.059798401 0.050936799
-0.02611593 -0.059798401 0.050936799
-0.02611593 -0.059798401 0.050936799
-0.02611593 -0.059798401 0.050936799
-0.02611593 -0.059798401 0.050936799
-0.02611593 -0.059798401 0.050936799
-0.02611593 -0.059798401 0.050936799
-0.02611593 -0.059798401 0.050936799
-0.02611593 -0.059798401 0.050936799
-0.02611593 -0.059798401 0.050936799
-0.02611593 -0.059798401 0.050936799
-0.02611593 -0.059798401 0.050936799
-0.02611593 -0.059798401 0.050936799
-0.02611593 -0.059798401 0.050936799
-0.02611593 -0.059798401 0.050936799
-0.02611593 -0.059798401 0.050936799
-0.02611593 -0.059798401 0.050936799
-0.02611593 -0.059798401 0.050936799
-0.02611593 -0.059798401 0.050936799
-0.02611593 -0.059798401 0.050936799
-0.02611593 -0.059798401 0.050936799
-0.02611593 -0.059798401 0.050936799
-0.02611593 -0.059798401 0.050936799
-0.02611593 -0.059798401 0.050936799
-0.02611593 -0.059798401 0.050936799
-0.02611593 -0.059798401 0.050936799
-0.02611593 -0.059798401 0.050936799
-0.02611593 -0.059798401 0.050936799
-0.02611593 -0.059798401 0.050936799
-0.02611593 -0.059798401 0.050936799
-0.02611593 -0.059798401 0.050936799
-0.02611593 -0.059798401 0.050936799
-0.02611593 -0.059798401 0.050936799
-0.02611593 -0.059798401 0.050936799
-0.02611593 -0.059798401 0.050936799
-0.02611593 -0.059798401 0.050936799
-0.02611593 -0.059798401 0.050936799
-0.02611593 -0.059798401 0.050936799
-0.02611593 -0.059798401 0.050936799
-0.02611593 -0.059798401 0.050936799
-0.02611593 -0.059798401 0.050936799
-0.02611593 -0.059798401 0.050936799
-0.02611593 -0.059798401 0.050936799
-0.02611593 -0.059798401 0.050936799
-0.02611593 -0.059798401 0.050936799
-0.02611593 -0.059798401 0.050936799
-0.03475976 -0.0240606 -0.043286845
-0.02611593 -0.059798401 0.050936799
-0.02611593 -0.059798401 0.050936799
-0.02611593 -0.059798401 0.050936799
-0.02611593 -0.059798401 0.050936799
-0.02611593 -0.059798401 0.050936799
-0.02611593 -0.059798401 0.050936799
-0.02611593 -0.059798401 0.050936799
-0.02611593 -0.059798401 0.050936799
-0.02611593 -0.059798401 0.050936799
-0.02611593 -0.059798401 0.050936799
-0.02611593 -0.059798401 0.050936799
-0.02611593 -0.059798401 0.050936799
-0.02611593 -0.059798401 0.050936799
-0.02611593 -0.059798401 0.050936799
-0.02611593 -0.059798401 0.050936799
-0.042702131 -0.024086153 -0.040137533
-0.02611593 -0.059798401 0.050936799
-0.02611593 -0.059798401 0.050936799
-0.02611593 -0.059798401 0.050936799
-0.02611593 -0.059798401 0.050936799
-0.02611593 -0.059798401 0.050936799
-0.02611593 -0.059798401 0.050936799
-0.02611593 -0.059798401 0.050936799
-0.046682674 -0.024089888 -0.039062712
-0.02611593 -0.059798401 0.050936799
-0.02611593 -0.059798401 0.050936799
-0.02611593 -0.059798401 0.050936799
-0.02611593 -0.059798401 0.050936799
-0.02611593 -0.059798401 0.050936799
-0.02611593 -0.059798401 0.050936799
-0.02611593 -0.059798401 0.050936799
-0.052763406 -0.020978419 -0.043894216
-0.02611593 -0.059798401 0.050936799
-0.02611593 -0.059798401 0.050936799
-0.02611593 -0.059798401 0.050936799
-0.02611593 -0.059798401 0.050936799
-0.02611593 -0.059798401 0.050936799
-0.02611593 -0.059798401 0.050936799
-0.053704046 -0.025046507 -0.039948858
-0.055677101 -0.023057761 -0.03887558
-0.02611593 -0.059798401 0.050936799
-0.02611593 -0.059798401 0.050936799
-0.02611593 -0.059798401 0.050936799
-0.02611593 -0.059798401 0.050936799
-0.02611593 -0.059798401 0.050936799
-0.02611593 -0.059798401 0.050936799
-0.02611593 -0.059798401 0.050936799
-0.058620386 -0.023101261 -0.035820223
-0.02611593 -0.059798401 0.050936799
-0.02611593 -0.059798401 0.050936799
-0.02611593 -0.059798401 0.050936799
-0.02611593 -0.059798401 0.050936799
-0.02611593 -0.059798401 0.050936799
-0.02611593 -0.059798401 0.050936799
-0.02611593 -0.059798401 0.050936799
-0.063634261 -0.022065397 -0.036707915
-0.064570054 -0.020116417 -0.033654105
-0.02611593 -0.059798401 0.050936799
-0.02611593 -0.059798401 0.050936799
-0.02611593 -0.059798401 0.050936799
-0.02611593 -0.059798401 0.050936799
-0.02611593 -0.059798401 0.050936799
-0.067641385 -0.0240507 -0.036668792
-0.068629421 -0.021047622 -0.036595944
-0.06753207 -0.020141829 -0.031598408
-0.02611593 -0.059798401 0.050936799
-0.02611593 -0.059798401 0.050936799
-0.02611593 -0.059798401 0.050936799
-0.02611593 -0.059798401 0.050936799
-0.02611593 -0.059798401 0.050936799
-0.072636552 -0.023032928 -0.036556821
-0.07465791 -0.018990248 -0.038446486
-0.071508683 -0.019145727 -0.03050556
-0.02611593 -0.059798401 0.050936799
-0.02611593 -0.059798401 0.050936799
-0.02611593 -0.059798401 0.050936799
-0.02611593 -0.059798401 0.050936799
-0.02611593 -0.059798401 0.050936799
-0.078650244 -0.021993473 -0.037425719
-0.07860101 -0.019030159 -0.035372339
-0.078551784 -0.016066849 -0.033318963
-0.02611593 -0.059798401 0.050936799
-0.02611593 -0.059798401 0.050936799
-0.02611593 -0.059798401 0.050936799
-0.02611593 -0.059798401 0.050936799
-0.078534901 -0.026119415 -0.030500155
-0.085693344 -0.018914593 -0.040239114
-0.085644118 -0.015951283 -0.038185731
-0.0815138 -0.016092261 -0.031263262
-0.02611593 -0.059798401 0.050936799
-0.02611593 -0.059798401 0.050936799
-0.02611593 -0.059798401 0.050936799
-0.02611593 -0.059798401 0.050936799
-0.086581737 -0.024036776 -0.033312786
-0.089636445 -0.018954502 -0.037164968
-0.089587219 -0.015991192 -0.035111584
-0.086490229 -0.015092575 -0.030151628
-0.02611593 -0.059798401 0.050936799
-0.02611593 -0.059798401 0.050936799
-0.02611593 -0.059798401 0.050936799
-0.02611593 -0.059798401 0.050936799
-0.091539465 -0.023055183 -0.031201489
-0.094575435 -0.017990999 -0.034054011
-0.094563648 -0.014991506 -0.033999957
-0.091447942 -0.014110981 -0.028040338
-0.02611593 -0.059798401 0.050936799
-0.02611593 -0.059798401 0.050936799
-0.02611593 -0.059798401 0.050936799
-0.02611593 -0.059798401 0.050936799
-0.095482558 -0.023095094 -0.028127342
-0.10158502 -0.015948126 -0.034886096
-0.098506756 -0.015031418 -0.03092581
-0.097457714 -0.012071697 -0.028891224
-0.02611593 -0.059798401 0.050936799
-0.02611593 -0.059798401 0.050936799
-0.02611593 -0.059798401 0.050936799
-0.02611593 -0.059798401 0.050936799
-0.10145488 -0.021091988 -0.026978899
-0.10856109 -0.014941261 -0.033736888
-0.10854539 -0.010941943 -0.033664811
-0.10444858 -0.010046913 -0.028723653
-0.02611593 -0.059798401 0.050936799
-0.02611593 -0.059798401 0.050936799
-0.02611593 -0.059798401 0.050936799
-0.02611593 -0.059798401 0.050936799
-0.11048283 -0.019023849 -0.028773077
-0.11656657 -0.011894973 -0.034532167
-0.11553624 -0.0089171631 -0.033497244
-0.11348739 -0.005961027 -0.031481449
-0.02611593 -0.059798401 0.050936799
-0.02611593 -0.059798401 0.050936799
-0.02611593 -0.059798401 0.050936799
-0.02611593 -0.059798401 0.050936799
-0.12250236 -0.014945285 -0.030474834
-0.12555313 -0.0088631846 -0.034308996
-0.12350427 -0.0059070489 -0.0322932
-0.12147807 -0.0039326544 -0.031295091
-0.02611593 -0.059798401 0.050936799
-0.02611593 -0.059798401 0.050936799
-0.02611593 -0.059798401 0.050936799
-0.02611593 -0.059798401 0.050936799
-0.12843724 -0.012978357 -0.027327068
-0.13149196 -0.0078960843 -0.031179257
-0.1335094 -0.0028535826 -0.033050902
-0.12743168 -0.0019476379 -0.029146973
-0.02611593 -0.059798401 0.050936799
-0.02611593 -0.059798401 0.050936799
-0.02611593 -0.059798401 0.050936799
-0.02611593 -0.059798401 0.050936799
-0.13942344 -0.0099393902 -0.02706632
-0.1414596 -0.0048787957 -0.029937632
-0.1404628 -0.00086497678 -0.030884013
-0.13843267 0.0021092445 -0.029867873
-0.02611593 -0.059798401 0.050936799
-0.02611593 -0.059798401 0.050936799
-0.02611593 -0.059798401 0.050936799
-0.02611593 -0.059798401 0.050936799
-0.15342389 -0.0058717378 -0.027730841
-0.15244189 -0.00083999895 -0.029658858
-0.15144509 0.0031738202 -0.030605242
-0.14538608 0.0040978501 -0.027700979
-0.02611593 -0.059798401 0.050936799
-0.02611593 -0.059798401 0.050936799
-0.02611593 -0.059798401 0.050936799
-0.02611593 -0.059798401 0.050936799
-0.16135448 -0.0028978055 -0.024527479
-0.1714671 0.0062812688 -0.032174695
-0.16845587 0.0092699938 -0.032177009
-0.15534982 0.0081149731 -0.026441336
-0.02611593 -0.059798401 0.050936799
-0.02611593 -0.059798401 0.050936799
-0.02611593 -0.059798401 0.050936799
-0.02611593 -0.059798401 0.050936799
-0.18539357 0.0052593267 -0.027930994
-0.18541138 0.010294658 -0.029840235
-0.18341081 0.015304715 -0.030787386
-0.17437501 0.015236236 -0.028957173
-0.02611593 -0.059798401 0.050936799
-0.02611593 -0.059798401 0.050936799
-0.02611593 -0.059798401 0.050936799
-0.02611593 -0.059798401 0.050936799
-0.21039109 0.014383696 -0.029298395
-0.21345666 0.021483723 -0.034114201
-0.19635528 0.019314514 -0.028471705
-0.18833017 0.021267377 -0.027586326
-0.02611593 -0.059798401 0.050936799
-0.02611593 -0.059798401 0.050936799
-0.02611593 -0.059798401 0.050936799
-0.02611593 -0.059798401 0.050936799
-0.23433654 0.022450378 -0.027703609
-0.22534515 0.02543566 -0.028818339
-0.21933445 0.02841362 -0.028877024
-0.20529957 0.028327197 -0.027140755
-0.02611593 -0.059798401 0.050936799
-0.02611593 -0.059798401 0.050936799
-0.02611593 -0.059798401 0.050936799
-0.02611593 -0.059798401 0.050936799
-0.26326934 0.033534501 -0.025960814
-0.25930658 0.038573563 -0.028944876
-0.24227618 0.03747654 -0.027283009
-0.23027442 0.038433306 -0.027490474
-0.02611593 -0.059798401 0.050936799
-0.02611593 -0.059798401 0.050936799
-0.02611593 -0.059798401 0.050936799
-0.02611593 -0.059798401 0.050936799
-0.97483844 0.31066886 -0.20868719
-0.96307647 0.33192974 -0.22552854
-0.26919058 0.048535395 -0.024578139
-0.259222 0.050535344 -0.02672933
-0.98441291 0.3133063 -0.1864527
-0.97468805 0.33461052 -0.20525575
-0.02611593 -0.059798401 0.050936799
-0.02611593 -0.059798401 0.050936799
-0.99500597 0.31596538 -0.16519906
-0.98729551 0.33829471 -0.18494621
-0.97552264 0.35753784 -0.20082392
-0.96577895 0.378824 -0.2186273
-1.0085719 0.32061684 -0.14285335
-0.99988419 0.34196082 -0.16363695
-0.9831388 0.35920444 -0.1806443
-0.97240323 0.37848732 -0.19850259
-1.0181464 0.32325426 -0.12061884
-1.0084815 0.34361291 -0.14243892
-0.99676484 0.36291027 -0.16131562
-0.98405224 0.38120428 -0.18022911
-1.0357225 0.32993776 -0.099161603
-1.0200665 0.34827527 -0.12113047
-1.0093722 0.36659449 -0.14100605
-0.99667841 0.38490653 -0.16091922
-1.0482699 0.33456755 -0.075835019
-1.0346509 0.35294834 -0.099765629
-1.0169511 0.36822492 -0.11882713
-1.0173101 0.39165515 -0.14240459
-1.0548073 0.33715802 -0.051657565
-1.0402114 0.35455352 -0.076624639
-1.0325501 0.37391952 -0.098425165
-1.0299175 0.39533937 -0.12209501
-1.0743603 0.34483045 -0.029145077
-1.055773 0.36021197 -0.054223344
-1.0411437 0.37657145 -0.077209115
-1.0295135 0.39294171 -0.10013852
-1.0888808 0.35144895 -0.0047452077
-1.0753261 0.3678844 -0.031710841
-1.0607193 0.38326216 -0.055714279
-1.0461164 0.39764011 -0.079735756
-1.0973953 0.35502839 0.020487498
-1.0848739 0.3725034 -0.0084406361
-1.0762994 0.38893867 -0.034312643
-1.0477041 0.39724934 -0.057705641
-1.1108972 0.36162519 0.045868218
-1.1003982 0.37812567 0.015959986
-1.0808414 0.39052215 -0.010190792
-1.0632844 0.40292582 -0.03630399
-0.02611593 -0.059798401 0.050936799
-1.1169143 0.38575122 0.04041544
-1.1043898 0.39920878 0.012414895
-1.0868701 0.41164866 -0.015697621
-1.1708251 0.38791701 0.098483652
-1.1274246 0.39033762 0.065703757
-1.1179332 0.40484199 0.03577828
-1.0924306 0.41325381 0.007443361
-0.02611593 -0.059798401 0.050936799
-1.1389493 0.39594549 0.090029217
-1.1244479 0.40841416 0.060973417
-1.1039821 0.41688013 0.030733127
-1.196713 0.40199834 0.15524229
-1.1634148 0.40656301 0.11668837
-1.1369915 0.41404378 0.084318005
-1.112538 0.41949588 0.053948507
-0.02611593 -0.059798401 0.050936799
-0.02611593 -0.059798401 0.050936799
-1.1524929 0.4206478 0.10973631
-0.02611593 -0.059798401 0.050936799
-0.02611593 -0.059798401 0.050936799
-1.2042763 0.42669719 0.17383699
-1.1769397 0.43124723 0.13739513
-1.160548 0.4397999 0.10323136
-1.2070642 0.41450146 0.24069124
-1.2147224 0.433229 0.20216031
-0.02611593 -0.059798401 0.050936799
-0.02611593 -0.059798401 0.050936799
-0.02611593 -0.059798401 0.050936799
-1.2609948 0.4537791 0.23741034
-1.2058643 0.44537559 0.19221082
-1.2094789 0.46103495 0.15654968
-0.02611593 -0.059798401 0.050936799
-1.2654314 0.45827162 0.26658458
-1.1973867 0.44287688 0.21801566
-0.02611593 -0.059798401 0.050936799
-1.2919353 0.45994249 0.346138
-1.290735 0.47174752 0.30131385
-1.2655745 0.47446781 0.2558766
-0.02611593 -0.059798401 0.050936799
-1.3261241 0.47835943 0.38612479
-1.3120433 0.48420924 0.33594996
-1.252087 0.46993345 0.28255108
-0.02611593 -0.059798401 0.050936799
-1.3801241 0.50570184 0.43464684
-1.3074745 0.48565185 0.36590064
-1.3132129 0.49842754 0.32422507
-1.2393279 0.4761391 0.26841965
-1.679337 0.63762856 0.56067806
-1.3535854 0.50905669 0.40920204
-1.3196076 0.50389081 0.35545424
-1.275614 0.49365371 0.30342773
-1.6616474 0.63689828 0.59734613
-1.6250863 0.63111979 0.52153134
-1.3528192 0.52132243 0.39440453
-1.3098855 0.51014334 0.33937985
-1.6429728 0.6371823 0.63301361
-1.6272905 0.63738769 0.56269997
-1.4376314 0.5616473 0.45074096
-1.3401241 0.52558255 0.37723812
-1.6203443 0.63548851 0.66657078
-1.6156106 0.63869673 0.59851706
-1.6077467 0.64176744 0.53740466
-1.3762938 0.54398859 0.41826215
-1.6006924 0.6347872 0.70120186
-1.5979811 0.63702077 0.63216805
-1.5931205 0.63910258 0.57109404
-1.6001256 0.64611793 0.51633358
-1.5810593 0.63410395 0.73483336
-1.5823059 0.63731563 0.6678921
-1.5844401 0.64042222 0.60696751
-1.5785499 0.6404646 0.54783803
-1.5485419 0.62846535 0.7631321
-1.5607224 0.63366187 0.69943255
-1.5648375 0.63675761 0.63954532
-1.5679191 0.63881379 0.58162051
-1.5328549 0.6317597 0.79891014
-1.541108 0.63299674 0.73206437
-1.5472265 0.63509983 0.67219663
-1.5572655 0.63814479 0.61642081
-1.5053248 0.62913853 0.82735687
-1.5224935 0.63233525 0.7647149
-1.541523 0.63741207 0.70914423
-1.5456349 0.63649046 0.65018457
-1.4857064 0.62947327 0.86000669
-1.503879 0.63167369 0.79736549
-1.5199581 0.63377649 0.73968506
-1.5369585 0.63681042 0.68604004
-1.4611304 0.62882638 0.89054525
-1.4823064 0.63003772 0.82794237
-1.5043204 0.63410747 0.77340966
-1.5243242 0.63615233 0.71980304
-1.4336151 0.62722307 0.91801035
-1.4617295 0.6294052 0.85855609
-1.4857284 0.63246417 0.80504256
-1.5087168 0.63350189 0.75247401
-1.4070995 0.62562346 0.94549435
-1.440153 0.6287691 0.88915098
-1.4681137 0.63180619 0.83771199
-1.4980367 0.63481444 0.78830993
-1.3835568 0.6260162 0.97407031
-1.4156224 0.6261586 0.91765416
-1.4485409 0.63017744 0.86832643
-1.4824256 0.63316381 0.82099885
-1.3580372 0.62541997 1.0015911
-1.3930646 0.62553704 0.94723052
-1.429945 0.62953401 0.89997733
-1.4598798 0.62954277 0.85052121
-1.3305405 0.62383479 1.0280565
-1.3725027 0.62592244 0.97686261
-1.4093682 0.62890148 0.93059105
-1.4511579 0.6318261 0.88841206
-1.3001193 0.62231129 1.050467
-1.3430479 0.62336642 1.0012732
-1.3897913 0.62827253 0.96122348
-1.432566 0.6301828 0.92004496
-1.2736374 0.62174761 1.0759697
-1.3215086 0.62276649 1.0298687
-1.3701955 0.62762547 0.99285567
-1.4100201 0.6265617 0.94956738
-1.2461742 0.62119848 1.1004539
-1.2930536 0.62021416 1.0542982
-1.3466796 0.62603664 1.020396
-1.3933825 0.62688911 0.98327321
-1.2138175 0.61772245 1.1197917
-1.2675526 0.61963606 1.0808192
-1.3201866 0.62345523 1.0468622
-1.3806989 0.62919426 1.0190896
-1.1824378 0.61523157 1.140166
-1.2430515 0.61906153 1.1073591
-1.2976477 0.62285167 1.075439
-1.3551911 0.62559861 1.0465562
-1.1569664 0.61668932 1.164724
-1.2146299 0.61754513 1.1298071
-1.2711774 0.61928862 1.1008877
-1.3355728 0.62593329 1.0792061
-1.1285784 0.61620897 1.1851906
-1.1862123 0.61502892 1.1522372
-1.2496157 0.61967039 1.1305009
-1.3100836 0.62235564 1.1056731
-1.0991718 0.61570692 1.2066382
-1.1568098 0.61352706 1.1736667
-1.2231376 0.61810696 1.1559855
-1.2865301 0.62073064 1.1352128
-1.0688255 0.61425573 1.22505
-1.1333005 0.61495578 1.2002615
-1.1956785 0.61655796 1.1804516
-1.2580603 0.61716032 1.1606238
-1.0394751 0.61380798 1.2434987
-1.1029207 0.61246854 1.2206546
-1.1692191 0.61501259 1.2049366
-1.2413961 0.61946929 1.1953652
-1.0081663 0.61238933 1.2598923
-1.0784492 0.61392987 1.245231
-1.144714 0.61543787 1.2314944
-1.2148806 0.61786968 1.2228492
-0.9797743 0.6129089 1.2803771
-1.0490613 0.61344588 1.2656791
-1.1162549 0.61388534 1.2559419
-1.1874065 0.61530274 1.2482971
-0.94944286 0.61247557 1.2978073
-1.0206544 0.61294746 1.2871456
-1.091746 0.61531049 1.2825177
-1.1618682 0.61468846 1.2768174
-0.91429639 0.60818785 1.3060744
-0.9903121 0.61049646 1.3055393
-1.0633056 0.61377597 1.3059655
-1.132432 0.61215055 1.3002284
-0.88397974 0.60877246 1.3225231
-0.96093911 0.6110304 1.3250055
-1.0329219 0.61228865 1.3263766
-1.1098478 0.61351049 1.3308405
-0.85274982 0.60642642 1.3349001
-0.93156993 0.61056453 1.3444539
-1.0045152 0.61179018 1.3478431
-1.0823245 0.61390704 1.3583416
-0.82243311 0.60701102 1.3513486
-0.90028 0.609164 1.359848
-0.97315425 0.60931748 1.3672177
-1.0528657 0.61235082 1.3827702
-0.79215384 0.60763192 1.3657979
-0.8679902 0.60775995 1.3752232
-0.94276661 0.60882992 1.3876469
-1.0224259 0.61080921 1.4061804
-0.76383281 0.60922348 1.382302
-0.83768123 0.60634494 1.3916357
-0.91142046 0.6073752 1.4060398
-0.9919858 0.60926759 1.4295906
-0.73065561 0.6079244 1.3916606
-0.80734587 0.60691154 1.409084
-0.88201386 0.60687315 1.4274876
-0.96156472 0.60774398 1.452001
-0.69945925 0.60661435 1.4020562
-0.77509356 0.60554355 1.42246
-0.84970528 0.60545093 1.4438624
-0.92914385 0.60621333 1.4743739
-0.66828161 0.6053223 1.4114524
-0.74190146 0.60322654 1.4328001
-0.8183592 0.60399616 1.4622554
-0.89871871 0.60568959 1.4968023
-0.63418329 0.60309213 1.4167755
-0.71160346 0.60382921 1.4482489
-0.78698653 0.60452288 1.4816842
-0.86437696 0.60322422 1.515121
-0.60489994 0.60471636 1.4312614
-0.67932844 0.60344309 1.4626426
-0.75081766 0.60121346 1.4909503
-0.83292943 0.60367858 1.5385484
-0.57275599 0.60445678 1.4386574
-0.64615124 0.60214394 1.472001
-0.71944493 0.60174018 1.5103791
-0.79664433 0.60126042 1.5538304
-0.53777814 0.60033184 1.4379277
-0.61103839 0.59889209 1.478287
-0.6871739 0.60035419 1.5247545
-0.76229876 0.59979486 1.5721672
-0.50567955 0.59810883 1.4432883
-0.58171356 0.60148007 1.4947903
-0.65291798 0.59997892 1.5381111
-0.72893035 0.59931469 1.5915402
-0.47457284 0.59788907 1.4487038
-0.54757786 0.59921366 1.5021126
-0.61966586 0.59860736 1.5514681
-0.6935997 0.59886342 1.6088765
-0.44253039 0.59572029 1.4510655
-0.51447946 0.59698701 1.5074544
-0.58540994 0.59823209 1.5648246
-0.65829176 0.59743047 1.6251949
-0.41138238 0.59646416 1.4584982
-0.48225278 0.59865481 1.5188853
-0.54925591 0.59594041 1.573109
-0.6220215 0.59603006 1.6394956
-0.38123417 0.59721154 1.4659499
-0.44817325 0.59644264 1.5232086
-0.5159772 0.59655046 1.5875019
-0.58575118 0.5946297 1.653796
-0.34922522 0.59607887 1.4663301
-0.41499206 0.59614331 1.5325851
-0.48077762 0.59622586 1.5978405
-0.54851449 0.59426177 1.6660963
-0.31909573 0.59684432 1.4727821
-0.38282549 0.59686548 1.5409988
-0.44657791 0.59590489 1.6081977
-0.51122177 0.59383953 1.6813955
-0.28802651 0.59666079 1.4761982
-0.34876075 0.5956713 1.5443406
-0.41041601 0.59561288 1.6165184
-0.47496617 0.59345704 1.6947144
-0.25701737 0.59553158 1.4765974
-0.31563571 0.59542626 1.5507181
-0.37523517 0.5953064 1.6258572
-0.43677109 0.5921219 1.7049786
-0.2259856 0.59538418 1.4780142
-0.28348392 0.59716636 1.5581502
-0.33913335 0.59406883 1.6311607
-0.39853466 0.59175038 1.7172601
-0.1949164 0.59520054 1.4814303
-0.2486036 0.59213203 1.552404
-0.30488828 0.59571135 1.6435535
-0.35937724 0.59044778 1.7255063
-0.16396342 0.59412563 1.4788305
-0.21551207 0.59292305 1.5568004
-0.26692575 0.59259355 1.6417857
-0.32027596 0.58919948 1.7307533
-0.13305184 0.59208709 1.4742134
-0.18240188 0.59369588 1.5621963
-0.23078258 0.59231961 1.6491065
-0.28203556 0.58982772 1.7430528
-0.10301597 0.59294301 1.475667
-0.14839327 0.59255588 1.562539
-0.19561261 0.59403086 1.6574819
-0.24295303 0.58859748 1.7473004
-0.072021641 0.59283179 1.4750845
-0.11533923 0.59338301 1.5649359
-0.15866861 0.59093481 1.6547332
-0.20288938 0.58738178 1.7505294
-0.042045854 0.59274226 1.473521
-0.082307816 0.5932284 1.5663151
-0.12251756 0.59266049 1.6620902
-0.16276565 0.58711159 1.7567754
-0.012066133 0.59365249 1.4719757
-0.049313866 0.59310997 1.565695
-0.085528255 0.59152794 1.661377
-0.12370183 0.58589941 1.7600232
0.016827092 0.59163916 1.4663965
-0.015462924 0.59011507 1.5580045
-0.048580326 0.58943164 1.6586462
-0.083634257 0.58568352 1.7632703
0.046682686 0.5896585 1.458799
0.016572591 0.59096384 1.5594205
-0.012568194 0.58928436 1.6589694
-0.042645689 0.58453655 1.7624818
0.076643683 0.59058678 1.456254
0.049469016 0.58993608 1.553784
0.022346586 0.58823127 1.6542951
-0.0025968365 0.58433867 1.7647291
0.10552211 0.58959144 1.4496932
0.082485624 0.59079933 1.5541817
0.05939991 0.58904403 1.6566168
0.036354654 0.58323509 1.761979
-0.02611593 -0.059798401 0.050936799
0.11432213 0.58882958 1.545547
0.095254406 0.58704174 1.6489067
0.07634341 0.58209169 1.7612094
0.16565096 0.59626633 1.4546897
-0.02611593 -0.059798401 0.050936799
0.13229294 0.58887243 1.650247
0.11634003 0.58294797 1.7604758
0.19334537 0.59143811 1.4390787
0.17907771 0.58681375 1.5322937
-0.02611593 -0.059798401 0.050936799
0.15623124 0.58089525 1.7546898
0.22325018 0.5924207 1.4335346
0.213102 0.58967316 1.5327084
0.2051899 0.58970082 1.6438949
-0.02611593 -0.059798401 0.050936799
0.25107265 0.59148318 1.4239935
0.24492371 0.58872122 1.5230923
0.24106704 0.58868027 1.6372024
0.23823194 0.58460021 1.753221
0.28000027 0.59345114 1.419486
0.27680552 0.5887149 1.516493
0.26570573 0.56380337 1.569268
0.27688685 0.57976866 1.7354038
0.30780005 0.59153187 1.4089272
0.3086873 0.58870858 1.5098937
0.31170917 0.58675134 1.6178384
0.27136627 0.49582106 1.5109125
0.33675042 0.59448153 1.4054374
0.34051296 0.58875656 1.5002955
0.34863144 0.58769077 1.6131625
0.35668892 0.58066225 1.723922
0.36343014 0.5906747 1.3888632
0.37239867 0.58975011 1.4937142
0.38131404 0.58486229 1.5964937
0.39653182 0.58066344 1.7151731
0.39023805 0.59075874 1.3783594
0.40316442 0.58885604 1.4811178
0.41822153 0.58681959 1.5908363
0.43531874 0.58072239 1.703444
0.41910556 0.59178108 1.3708348
0.43503147 0.58986765 1.473537
0.45194533 0.58495116 1.576166
0.4762255 0.58266538 1.6977113
0.44587204 0.59090143 1.3583136
0.46579716 0.58897364 1.4609404
0.48675567 0.58600628 1.5655297
0.51388854 0.57983708 1.6799489
0.47161993 0.59004343 1.3448114
0.49658945 0.59006119 1.4493797
0.52150196 0.58511603 1.5518584
0.5526793 0.58089584 1.668238
0.49736786 0.58918548 1.3313093
0.52529544 0.58822882 1.4338038
0.55529368 0.58619279 1.5402415
0.5904063 0.58001292 1.6535107
-0.02611593 -0.059798401 0.050936799
-0.02611593 -0.059798401 0.050936799
-0.02611593 -0.059798401 0.050936799
-0.02611593 -0.059798401 0.050936799
0.55622 0.59713513 1.3213478
0.58479768 0.58848375 1.4066852
0.60497797 0.56920671 1.4729811
0.64593965 0.56314993 1.5781403
0.57672065 0.59051323 1.2958355
0.58318895 0.55691838 1.3271173
0.57811075 0.51285338 1.3314167
0.57601708 0.46979561 1.3346782
0.60872352 0.59741521 1.2943608
0.64428514 0.58975667 1.3785847
0.68504089 0.5838989 1.4727477
0.73812461 0.58069015 1.5837334
0.62716442 0.58985496 1.2658691
0.66885293 0.58606559 1.3560505
0.7166754 0.58312798 1.4531349
0.77169859 0.57896638 1.5610662
0.66020852 0.59771699 1.2663927
0.69757074 0.58723265 1.3405287
0.74835128 0.58332068 1.4355394
0.80834007 0.58017713 1.5413953
0.67663097 0.59018195 1.236939
0.72526604 0.5874216 1.324008
0.78109097 0.58545506 1.4209602
0.83985436 0.57751501 1.5157484
0.70861512 0.59710205 1.2344644
0.75606227 0.58950901 1.3124652
0.80966592 0.58374935 1.3983865
0.87551862 0.57971108 1.4971141
0.72399652 0.58860695 1.2030122
0.78063798 0.58781755 1.2899668
0.84130824 0.58497798 1.3788097
0.90908188 0.58000511 1.473483
0.75286108 0.59364676 1.1945601
0.80725855 0.58808249 1.2694664
0.87090957 0.5852502 1.3572532
0.94368607 0.58125919 1.4518504
0.77447474 0.59192991 1.1741174
0.8329168 0.58831471 1.2509838
0.89641017 0.58362752 1.3307374
0.97312987 0.57967639 1.4222605
0.80125695 0.59504962 1.1616682
0.85955614 0.58856148 1.2314829
0.92809391 0.58581984 1.3131778
1.0067155 0.58095223 1.3996471
0.81570244 0.58850342 1.1332697
0.88519567 0.58881193 1.2120008
0.95461303 0.58417553 1.287643
1.0362006 0.58033311 1.3720746
0.84557074 0.59453946 1.1248167
0.90981662 0.58908397 1.1915379
0.98115873 0.58451277 1.2631437
1.0656897 0.58071381 1.34452
0.86206114 0.58994961 1.0984161
0.9344188 0.58937407 1.1700753
1.0097455 0.58580655 1.2406243
1.0962012 0.58207273 1.3179643
0.88780612 0.59310907 1.0839863
0.96002096 0.5896607 1.1485937
1.0362912 0.58614373 1.216125
1.1185071 0.57864213 1.2814723
0.90534168 0.59047908 1.0596023
0.9826048 0.58997607 1.1261691
1.0607771 0.58554256 1.1886464
1.1500598 0.58096099 1.2569151
0.93619496 0.59752953 1.0501488
1.0051512 0.59032768 1.101745
1.0873269 0.58687967 1.1641653
1.1785156 0.58238131 1.227398
0.94762623 0.59201199 1.020825
1.0287536 0.59062141 1.0803012
1.1128392 0.58825648 1.1377034
1.2039304 0.58284879 1.19592
0.97539347 0.59614599 1.0073754
1.0523415 0.59193313 1.0578756
1.132266 0.58672768 1.1073018
1.2313862 0.58427274 1.1664217
0.98682857 0.59162831 0.97806966
1.0687834 0.58939719 1.028512
1.1567746 0.58710831 1.0808408
1.2507193 0.58283436 1.1310216
1.0115362 0.59482753 0.96165937
1.0923752 0.5917086 1.0061045
1.1792502 0.58853209 1.0524362
1.2761381 0.58430165 1.0995617
1.0280759 0.59320098 0.93731207
1.113903 0.59208196 0.9806996
1.2017217 0.58895606 1.0240135
1.3046205 0.58770359 1.0710802
1.0537726 0.59841436 0.91991931
1.1303904 0.59150952 0.95337129
1.2241971 0.59037977 0.99560881
1.3219166 0.58630866 1.0337186
1.0642266 0.5938822 0.89163202
1.1519223 0.59288257 0.92798442
1.2426094 0.58987254 0.96424431
1.3402351 0.58589178 0.9973557
1.0899007 0.59811383 0.87322164
1.170432 0.59328467 0.90163618
1.2630665 0.59132159 0.93487757
1.3646581 0.58836246 0.96593255
1.1003587 0.59458148 0.84495234
1.1879193 0.59270865 0.8742891
1.2815013 0.5917961 0.9045307
1.3809582 0.58797097 0.92860758
1.1219921 0.59786379 0.8245998
1.2054105 0.5931325 0.84695995
1.2988991 0.59231031 0.87220335
1.3962774 0.58756489 0.89230114
1.13245 0.59433156 0.79633051
1.2229016 0.59355628 0.81963092
1.3173151 0.59280288 0.84085679
1.4156263 0.59012592 0.85697317
1.1601315 0.6005556 0.77791858
1.2393743 0.59400177 0.79132092
1.32765 0.59139687 0.80562592
1.4279046 0.58876693 0.8187058
1.1645265 0.59509945 0.74672705
1.2548323 0.59546876 0.76204818
