# .PCD v0.7 - Point Cloud Data file format
VERSION 0.7
FIELDS x y z
SIZE 4 4 4
TYPE F F F
COUNT 1 1 1
WIDTH 1405
HEIGHT 1
VIEWPOINT 0 0 0 1 0 0 0
POINTS 1405
DATA ascii
2.4981484 -0.077203214 3.1304047
2.4099548 0.28980309 3.2637401
2.4592562 0.16579901 3.1965511
2.5054805 0.045895465 3.1244924
2.5535841 -0.075906396 3.0463617
2.4634686 0.28701729 3.1846611
2.509681 0.16411427 3.1125481
2.557965 0.045149107 3.0434687
2.6070199 -0.074602395 2.9623563
2.5160615 0.28516263 3.1096172
2.5652959 0.16323054 3.0384655
2.610472 0.045384523 2.9634628
2.6533861 -0.072201081 2.8745019
2.567632 0.28232977 3.0335743
2.6168365 0.16243353 2.9604597
2.6650014 0.046594489 2.8844368
2.711971 -0.071059741 2.7984002
2.616188 0.28052559 2.9566066
2.6653407 0.16168346 2.880511
2.708379 0.046988804 2.7976024
2.7645049 -0.068842761 2.71943
2.6667998 0.27866003 2.8826003
2.7138822 0.16089721 2.8025618
2.7599463 0.048173368 2.7206323
2.8119643 -0.066535488 2.636555
2.7113342 0.27588844 2.8046901
2.7675388 0.16098431 2.7305341
2.8105285 0.048343595 2.6446626
2.8604424 -0.064249888 2.5546608
2.7680988 0.27485639 2.7385862
2.8181586 0.16111839 2.6565638
2.8590591 0.049575094 2.5657494
2.9628136 -0.062022947 2.5197725
2.8055222 0.27221853 2.6548095
2.8565707 0.16049463 2.5718045
2.9493055 0.052971553 2.524107
3.0153515 -0.058806144 2.4408205
2.8531759 0.27132732 2.5828767
2.9356799 0.16205755 2.5233352
3.0029476 0.054076575 2.4510982
3.0659044 -0.056600079 2.3628871
2.9150743 0.27115056 2.5236943
3.0046039 0.16383724 2.4650574
3.0525 0.056286231 2.373184
3.1215162 -0.053466398 2.2878776
2.9972434 0.27364823 2.4781859
3.0522053 0.16400012 2.3901436
3.106142 0.057391256 2.3001747
3.1680136 -0.051191714 2.2070205
3.0428789 0.27278233 2.4052911
3.1028478 0.16511592 2.3171906
3.1537144 0.059590004 2.2232978
3.2175515 -0.047964141 2.1281247
3.094588 0.27182251 2.336282
3.1544902 0.16622812 2.2442191
3.2002454 0.060828682 2.1444223
3.2701452 -0.0448016 2.0521717
3.141186 0.27098915 2.2613692
3.1980553 0.16644154 2.1673815
3.2559092 0.062908262 2.0723932
4.707932 -0.033375576 2.7697022
3.1898437 0.2710942 2.1894357
3.2517157 0.16752848 2.095372
4.6780176 0.11723968 2.7989967
4.7778716 -0.02864469 2.6584408
3.2364976 0.27020663 2.117522
4.6661363 0.26273692 2.8308618
4.7561049 0.12179714 2.6955822
-0.02611593 -0.059798401 0.050936799
3.2922289 0.2702142 2.0494554
4.7331576 0.26438865 2.7246008
4.8210564 0.12452821 2.5853782
-0.02611593 -0.059798401 0.050936799
4.6647987 0.40052268 2.7333462
4.803216 0.26599345 2.6202831
4.6133466 0.11779916 2.3380613
4.8322902 -0.013524417 2.2515574
4.7844667 0.40637192 2.6601868
4.5954723 0.25026593 2.3728042
4.6915469 0.12224808 2.2406447
5.0716414 -0.005772084 2.2132034
4.5848126 0.38049078 2.4193752
4.6656647 0.25274387 2.2755017
5.0430174 0.13753328 2.2593472
5.1435313 0.0010055564 2.0989411
4.6449022 0.38009563 2.3172083
4.9970841 0.27317238 2.2906711
5.1149745 0.14223886 2.1490476
13.560075 0.11566042 5.0574374
4.7211504 0.38249779 2.2227921
4.9773493 0.26985729 2.1459317
5.1808586 0.14703839 2.0348623
13.754566 0.1332767 4.7590137
4.9769316 0.39981112 2.2053106
5.1017761 0.27692357 2.059701
-0.02611593 -0.059798401 0.050936799
13.953985 0.1519472 4.4565153
4.922987 0.38980016 2.0510874
7.5269089 0.43388093 2.8113897
-0.02611593 -0.059798401 0.050936799
14.144276 0.17077668 4.1471882
5.9200988 0.47546649 2.2970514
7.6188469 0.43848816 2.6466961
-0.02611593 -0.059798401 0.050936799
14.330496 0.19069265 3.8339558
6.0189128 0.47820222 2.1792109
7.6775217 0.4414674 2.468591
-0.02611593 -0.059798401 0.050936799
14.538626 0.21261977 3.5153477
6.1126184 0.48206413 2.0554843
7.7140994 0.44261637 2.2858648
-0.02611593 -0.059798401 0.050936799
14.555932 0.23204347 3.1552532
6.1670504 0.4813202 1.9184055
7.8964272 0.45453748 2.1396172
-0.02611593 -0.059798401 0.050936799
13.732036 0.2326265 2.6365132
6.2657404 0.48618218 1.7936033
7.8515506 0.45141214 1.9343313
-0.02611593 -0.059798401 0.050936799
13.054496 0.23536783 2.1880965
6.3331962 0.48737317 1.6573157
7.895153 0.45451757 1.7525097
-0.02611593 -0.059798401 0.050936799
12.434811 0.23807243 1.7846106
6.3885379 0.4877159 1.5152376
7.97087 0.45939931 1.5761204
-0.02611593 -0.059798401 0.050936799
11.852811 0.2399749 1.4174172
6.4579601 0.48993567 1.3769312
8.0194235 0.46454069 1.3912418
10.704761 0.43206662 1.442395
11.343466 0.24398537 1.0839131
6.537365 0.49313757 1.2374551
8.0690098 0.4686425 1.2083256
10.191756 0.41769651 1.1306342
6.0271955 0.11117808 0.45483226
6.5926175 0.49457055 1.0903966
8.1405821 0.47468317 1.0240325
6.1315541 0.23296393 0.55611575
6.0475593 0.12066299 0.31257439
6.6869707 0.49977243 0.94767582
8.1189632 0.47623935 0.83139998
5.9776039 0.23136477 0.40091652
6.0498862 0.12924884 0.16863732
6.7140894 0.49943292 0.79410994
6.0847402 0.34432229 0.49198478
6.0090146 0.2387563 0.26141489
3.0815496 0.042271715 0.03659445
6.2180924 0.4559696 0.59454244
6.0089779 0.3412444 0.34629825
3.6369843 0.12511115 0.091712385
3.1171958 0.048458576 -0.036985964
5.989965 0.4347479 0.43437544
6.0313749 0.34466887 0.20689362
3.0793059 0.099721432 0.012667565
3.1527858 0.0546997 -0.11356537
6.03441 0.43703932 0.2975384
3.0573225 0.14699988 0.057949718
3.1089678 0.10491189 -0.059818465
2.7318563 0.044131808 -0.15689029
3.5407593 0.23211546 0.11345695
3.0659952 0.14924814 -0.013196102
3.0905893 0.10731132 -0.13345593
2.7725806 0.051228192 -0.22654799
3.0380077 0.19053108 0.033090349
3.1006148 0.15345703 -0.087793425
2.726645 0.09052179 -0.17696038
2.7992847 0.057393081 -0.29696032
3.061693 0.19170758 -0.037355695
2.8085036 0.13555396 -0.1406661
2.760385 0.096625373 -0.24550489
2.991555 0.070377082 -0.39335793
3.1003265 0.1948842 -0.11104654
2.7263715 0.13093103 -0.19923185
2.7941024 0.10174724 -0.31506711
2.4039133 0.050165504 -0.36471164
2.722311 0.16416538 -0.15553983
2.7541051 0.13505651 -0.26769969
2.3339763 0.078510925 -0.31287187
2.42873 0.056229033 -0.42908838
2.7141061 0.16334854 -0.21942264
2.7798345 0.13818932 -0.3361479
2.3987329 0.085484989 -0.38098124
2.5063238 0.065318927 -0.50640297
2.7618172 0.1674203 -0.28926593
2.3616664 0.11082104 -0.33581364
2.4245646 0.090527028 -0.44439515
2.8148553 0.086605191 -0.64484137
2.7436142 0.16663936 -0.35296085
2.3944776 0.11585604 -0.40035877
2.5419905 0.10163582 -0.53142226
2.8683002 0.094926096 -0.72972018
2.3653893 0.1361642 -0.35543156
2.4252851 0.11989839 -0.46488428
2.8345513 0.12496111 -0.66852432
2.5844252 0.085838519 -0.71856594
2.4031918 0.13918161 -0.42010665
2.5855279 0.13403322 -0.56266195
2.7993822 0.12722257 -0.73084605
2.4797664 0.085863151 -0.75261754
2.4299772 0.14225657 -0.48557472
2.7973647 0.15237871 -0.68333715
2.5493584 0.1151401 -0.7273823
3.0600195 0.12738781 -1.0188204
2.7465496 0.16949503 -0.6230557
2.6119585 0.14142458 -0.70107001
2.4387822 0.11209631 -0.75637692
-0.02611593 -0.059798401 0.050936799
2.6865299 0.16568443 -0.67601889
2.4923537 0.13543171 -0.73094922
2.8709004 0.14732465 -0.97390383
0.18339871 -0.046110749 -0.032766651
2.561873 0.15574636 -0.70787549
2.6412613 0.14993164 -0.84651405
-0.02611593 -0.059798401 0.050936799
-0.02611593 -0.059798401 0.050936799
2.455224 0.14874317 -0.74001634
2.5684352 0.14698665 -0.88921827
0.18634984 -0.044067588 -0.035785962
0.16534191 -0.04699171 -0.035445414
2.451045 0.14989355 -0.80293864
-0.02611593 -0.059798401 0.050936799
-0.02611593 -0.059798401 0.050936799
-0.02611593 -0.059798401 0.050936799
-0.02611593 -0.059798401 0.050936799
0.18533523 -0.04304608 -0.036748819
0.16829304 -0.044948552 -0.038464744
0.14432704 -0.046898253 -0.03605048
0.19236052 -0.041089628 -0.035844654
-0.02611593 -0.059798401 0.050936799
-0.02611593 -0.059798401 0.050936799
-0.02611593 -0.059798401 0.050936799
-0.02611593 -0.059798401 0.050936799
0.16131696 -0.043941688 -0.037315533
0.14331241 -0.045876749 -0.037013341
0.12334566 -0.047840804 -0.034674231
0.16435386 -0.04398863 -0.03537257
-0.02611593 -0.059798401 0.050936799
-0.02611593 -0.059798401 0.050936799
-0.02611593 -0.059798401 0.050936799
-0.02611593 -0.059798401 0.050936799
0.13138948 -0.045906037 -0.032789204
0.12827379 -0.046786562 -0.038748816
0.10736731 -0.047801472 -0.03337393
0.14333507 -0.044895008 -0.035995655
-0.02611593 -0.059798401 0.050936799
-0.02611593 -0.059798401 0.050936799
-0.02611593 -0.059798401 0.050936799
-0.02611593 -0.059798401 0.050936799
0.11438868 -0.046844855 -0.03248778
0.10931078 -0.047754385 -0.036410499
0.095346861 -0.048740145 -0.034166116
0.12631552 -0.045815736 -0.036693901
-0.02611593 -0.059798401 0.050936799
-0.02611593 -0.059798401 0.050936799
-0.02611593 -0.059798401 0.050936799
-0.02611593 -0.059798401 0.050936799
0.10236823 -0.047783528 -0.033279978
0.097294256 -0.047693226 -0.037184671
0.08336778 -0.04871517 -0.032940976
0.1093295 -0.047772475 -0.035410833
-0.02611593 -0.059798401 0.050936799
-0.02611593 -0.059798401 0.050936799
-0.02611593 -0.059798401 0.050936799
-0.02611593 -0.059798401 0.050936799
0.091332793 -0.047707871 -0.035072602
0.085296452 -0.047650158 -0.036959182
0.073350884 -0.048661191 -0.033752725
0.096327953 -0.04872565 -0.035184573
-0.02611593 -0.059798401 0.050936799
-0.02611593 -0.059798401 0.050936799
-0.02611593 -0.059798401 0.050936799
-0.02611593 -0.059798401 0.050936799
0.078368694 -0.048697226 -0.032847025
0.076294176 -0.048617691 -0.036808088
0.063390158 -0.048661482 -0.031565499
0.083326407 -0.049678825 -0.034958314
-0.02611593 -0.059798401 0.050936799
-0.02611593 -0.059798401 0.050936799
-0.02611593 -0.059798401 0.050936799
-0.02611593 -0.059798401 0.050936799
0.066404395 -0.049690165 -0.03064023
0.067277096 -0.048567299 -0.037638634
0.057353813 -0.048603766 -0.033452075
0.073328234 -0.049642935 -0.034770411
-0.02611593 -0.059798401 0.050936799
-0.02611593 -0.059798401 0.050936799
-0.02611593 -0.059798401 0.050936799
-0.02611593 -0.059798401 0.050936799
0.060368057 -0.049632452 -0.032526813
0.061222024 -0.0484915 -0.040524874
0.048374176 -0.048589557 -0.03228331
0.063344851 -0.050624959 -0.033600856
-0.02611593 -0.059798401 0.050936799
-0.02611593 -0.059798401 0.050936799
-0.02611593 -0.059798401 0.050936799
-0.02611593 -0.059798401 0.050936799
0.048441213 -0.050661571 -0.028320704
0.051280025 -0.048509877 -0.037337985
0.043337654 -0.048535436 -0.034188673
0.056308694 -0.05056366 -0.035468657
-0.02611593 -0.059798401 0.050936799
-0.02611593 -0.059798401 0.050936799
-0.02611593 -0.059798401 0.050936799
-0.02611593 -0.059798401 0.050936799
0.045348153 -0.050560359 -0.033262625
0.045243673 -0.048452169 -0.039224565
0.038319845 -0.048499402 -0.035094388
0.046344046 -0.051563777 -0.033299435
-0.02611593 -0.059798401 0.050936799
-0.02611593 -0.059798401 0.050936799
-0.02611593 -0.059798401 0.050936799
-0.02611593 -0.059798401 0.050936799
0.040311627 -0.050506238 -0.035168007
0.037278652 -0.049459461 -0.037092935
0.029377658 -0.048521366 -0.031926289
0.042307328 -0.051513243 -0.035223603
-0.02611593 -0.059798401 0.050936799
-0.02611593 -0.059798401 0.050936799
-0.02611593 -0.059798401 0.050936799
-0.02611593 -0.059798401 0.050936799
0.030407064 -0.050560795 -0.029981792
0.035170615 -0.048343923 -0.043035306
0.025359668 -0.048488922 -0.03285078
0.034327518 -0.051502623 -0.034073614
-0.02611593 -0.059798401 0.050936799
-0.02611593 -0.059798401 0.050936799
-0.02611593 -0.059798401 0.050936799
-0.02611593 -0.059798401 0.050936799
0.026351633 -0.050492167 -0.032905608
0.028209338 -0.048354976 -0.040904447
0.021304229 -0.048420299 -0.035774607
0.029290983 -0.051448498 -0.035978988
-0.02611593 -0.059798401 0.050936799
-0.02611593 -0.059798401 0.050936799
-0.02611593 -0.059798401 0.050936799
-0.02611593 -0.059798401 0.050936799
0.022314917 -0.050441638 -0.034829777
0.020281764 -0.049398452 -0.036773495
-0.02611593 -0.059798401 0.050936799
0.023288155 -0.052426796 -0.035884261
-0.02611593 -0.059798401 0.050936799
-0.02611593 -0.059798401 0.050936799
-0.02611593 -0.059798401 0.050936799
-0.02611593 -0.059798401 0.050936799
-0.02611593 -0.059798401 0.050936799
0.017211353 -0.048315499 -0.04069775
-0.02611593 -0.059798401 0.050936799
-0.02611593 -0.059798401 0.050936799
-0.02611593 -0.059798401 0.050936799
-0.02611593 -0.059798401 0.050936799
-0.02611593 -0.059798401 0.050936799
-0.02611593 -0.059798401 0.050936799
-0.02611593 -0.059798401 0.050936799
0.013137192 -0.048228785 -0.044621233
-0.02611593 -0.059798401 0.050936799
-0.02611593 -0.059798401 0.050936799
-0.02611593 -0.059798401 0.050936799
-0.02611593 -0.059798401 0.050936799
-0.02611593 -0.059798401 0.050936799
-0.02611593 -0.059798401 0.050936799
-0.02611593 -0.059798401 0.050936799
-0.02611593 -0.059798401 0.050936799
-0.02611593 -0.059798401 0.050936799
-0.02611593 -0.059798401 0.050936799
-0.02611593 -0.059798401 0.050936799
-0.02611593 -0.059798401 0.050936799
-0.02611593 -0.059798401 0.050936799
-0.02611593 -0.059798401 0.050936799
-0.02611593 -0.059798401 0.050936799
-0.02611593 -0.059798401 0.050936799
-0.02611593 -0.059798401 0.050936799
-0.02611593 -0.059798401 0.050936799
-0.02611593 -0.059798401 0.050936799
-0.02611593 -0.059798401 0.050936799
-0.02611593 -0.059798401 0.050936799
-0.02611593 -0.059798401 0.050936799
-0.02611593 -0.059798401 0.050936799
-0.02611593 -0.059798401 0.050936799
-0.02611593 -0.059798401 0.050936799
-0.02611593 -0.059798401 0.050936799
-0.02611593 -0.059798401 0.050936799
-0.02611593 -0.059798401 0.050936799
-0.02611593 -0.059798401 0.050936799
-0.02611593 -0.059798401 0.050936799
-0.02611593 -0.059798401 0.050936799
-0.02611593 -0.059798401 0.050936799
-0.02611593 -0.059798401 0.050936799
-0.02611593 -0.059798401 0.050936799
-0.02611593 -0.059798401 0.050936799
-0.02611593 -0.059798401 0.050936799
-0.02611593 -0.059798401 0.050936799
-0.02611593 -0.059798401 0.050936799
-0.02611593 -0.059798401 0.050936799
-0.02611593 -0.059798401 0.050936799
-0.02611593 -0.059798401 0.050936799
-0.02611593 -0.059798401 0.050936799
-0.02611593 -0.059798401 0.050936799
-0.02611593 -0.059798401 0.050936799
-0.02611593 -0.059798401 0.050936799
-0.02611593 -0.059798401 0.050936799
-0.02611593 -0.059798401 0.050936799
-0.02611593 -0.059798401 0.050936799
-0.02611593 -0.059798401 0.050936799
-0.02611593 -0.059798401 0.050936799
-0.02611593 -0.059798401 0.050936799
-0.02611593 -0.059798401 0.050936799
-0.02611593 -0.059798401 0.050936799
-0.02611593 -0.059798401 0.050936799
-0.02611593 -0.059798401 0.050936799
-0.02611593 -0.059798401 0.050936799
-0.02611593 -0.059798401 0.050936799
-0.02611593 -0.059798401 0.050936799
-0.02611593 -0.059798401 0.050936799
-0.02611593 -0.059798401 0.050936799
-0.02611593 -0.059798401 0.050936799
-0.02611593 -0.059798401 0.050936799
-0.02611593 -0.059798401 0.050936799
-0.02611593 -0.059798401 0.050936799
-0.02611593 -0.059798401 0.050936799
-0.02611593 -0.059798401 0.050936799
-0.02611593 -0.059798401 0.050936799
-0.02611593 -0.059798401 0.050936799
-0.02611593 -0.059798401 0.050936799
-0.02611593 -0.059798401 0.050936799
-0.02611593 -0.059798401 0.050936799
-0.02611593 -0.059798401 0.050936799
-0.02611593 -0.059798401 0.050936799
-0.02611593 -0.059798401 0.050936799
-0.02611593 -0.059798401 0.050936799
-0.02611593 -0.059798401 0.050936799
-0.02611593 -0.059798401 0.050936799
-0.02611593 -0.059798401 0.050936799
-0.02611593 -0.059798401 0.050936799
-0.02611593 -0.059798401 0.050936799
-0.02611593 -0.059798401 0.050936799
-0.02611593 -0.059798401 0.050936799
-0.02611593 -0.059798401 0.050936799
-0.02611593 -0.059798401 0.050936799
-0.02611593 -0.059798401 0.050936799
-0.02611593 -0.059798401 0.050936799
-0.02611593 -0.059798401 0.050936799
-0.02611593 -0.059798401 0.050936799
-0.02611593 -0.059798401 0.050936799
-0.02611593 -0.059798401 0.050936799
-0.02611593 -0.059798401 0.050936799
-0.02611593 -0.059798401 0.050936799
-0.02611593 -0.059798401 0.050936799
-0.02611593 -0.059798401 0.050936799
-0.02611593 -0.059798401 0.050936799
-0.02611593 -0.059798401 0.050936799
-0.02611593 -0.059798401 0.050936799
-0.02611593 -0.059798401 0.050936799
-0.02611593 -0.059798401 0.050936799
-0.02611593 -0.059798401 0.050936799
-0.02611593 -0.059798401 0.050936799
-0.02611593 -0.059798401 0.050936799
-0.02611593 -0.059798401 0.050936799
-0.02611593 -0.059798401 0.050936799
-0.02611593 -0.059798401 0.050936799
-0.02611593 -0.059798401 0.050936799
-0.02611593 -0.059798401 0.050936799
-0.02611593 -0.059798401 0.050936799
-0.02611593 -0.059798401 0.050936799
-0.02611593 -0.059798401 0.050936799
-0.02611593 -0.059798401 0.050936799
-0.02611593 -0.059798401 0.050936799
-0.02611593 -0.059798401 0.050936799
-0.02611593 -0.059798401 0.050936799
-0.02611593 -0.059798401 0.050936799
-0.02611593 -0.059798401 0.050936799
-0.02611593 -0.059798401 0.050936799
-0.02611593 -0.059798401 0.050936799
-0.02611593 -0.059798401 0.050936799
-0.02611593 -0.059798401 0.050936799
-0.02611593 -0.059798401 0.050936799
-0.02611593 -0.059798401 0.050936799
-0.02611593 -0.059798401 0.050936799
-0.02611593 -0.059798401 0.050936799
-0.02611593 -0.059798401 0.050936799
-0.02611593 -0.059798401 0.050936799
-0.02611593 -0.059798401 0.050936799
-0.02611593 -0.059798401 0.050936799
-0.02611593 -0.059798401 0.050936799
-0.02611593 -0.059798401 0.050936799
-0.02611593 -0.059798401 0.050936799
-0.02611593 -0.059798401 0.050936799
-0.02611593 -0.059798401 0.050936799
-0.02611593 -0.059798401 0.050936799
-0.02611593 -0.059798401 0.050936799
-0.02611593 -0.059798401 0.050936799
-0.02611593 -0.059798401 0.050936799
-0.02611593 -0.059798401 0.050936799
-0.02611593 -0.059798401 0.050936799
-0.02611593 -0.059798401 0.050936799
-0.02611593 -0.059798401 0.050936799
-0.02611593 -0.059798401 0.050936799
-0.02611593 -0.059798401 0.050936799
-0.06674277 -0.045032632 -0.038065631
-0.02611593 -0.059798401 0.050936799
-0.02611593 -0.059798401 0.050936799
-0.02611593 -0.059798401 0.050936799
-0.02611593 -0.059798401 0.050936799
-0.02611593 -0.059798401 0.050936799
-0.02611593 -0.059798401 0.050936799
-0.02611593 -0.059798401 0.050936799
-0.070723318 -0.045036364 -0.03699081
-0.02611593 -0.059798401 0.050936799
-0.02611593 -0.059798401 0.050936799
-0.02611593 -0.059798401 0.050936799
-0.02611593 -0.059798401 0.050936799
-0.02611593 -0.059798401 0.050936799
-0.02611593 -0.059798401 0.050936799
-0.02611593 -0.059798401 0.050936799
-0.077774279 -0.043957144 -0.039840236
-0.074688151 -0.041040778 -0.035843905
-0.077685505 -0.050064653 -0.033950385
-0.02611593 -0.059798401 0.050936799
-0.02611593 -0.059798401 0.050936799
-0.02611593 -0.059798401 0.050936799
-0.02611593 -0.059798401 0.050936799
-0.02611593 -0.059798401 0.050936799
-0.082750715 -0.042957455 -0.038728602
-0.078649975 -0.041062597 -0.033769425
-0.082665876 -0.050064798 -0.03285677
-0.02611593 -0.059798401 0.050936799
-0.02611593 -0.059798401 0.050936799
-0.02611593 -0.059798401 0.050936799
-0.02611593 -0.059798401 0.050936799
-0.082597919 -0.047119576 -0.029803727
-0.085693993 -0.043000959 -0.035673246
-0.082593076 -0.041102506 -0.030695267
-0.089698106 -0.049003672 -0.034706537
-0.02611593 -0.059798401 0.050936799
-0.02611593 -0.059798401 0.050936799
-0.02611593 -0.059798401 0.050936799
-0.02611593 -0.059798401 0.050936799
-0.088592894 -0.046098214 -0.029672965
-0.092707507 -0.041957919 -0.036523361
-0.08964403 -0.04002329 -0.033544712
-0.093641214 -0.049043581 -0.03163239
-0.02611593 -0.059798401 0.050936799
-0.02611593 -0.059798401 0.050936799
-0.02611593 -0.059798401 0.050936799
-0.02611593 -0.059798401 0.050936799
-0.096628875 -0.046033323 -0.031521961
-0.0966506 -0.041997828 -0.033449214
-0.095620297 -0.039020017 -0.032414291
-0.10267308 -0.047975276 -0.03344458
-0.02611593 -0.059798401 0.050936799
-0.02611593 -0.059798401 0.050936799
-0.02611593 -0.059798401 0.050936799
-0.02611593 -0.059798401 0.050936799
-0.10362367 -0.045008376 -0.031372409
-0.10670102 -0.040907841 -0.036242273
-0.098563574 -0.039063517 -0.029358935
-0.10965308 -0.047968242 -0.032313388
-0.02611593 -0.059798401 0.050936799
-0.02611593 -0.059798401 0.050936799
-0.02611593 -0.059798401 0.050936799
-0.02611593 -0.059798401 0.050936799
-0.10756677 -0.045048289 -0.028298263
-0.11267727 -0.039904568 -0.035111848
-0.10962859 -0.036952022 -0.033114843
-0.11662915 -0.046961375 -0.031164169
-0.02611593 -0.059798401 0.050936799
-0.02611593 -0.059798401 0.050936799
-0.02611593 -0.059798401 0.050936799
-0.02611593 -0.059798401 0.050936799
-0.11861307 -0.042954877 -0.031054515
-0.12067188 -0.038876031 -0.034943506
-0.11560485 -0.035948753 -0.031984422
-0.12664212 -0.045907568 -0.031957909
-0.02611593 -0.059798401 0.050936799
-0.02611593 -0.059798401 0.050936799
-0.02611593 -0.059798401 0.050936799
-0.02611593 -0.059798401 0.050936799
-0.12455581 -0.042987615 -0.027942784
-0.12762922 -0.037887253 -0.032794632
-0.12054776 -0.035985075 -0.028891485
-0.13359946 -0.044918794 -0.029809028
-0.02611593 -0.059798401 0.050936799
-0.02611593 -0.059798401 0.050936799
-0.02611593 -0.059798401 0.050936799
-0.02611593 -0.059798401 0.050936799
-0.13556466 -0.040930387 -0.028699718
-0.13662365 -0.03685512 -0.0326075
-0.13359369 -0.033884488 -0.031610157
-0.14256036 -0.044922676 -0.027640596
-0.02611593 -0.059798401 0.050936799
-0.02611593 -0.059798401 0.050936799
-0.02611593 -0.059798401 0.050936799
-0.02611593 -0.059798401 0.050936799
-0.14554018 -0.039912757 -0.027494129
-0.14659917 -0.035837494 -0.031401914
-0.14156958 -0.032874033 -0.030442148
-0.15858702 -0.042829413 -0.029303227
-0.02611593 -0.059798401 0.050936799
-0.02611593 -0.059798401 0.050936799
-0.02611593 -0.059798401 0.050936799
-0.02611593 -0.059798401 0.050936799
-0.15854865 -0.037848353 -0.028213482
-0.15555224 -0.033841711 -0.029197432
-0.14952281 -0.030881841 -0.028256465
-0.16954364 -0.041826282 -0.027079191
-0.02611593 -0.059798401 0.050936799
-0.02611593 -0.059798401 0.050936799
-0.02611593 -0.059798401 0.050936799
-0.02611593 -0.059798401 0.050936799
-0.17555644 -0.035769593 -0.028857656
-0.17257869 -0.03174486 -0.030841287
-0.16453095 -0.028810263 -0.028938223
-0.19156528 -0.03871166 -0.028611064
-0.02611593 -0.059798401 0.050936799
-0.02611593 -0.059798401 0.050936799
-0.02611593 -0.059798401 0.050936799
-0.02611593 -0.059798401 0.050936799
-0.19354528 -0.033705331 -0.028483391
-0.19158217 -0.028659092 -0.031429872
-0.1795164 -0.025756937 -0.02860231
-0.21758619 -0.035582684 -0.030067787
-0.02611593 -0.059798401 0.050936799
-0.02611593 -0.059798401 0.050936799
-0.02611593 -0.059798401 0.050936799
-0.02611593 -0.059798401 0.050936799
-0.21754389 -0.029601786 -0.028960012
-0.21158545 -0.025569735 -0.031999663
-0.19752005 -0.022674758 -0.029209692
-0.24960206 -0.031432334 -0.031393733
-0.02611593 -0.059798401 0.050936799
-0.02611593 -0.059798401 0.050936799
-0.02611593 -0.059798401 0.050936799
-0.02611593 -0.059798401 0.050936799
-0.24252754 -0.026512574 -0.028436191
-0.23858352 -0.021455426 -0.032419905
-0.22555147 -0.017520852 -0.031592451
-0.02611593 -0.059798401 0.050936799
-0.02611593 -0.059798401 0.050936799
-0.02611593 -0.059798401 0.050936799
-0.02611593 -0.059798401 0.050936799
-0.96499479 0.059834868 -0.2224135
-0.02611593 -0.059798401 0.050936799
-0.26955819 -0.016345019 -0.031747304
-0.24649841 -0.014482169 -0.029144473
-0.9806096 0.061530162 -0.20208356
-0.96389681 0.084827021 -0.22198182
-0.02611593 -0.059798401 0.050936799
-0.02611593 -0.059798401 0.050936799
-0.99220639 0.063193023 -0.18082917
-0.98154855 0.086565673 -0.20361367
-0.9748528 0.10991652 -0.22432363
-0.02611593 -0.059798401 0.050936799
-0.99878919 0.063820012 -0.15868708
-0.99817801 0.08928249 -0.1842466
-0.9754259 0.10850422 -0.20133065
-0.97678471 0.13193804 -0.22488931
-1.0183994 0.066529505 -0.13826397
-0.9997471 0.088873617 -0.1612168
-0.99407363 0.1112463 -0.18292567
-0.98842287 0.13263723 -0.20565225
-1.0329916 0.069202952 -0.11693518
-1.0173575 0.091575928 -0.14083129
-0.99666119 0.11085911 -0.16087677
-0.99904239 0.13331477 -0.18543428
-1.0275245 0.068732783 -0.092037618
-1.0289543 0.093238778 -0.11957689
-1.0112761 0.11255082 -0.14056566
-1.010662 0.13399589 -0.16519758
-1.047112 0.072424009 -0.070596859
-1.037518 0.093854852 -0.096397549
-1.0228729 0.11421367 -0.11931124
-1.0122348 0.13258719 -0.14218581
-1.0726982 0.076136753 -0.049043335
-1.0500958 0.095503226 -0.074124694
-1.0304556 0.11484426 -0.09715037
-1.0158222 0.13220359 -0.1201181
-1.0822393 0.077738181 -0.024827518
-1.0676876 0.098187432 -0.052739523
-1.043056 0.11551087 -0.075895183
-1.0224278 0.13184884 -0.098993689
-1.102789 0.081396826 -0.0013686419
-1.0892562 0.10186777 -0.030261509
-1.0626434 0.1192021 -0.054454423
-1.0400195 0.13453305 -0.077608518
-1.1083121 0.082965784 0.023771659
-1.1037923 0.10448693 -0.0059337318
-1.0852344 0.12190425 -0.032975294
-1.0516201 0.13519607 -0.056372121
-1.1288245 0.086588249 0.049229868
-1.1113336 0.10608118 0.018244494
-1.0927758 0.12349851 -0.008797057
-1.0812206 0.13994113 -0.035725102
-1.1383429 0.089171395 0.074463353
-1.1328645 0.10972533 0.042721823
-1.1033392 0.12412176 0.014419861
-1.09278 0.14156778 -0.01247137
-1.1578367 0.092772193 0.10090242
-1.1413682 0.11128695 0.068918176
-1.119875 0.12674813 0.038785223
-1.0963488 0.14116609 0.010595992
-0.02611593 -0.059798401 0.050936799
-1.1618992 0.11492752 0.093376704
-1.1323928 0.12934205 0.064075075
-1.1148839 0.14379963 0.034998935
-1.1757985 0.097862542 0.15534925
-1.1683846 0.11646388 0.12053513
-1.1539235 0.13298617 0.088552408
-1.1234292 0.14439765 0.059177935
-1.190256 0.10140919 0.18369371
-1.1908554 0.12105718 0.14804825
-1.1574322 0.13353005 0.11463678
-1.1349697 0.14600624 0.083431326
-1.1987182 0.10393449 0.21190739
-1.1873503 0.12055802 0.17498273
-1.1819063 0.13713069 0.14216948
-1.1504909 0.14761108 0.10875954
-1.2181332 0.10846274 0.2423631
-1.2018076 0.12410466 0.20332718
-1.1764206 0.13664244 0.16806671
-1.1589946 0.14917272 0.13495588
-0.02611593 -0.059798401 0.050936799
-1.2102511 0.12661187 0.23254052
-1.1988577 0.14019971 0.19756113
-0.02611593 -0.059798401 0.050936799
-0.02611593 -0.059798401 0.050936799
-1.2435995 0.13313577 0.26629433
-1.2103194 0.14273578 0.22583118
-1.1939348 0.15430601 0.19072181
-0.02611593 -0.059798401 0.050936799
-1.2619814 0.13662441 0.29871261
-0.02611593 -0.059798401 0.050936799
-0.02611593 -0.059798401 0.050936799
-1.2995225 0.12833653 0.3782925
-1.2803216 0.14107673 0.33314818
-1.256092 0.15176314 0.28987318
-1.2517198 0.16439436 0.25400764
-0.02611593 -0.059798401 0.050936799
-1.2887052 0.14452951 0.3653785
-1.284408 0.15723309 0.32551435
-0.02611593 -0.059798401 0.050936799
-3.1111956 0.40832469 0.99848682
-1.3637189 0.15791354 0.41604224
-1.3256385 0.16467696 0.3654345
-0.02611593 -0.059798401 0.050936799
-3.1007881 0.41295281 1.0724007
-3.1344571 0.45081615 0.9766835
-1.3061442 0.16212073 0.39203227
-0.02611593 -0.059798401 0.050936799
-3.1688097 0.43037379 1.1750242
-3.0922701 0.44851148 1.0398735
-3.1387012 0.48418671 0.95736009
-1.3032703 0.1732709 0.38317716
-3.238692 0.44967499 1.284719
-3.1404235 0.46196994 1.1360511
-3.087569 0.47788656 1.0183095
-1.3295155 0.17766148 0.42276135
-3.3055415 0.46792942 1.3963386
-3.2213037 0.48131064 1.2459525
-3.1248522 0.48741475 1.1082104
-3.0987763 0.50121152 1.002936
-3.384167 0.49002731 1.5192519
-3.2792602 0.49662361 1.3523506
-3.1948252 0.50278896 1.2138344
-3.1221716 0.50678062 1.0875034
-3.4765573 0.51395792 1.6544605
-3.3569725 0.51579076 1.4711926
-3.2607803 0.51813072 1.3203827
-3.1911898 0.52018774 1.1910733
-4.0452428 0.6194582 2.0291433
-3.4523849 0.53875047 1.6054398
-3.3305807 0.53434199 1.4350218
-3.2382803 0.53057075 1.2911768
-3.9678521 0.61782879 2.1026897
-3.5506392 0.56357586 1.7477766
-3.4180961 0.55536377 1.5640843
-3.3150647 0.54578924 1.4069288
-3.8706601 0.61430883 2.1658278
-3.824986 0.62135208 1.9870394
-3.4965835 0.57431751 1.694941
-3.397649 0.5638479 1.5328443
-3.4967012 0.56066895 2.0638213
-3.7655177 0.61971486 2.0649228
-3.7472394 0.62627989 1.9186497
-3.4781399 0.58180892 1.6637206
-3.7061665 0.61028546 2.2977197
-3.5171502 0.58426136 2.0356214
-3.6987166 0.62362802 1.9997207
-3.7110286 0.62790662 1.8759868
-3.6012876 0.60402673 2.3446591
-3.6258585 0.61361897 2.2062457
-3.5571952 0.60452813 2.0297358
-3.6872914 0.62614536 1.9685417
-3.1411119 0.53070271 2.150651
-3.564503 0.61208308 2.2780936
-3.5927703 0.61738271 2.1566775
-3.6367958 0.62150484 2.0485396
-2.6360967 0.44628277 1.8965827
-3.2346106 0.5586735 2.1729152
-3.5353656 0.61380738 2.2315633
-3.5764072 0.61391932 2.1232972
-3.3185246 0.59227371 2.4912019
-3.4131308 0.60521555 2.4041777
-3.2962515 0.57562172 2.1893816
-3.5614841 0.61602694 2.2250903
-2.8079753 0.5042671 2.2129567
-2.6142895 0.45646387 1.9373723
-3.4323695 0.61053616 2.3906298
-3.5553827 0.6200037 2.3360858
-3.1899698 0.59736001 2.6249325
-3.0135701 0.54788953 2.3346367
-2.608748 0.45487681 1.9132317
-3.4653711 0.60865492 2.3912137
-3.094254 0.59229618 2.6630619
-3.1976089 0.59700036 2.5910575
-3.200278 0.58251762 2.4517982
-2.6228998 0.44905472 1.9063891
-2.2672565 0.42911336 2.0474176
-3.1284792 0.59565282 2.650759
-3.2522986 0.60192555 2.6071758
-3.2578862 0.57934642 2.4738266
-1.8657792 0.35162288 1.7644031
-2.3484454 0.44068205 2.0891612
-3.1860452 0.59846258 2.6738956
-3.3137786 0.5976423 2.6362593
-1.8152266 0.35090074 1.7934535
-1.8790171 0.34788728 1.7525795
-2.3625975 0.43485996 2.0823185
-3.2927406 0.60061955 2.7439559
-1.9362677 0.39170599 1.997527
-1.8353096 0.34804538 1.7897766
-1.8900949 0.34198204 1.7496791
-3.2253599 0.5960266 2.817636
-2.1167891 0.4483344 2.2800269
-1.897537 0.37170562 1.9334184
-1.8404939 0.33920959 1.7817111
-1.8972235 0.32808191 1.7455596
-2.5533965 0.5735001 2.8666644
-2.0713 0.42452663 2.2037189
-1.8733277 0.3533065 1.8946191
-1.845612 0.32328454 1.7785178
-2.497185 0.57814401 2.9297171
-2.2760072 0.48648402 2.5287824
-2.0510645 0.40310621 2.16694
-1.8607682 0.33260712 1.8750029
-2.4077449 0.57437289 2.9529824
-2.5898533 0.57821494 3.0014782
-2.237222 0.45639488 2.469492
-2.0434864 0.37738946 2.149327
-2.3261833 0.57252157 2.9824319
-2.5022068 0.57425201 3.0357771
-2.7085876 0.58049595 3.1227834
-2.2472434 0.43136269 2.473228
-2.2378366 0.56884444 3.0007174
-3.0871897 0.74675202 3.9141476
-2.6315606 0.57721055 3.1773002
-3.2762704 0.67214614 3.766288
-2.1650331 0.57080775 3.0424039
-2.3436708 0.57016939 3.1167622
-2.5564923 0.57489598 3.2338719
-3.175174 0.66368502 3.8252621
-2.0796633 0.56812316 3.0617638
-2.2659214 0.56815159 3.1562836
-2.4775596 0.57169384 3.2833531
-2.9833386 0.63397425 3.7671132
-2.0030742 0.5682714 3.0923429
-2.193013 0.56800663 3.2039318
-2.9041224 0.70192075 4.0309486
-2.8940783 0.62841094 3.8343644
-1.918779 0.56566274 3.1077228
-2.1104367 0.56513387 3.2343442
-2.3207312 0.56532925 3.3803346
-2.8818531 0.64131892 4.0034261
-1.8394229 0.56401759 3.1262133
-2.0279164 0.56231534 3.2617576
-2.7197111 0.69689828 4.1584482
-2.7886083 0.63675916 4.0696201
-1.7562026 0.56148487 3.1376133
-1.9550833 0.56224269 3.3054075
-2.1667786 0.56186652 3.4834244
-2.686621 0.62940282 4.1225953
-1.6778237 0.56082511 3.1571405
-1.8667368 0.55856568 3.323693
-2.0810151 0.55880207 3.523777
-2.4876034 0.59744167 4.0212569
-1.5965804 0.55928135 3.1695957
-1.790054 0.55862349 3.3592706
-1.9943502 0.55482465 3.5590944
-2.4051952 0.5957762 4.0957088
-1.5212384 0.55866849 3.18718
-1.7066464 0.55590987 3.380667
-1.9096247 0.55179989 3.5974665
-2.2859981 0.58409774 4.1072702
-1.4467946 0.55996841 3.2098174
-1.6251972 0.55416703 3.4041185
-1.8326423 0.55156833 3.6490386
-2.2421274 0.59421694 4.2576828
-1.3677086 0.55657679 3.2142768
-1.5447891 0.55146426 3.4255717
-1.7508746 0.54951799 3.6894841
-2.2067113 0.60886115 4.4363451
-1.0149492 0.42146212 2.531997
-1.4633359 0.55072135 3.4490409
-1.6671222 0.54847848 3.7289107
-2.0393794 0.58374226 4.350729
-0.92724544 0.40632114 2.4650581
-1.0044011 0.37870127 2.5160203
-1.5737991 0.54380167 3.7460847
-1.9288013 0.5777514 4.3815608
-0.84922439 0.39492604 2.4143741
-0.9147163 0.36357126 2.4480445
-0.98681664 0.33587912 2.5019119
-1.047389 0.29856166 2.5323811
-0.77237958 0.38169765 2.354676
-0.83671784 0.35119438 2.3963428
-0.89801925 0.32064417 2.4399529
-0.95847154 0.28521785 2.4764562
-0.70047373 0.36943278 2.2980888
-0.75977159 0.33987525 2.3416791
-0.81523174 0.30744854 2.3771427
-0.8716138 0.27093568 2.4175518
-0.63531142 0.35995734 2.2546823
-0.68594497 0.32667571 2.2810373
-0.73931181 0.29415137 2.3214619
-0.78882623 0.25774002 2.3547416
-0.57218623 0.35052526 2.2093148
-0.61982411 0.31623301 2.235595
-0.66634607 0.28282848 2.2678728
-0.71000051 0.24452254 2.2940061
-0.51207918 0.34112206 2.1630034
-0.55761999 0.30773205 2.1942627
-0.59737957 0.27151993 2.2143588
-0.63893682 0.23411618 2.2454708
-0.45769715 0.33448663 2.1308544
-0.4954758 0.29828545 2.1499133
-0.53504038 0.26389214 2.180042
-0.56986886 0.22471684 2.1969914
-0.40245029 0.32697439 2.0916708
-0.44013536 0.29068276 2.1157281
-0.47481707 0.25538021 2.1397469
-0.50482285 0.21435012 2.1475692
-0.35198867 0.32128081 2.0636134
-0.38488847 0.28317052 2.0765445
-0.41574728 0.24601674 2.0914552
-0.44642282 0.20768222 2.1163447
-0.30363908 0.31570292 2.0295959
-0.33258492 0.2756148 2.0404162
-0.3623651 0.23938489 2.059325
-0.38819912 0.19917747 2.0760872
-0.26043311 0.31734926 2.0398202
-0.28496513 0.27178693 2.0204487
-0.3108288 0.23361534 2.0352476
-0.33385456 0.19257821 2.0419385
-0.22232556 0.32818335 2.0963218
-0.24596319 0.27970836 2.0718794
-0.26557097 0.23420043 2.0484152
-0.28312296 0.18863101 2.0279126
-0.18304184 0.34085071 2.1618376
-0.20484136 0.28951377 2.1293061
-0.22449839 0.24104254 2.1037889
-0.2411747 0.19257857 2.0772154
-0.13975492 0.35450354 2.2272964
-0.16166376 0.29925776 2.1896946
-0.18119366 0.24966003 2.1711566
-0.19684058 0.19915667 2.1465275
-0.12286726 0.54100198 3.1966825
-0.1691784 0.5287174 3.5554488
-0.13504319 0.25741166 2.230453
-0.15140907 0.20664057 2.2208378
-0.05414984 0.5390079 3.1813545
-0.090448029 0.52566946 3.5409145
-0.13254938 0.51626039 4.0166941
-0.17978291 0.49403316 4.5943718
0.013609115 0.53798109 3.1680629
-0.012402207 0.52633506 3.5424662
-0.040765211 0.51311159 4.0049143
-0.071488321 0.49233824 4.6093192
0.079409815 0.53792512 3.156826
0.064351171 0.52427614 3.5289872
0.050116673 0.51087582 3.9981706
0.036600329 0.49084228 4.6132698
0.14630787 0.53877491 3.1505868
0.14332193 0.52501053 3.5265212
0.1410813 0.51056731 3.995461
0.14687976 0.49015808 4.6271968
0.21183467 0.53597277 3.1253006
0.22000435 0.52402383 3.5090616
0.23387313 0.50941455 3.9836986
0.256432 0.48616195 4.6030655
0.27971774 0.53783685 3.1180611
0.29772404 0.52299738 3.4935827
0.32366157 0.50727284 3.9719746
0.36767775 0.48651016 4.6149931
0.3443836 0.53691131 3.0998273
0.37330908 0.52110475 3.4711256
0.41559249 0.50799668 3.9672654
0.47530526 0.48244882 4.5948977
-0.02611593 -0.059798401 0.050936799
0.44912669 0.52099478 3.4607008
0.50640339 0.50683308 3.9565401
0.58526641 0.48207211 4.5918307
0.16205136 0.16505103 1.1858658
-0.02611593 -0.059798401 0.050936799
-0.02611593 -0.059798401 0.050936799
-0.02611593 -0.059798401 0.050936799
0.53525478 0.53527176 3.0382032
0.59842128 0.52010781 3.4218764
0.68684214 0.50569022 3.9251304
-0.02611593 -0.059798401 0.050936799
0.26493797 0.21716735 1.4349666
0.26277035 0.17919907 1.4333198
0.26164395 0.14219087 1.4336715
-0.02611593 -0.059798401 0.050936799
0.66484958 0.53818452 3.0148215
0.74765968 0.51927513 3.380053
-0.02611593 -0.059798401 0.050936799
1.0220472 0.47758615 4.5235491
0.72317165 0.53560644 2.9786708
0.82015562 0.51848358 3.3526721
0.9492951 0.5011726 3.8411067
1.1404384 0.48178196 4.5424147
0.78259116 0.53393406 2.9475176
0.89590222 0.51944584 3.3382664
1.0347098 0.49940699 3.8094647
1.265986 0.48780763 4.5691824
0.84314942 0.53413117 2.9233789
0.96526766 0.51879168 3.3039441
1.1191099 0.49866289 3.77686
1.372322 0.48603901 4.5331473
0.90688336 0.53615445 2.9082172
1.0367638 0.51800382 3.276582
1.2119548 0.50147331 3.7671692
1.4998318 0.49209359 4.557878
0.96110874 0.53268129 2.867125
1.107204 0.51727378 3.2462397
1.2994519 0.50162774 3.7395246
1.5901921 0.4853023 4.471034
1.0227495 0.53480208 2.8470025
1.1776667 0.51752543 3.2169151
-0.02611593 -0.059798401 0.050936799
-0.02611593 -0.059798401 0.050936799
-0.02611593 -0.059798401 0.050936799
-0.02611593 -0.059798401 0.050936799
0.47862408 0.12922573 1.2733203
0.5010373 0.096627638 1.3013204
0.5106824 0.21339458 1.3132561
0.51743042 0.17346668 1.3074055
-0.02611593 -0.059798401 0.050936799
1.8274584 0.46182555 4.1680641
1.1992565 0.53557426 2.7656844
1.382865 0.51748312 3.1190393
1.628571 0.50015014 3.5832829
1.8922911 0.45363083 4.0536633
1.252546 0.53405011 2.7276461
1.4481187 0.51695192 3.0787942
1.7129416 0.50144184 3.5487149
1.9623556 0.44720075 3.9512005
1.3100339 0.53533018 2.6995835
1.5164883 0.5173012 3.0445089
1.7941777 0.50187105 3.5071878
2.0274584 0.44075251 3.8508308
1.3695587 0.53656685 2.6734829
1.5827832 0.51773006 3.0062623
1.8795519 0.50415903 3.4726191
2.0936584 0.43521005 3.7554588
1.4187515 0.53414768 2.6305032
1.6440004 0.51724923 2.9640934
1.975292 0.50906694 3.4569097
2.1548369 0.42870373 3.659163
1.4731236 0.53454727 2.5964808
1.7144337 0.51953685 2.9328055
2.0575168 0.51151031 3.4144001
2.220176 0.42503792 3.5708435
1.5275142 0.53492868 2.5634584
1.7776543 0.5200488 2.8906169
2.1294286 0.51027977 3.3560119
2.2814972 0.42140448 3.4815993
1.5849687 0.5372448 2.5334144
1.8316213 0.5178287 2.8355474
2.195169 0.50823367 3.2887211
2.3377595 0.41684344 3.3894322
1.6351877 0.53680354 2.491452
1.8989615 0.52021748 2.7993176
2.2660282 0.50806075 3.2273703
2.3939917 0.41431829 3.2953017
1.6895825 0.53818482 2.4584475
1.9611449 0.52076924 2.7551484
2.3482573 0.51150411 3.1848788
2.4514115 0.41160858 3.2111492
1.7418987 0.5386458 2.4214635
2.0161757 0.52049083 2.7030954
2.4130242 0.51144314 3.1186426
2.50685 0.40888795 3.1280339
1.7880398 0.53729153 2.3755596
2.0671289 0.51929951 2.6471009
2.4911563 0.51399142 3.0712097
2.5612552 0.40720704 3.0429559
1.8423971 0.53870904 2.3405557
2.1313572 0.52180749 2.6049294
2.5436518 0.51122725 2.9911497
2.6197946 0.40638489 2.9648187
1.8875421 0.53835809 2.2946885
2.1731129 0.51782984 2.5390534
2.5961888 0.50942683 2.9131072
2.6753159 0.40559158 2.8857381
1.9336873 0.53800356 2.2488027
2.235323 0.52036321 2.4959199
2.6507852 0.50856477 2.8380439
2.7185924 0.4040767 2.7938693
1.9880297 0.54043895 2.2128172
2.3179309 0.52946168 2.4725299
2.7013407 0.50675344 2.7610385
2.776196 0.40520355 2.7187855
2.0290968 0.53917491 2.1630082
2.3719099 0.53024113 2.4175148
2.7580383 0.50779343 2.6909721
2.8277221 0.40542448 2.6397982
2.0782866 0.54077321 2.1191015
2.3922789 0.52270126 2.3319681
2.8106766 0.5079022 2.6179636
2.8721519 0.40476117 2.5559258
2.1224318 0.54042578 2.0732534
2.4717715 0.53091925 2.3026183
2.866374 0.50894582 2.5479159
3.0009582 0.41851285 2.5417583
2.1675808 0.54107469 2.0274041
2.5339105 0.5345248 2.2555041
2.9200349 0.51003277 2.4759066
3.0392582 0.41799757 2.4510012
2.210674 0.54178506 1.9785935
2.5624998 0.53075653 2.1808755
2.9645581 0.50927901 2.3970325
3.0816736 0.41835937 2.3661849
2.2598865 0.54436505 1.9357044
2.6114089 0.53262609 2.1219735
3.0223007 0.5122788 2.3289826
3.1352112 0.42157251 2.2872138
2.2989018 0.54416233 1.8829522
2.6552398 0.53358608 2.059149
3.0688879 0.5134632 2.2531064
3.1847453 0.42380038 2.2082999
2.3470538 0.54580033 1.8370649
2.6980667 0.5335499 1.9963254
3.1144376 0.51468742 2.1752491
3.2332835 0.42703149 2.1294229
2.3871105 0.54655761 1.7863114
2.7550986 0.53828168 1.943325
3.1650879 0.51780283 2.1023324
3.7686799 0.50207806 2.3438289
2.4241111 0.54737991 1.7326151
2.7888112 0.53738642 1.8746545
3.2076383 0.51903778 2.0245316
3.8128591 0.50466746 2.2460155
2.4651484 0.54815173 1.6808432
2.8316274 0.53936803 1.8108671
3.254252 0.5222038 1.9496909
3.8428833 0.50545216 2.1404316
2.509227 0.54987639 1.6310325
2.8633218 0.53849804 1.7412343
3.2968059 0.52443856 1.8719083
3.8850484 0.50906658 2.0416744
2.550235 0.55268407 1.5772971
2.9020636 0.54056627 1.6735234
3.3312452 0.52581078 1.78826
3.9151368 0.51179671 1.9391255
2.5831575 0.55259323 1.5196595
2.9418623 0.54257673 1.6087928
3.3697631 0.52809602 1.7085531
3.9412034 0.5135594 1.8356344
2.6201208 0.55345178 1.4639642
2.9796231 0.54463047 1.5421002
3.3891075 0.52861273 1.6201704
3.9561927 0.51443404 1.7283331
2.6581254 0.55527037 1.4102672
3.0073032 0.54479271 1.471561
3.4326842 0.53182566 1.5433866
3.9893594 0.51808083 1.6297448
2.6859739 0.5552699 1.3487251
3.0501051 0.5477922 1.4067919
3.4611287 0.53421921 1.459869
4.0013723 0.51994801 1.5235175
2.7299855 0.55906665 1.2949516
3.075752 0.5489977 1.3343091
3.4905918 0.53659105 1.3773323
4.0184402 0.521743 1.4201955
2.7568338 0.55906975 1.2334281
3.1013989 0.5502032 1.2618262
3.5190027 0.54002059 1.2918334
4.0214362 0.5236606 1.3131378
2.7947488 0.56197858 1.1747508
3.1381269 0.55329657 1.1931713
3.5464513 0.54341763 1.2083527
4.0435867 0.52736497 1.2137564
2.8236198 0.56295627 1.1142075
3.162755 0.55452377 1.1197072
3.5547941 0.54297388 1.1201586
4.0597038 0.53212684 1.1125064
2.8494544 0.56398088 1.0517212
3.1894248 0.55670744 1.0482233
3.5701807 0.54446846 1.0338683
4.0577717 0.53299016 1.0095234
2.8823287 0.56594402 0.99112064
3.2110536 0.55794537 0.97481585
3.5885935 0.547934 0.94855732
4.0689049 0.5367521 0.90934902
2.913166 0.56795049 0.92855835
3.229646 0.55923027 0.89946544
3.5899227 0.54853332 0.8595131
4.0700021 0.54058605 0.80736327
2.9329412 0.56805116 0.86316782
3.2422202 0.5605548 0.82322812
3.6163752 0.55293369 0.7760691
4.0480318 0.5405575 0.70273858
2.9597418 0.57010818 0.79868138
3.2698562 0.56377083 0.749744
3.6237485 0.55547494 0.68894744
4.0632329 0.54725033 0.60554212
2.9895458 0.57315433 0.73415661
3.2864528 0.56606281 0.67444921
3.6281188 0.55702716 0.60186422
4.0673709 0.55203712 0.5055173
3.0092871 0.57429093 0.6667847
3.3150923 0.57027507 0.60096431
3.6425362 0.56150687 0.51664644
4.0805721 0.55873704 0.40835845
3.0230262 0.57444918 0.59950751
3.330689 0.57257056 0.52568829
3.646929 0.56404072 0.43058085
4.0637212 0.56058174 0.30967385
3.0517969 0.57853484 0.53302026
3.3242028 0.57201797 0.44677293
3.6413007 0.56562889 0.34368551
-0.02611593 -0.059798401 0.050936799
3.0725236 0.58068579 0.46464792
3.3327594 0.57337493 0.36961114
3.6456974 0.56916267 0.25763795
3.539571 0.49127755 0.10716505
3.0742009 0.57894182 0.39456117
3.3413007 0.57574981 0.29146767
3.5840065 0.56198949 0.16963337
2.9886379 0.41090831 0.024998343
3.0948939 0.5821287 0.32420757
3.356868 0.58008111 0.21422839
3.5313783 0.55672938 0.084494717
2.9813402 0.41519555 -0.04481113
3.1125836 0.58432662 0.2538923
3.3554075 0.58149207 0.13625482
3.2176361 0.5063957 0.0044311881
2.9040453 0.40769988 -0.11152217
3.1272743 0.58653527 0.18363339
3.3649719 0.58484513 0.059110269
2.970243 0.46651581 -0.059680074
2.7548707 0.38931978 -0.16908121
3.1359432 0.58778369 0.11246954
2.9613347 0.50965774 -0.0097159594
2.8269804 0.445187 -0.12140456
2.7576351 0.39551654 -0.23604356
3.1386089 0.58805388 0.041400429
2.9630466 0.51189494 -0.078730926
2.7557929 0.4365615 -0.18224838
2.5317605 0.36408943 -0.27439606
2.9341819 0.54603803 -0.024554526
2.7878251 0.48061043 -0.13603565
2.5977461 0.41206995 -0.23174913
2.5525897 0.37316677 -0.33864364
2.9609041 0.55218476 -0.093967184
2.7356613 0.47389826 -0.19620079
2.5197244 0.40230691 -0.28348246
2.3279953 0.3414647 -0.36201999
2.7327316 0.50700235 -0.14552996
2.5796583 0.44634584 -0.24279422
2.5655086 0.41534814 -0.3511267
2.3169603 0.34551308 -0.41775906
2.7385356 0.50913477 -0.20962179
2.5056283 0.43456876 -0.29463878
2.3080082 0.37263978 -0.36708358
2.3487992 0.3575505 -0.48215923
2.5445712 0.47064835 -0.2517007
2.5404587 0.44459578 -0.35913137
2.3149595 0.37864128 -0.42412451
2.4264216 0.37865642 -0.56025726
2.4955485 0.46178094 -0.30396098
2.260021 0.39288098 -0.36981991
2.342814 0.38967511 -0.48746789
2.5407844 0.40689969 -0.65391928
2.5203879 0.46882626 -0.36732006
2.3048804 0.40585348 -0.43344671
2.4184327 0.40978837 -0.56554633
2.4470503 0.39792252 -0.69033909
2.2659309 0.4180361 -0.37947881
2.3397145 0.41688028 -0.49792129
2.5168798 0.4349992 -0.65396345
2.4737403 0.41012263 -0.76264256
2.3057828 0.42902684 -0.44304767
2.416333 0.43698996 -0.57601845
2.4948015 0.43712354 -0.7115311
2.4158633 0.40917772 -0.80859166
2.3405948 0.43907189 -0.50853997
2.4908774 0.45717922 -0.65807682
2.4458625 0.43520075 -0.76066631
-0.02611593 -0.059798401 0.050936799
2.4411314 0.46318531 -0.59201437
2.5026441 0.46434343 -0.72519022
2.3979568 0.4322384 -0.80783898
0.18050532 -0.019104574 -0.03222378
2.438997 0.46629193 -0.65293884
2.426847 0.45435616 -0.7649653
-0.02611593 -0.059798401 0.050936799
-0.02611593 -0.059798401 0.050936799
2.4925814 0.4815031 -0.73169369
-0.02611593 -0.059798401 0.050936799
0.18545999 -0.01606876 -0.035262655
0.1594412 -0.021974429 -0.03488221
2.4247417 0.47052339 -0.77363628
-0.02611593 -0.059798401 0.050936799
-0.02611593 -0.059798401 0.050936799
-0.02611593 -0.059798401 0.050936799
2.3589468 0.46150005 -0.81358123
0.18246447 -0.015058166 -0.035188265
0.16539572 -0.018942205 -0.037939891
0.13547124 -0.024923962 -0.032485977
-0.02611593 -0.059798401 0.050936799
-0.02611593 -0.059798401 0.050936799
-0.02611593 -0.059798401 0.050936799
-0.02611593 -0.059798401 0.050936799
0.17748412 -0.015058311 -0.034094661
0.16141908 -0.017946109 -0.036847051
0.14042202 -0.022887981 -0.035542876
0.12242833 -0.026840787 -0.034277052
-0.02611593 -0.059798401 0.050936799
-0.02611593 -0.059798401 0.050936799
-0.02611593 -0.059798401 0.050936799
-0.02611593 -0.059798401 0.050936799
0.14950705 -0.019993145 -0.03165929
0.14040722 -0.021870062 -0.036524523
0.12043262 -0.025833778 -0.034221455
0.10444248 -0.028793937 -0.032975208
-0.02611593 -0.059798401 0.050936799
-0.02611593 -0.059798401 0.050936799
-0.02611593 -0.059798401 0.050936799
-0.02611593 -0.059798401 0.050936799
0.1285139 -0.023935188 -0.030337103
0.12536466 -0.023779711 -0.038278021
0.10542751 -0.027779605 -0.033975631
0.08947482 -0.03077594 -0.030730065
-0.02611593 -0.059798401 0.050936799
-0.02611593 -0.059798401 0.050936799
-0.02611593 -0.059798401 0.050936799
-0.02611593 -0.059798401 0.050936799
0.11248633 -0.026859166 -0.03109017
0.1064086 -0.027765106 -0.034994088
0.093403123 -0.029718112 -0.034785852
0.077487879 -0.032750621 -0.029540952
-0.02611593 -0.059798401 0.050936799
-0.02611593 -0.059798401 0.050936799
-0.02611593 -0.059798401 0.050936799
-0.02611593 -0.059798401 0.050936799
0.095515102 -0.029833823 -0.028825469
0.093403123 -0.029718112 -0.034785852
0.085363224 -0.030653048 -0.03665287
0.066504687 -0.033729065 -0.028352618
-0.02611593 -0.059798401 0.050936799
-0.02611593 -0.059798401 0.050936799
-0.02611593 -0.059798401 0.050936799
-0.02611593 -0.059798401 0.050936799
0.089437373 -0.030739762 -0.032729391
0.083382308 -0.030663963 -0.03561563
0.074380018 -0.031631492 -0.035464533
0.062430538 -0.033642352 -0.032276098
-0.02611593 -0.059798401 0.050936799
-0.02611593 -0.059798401 0.050936799
-0.02611593 -0.059798401 0.050936799
-0.02611593 -0.059798401 0.050936799
0.071518578 -0.034764931 -0.027464923
0.071395367 -0.032638647 -0.034426514
0.062411819 -0.033624262 -0.03327575
0.055409167 -0.034598973 -0.033162236
-0.02611593 -0.059798401 0.050936799
-0.02611593 -0.059798401 0.050936799
-0.02611593 -0.059798401 0.050936799
-0.02611593 -0.059798401 0.050936799
0.065482229 -0.034707215 -0.029351503
0.067321211 -0.032551933 -0.038349997
0.058337655 -0.033537552 -0.03719924
0.047425427 -0.035588179 -0.032030281
-0.02611593 -0.059798401 0.050936799
-0.02611593 -0.059798401 0.050936799
-0.02611593 -0.059798401 0.050936799
-0.02611593 -0.059798401 0.050936799
0.055494923 -0.03668908 -0.028199974
0.05930002 -0.033504963 -0.039217357
0.050353911 -0.034526762 -0.036067277
0.043373916 -0.034519728 -0.034936082
-0.02611593 -0.059798401 0.050936799
-0.02611593 -0.059798401 0.050936799
-0.02611593 -0.059798401 0.050936799
-0.02611593 -0.059798401 0.050936799
0.048473548 -0.037645694 -0.02908612
0.050316468 -0.034490585 -0.038066596
0.042351451 -0.035497878 -0.03593497
0.034423873 -0.036541354 -0.031804018
-0.02611593 -0.059798401 0.050936799
-0.02611593 -0.059798401 0.050936799
-0.02611593 -0.059798401 0.050936799
-0.02611593 -0.059798401 0.050936799
