# .PCD v0.7 - Point Cloud Data file format
VERSION 0.7
FIELDS x y z
SIZE 4 4 4
TYPE F F F
COUNT 1 1 1
WIDTH 1389
HEIGHT 1
VIEWPOINT 0 0 0 1 0 0 0
POINTS 1389
DATA ascii
1.9176501 -0.28062469 3.9998882
1.963847 -0.42659616 3.9313595
2.0108635 -0.57540792 3.8537612
1.9377557 -0.13326924 3.9771698
1.982878 -0.27916479 3.9046612
2.0270121 -0.42205724 3.8322256
2.0709286 -0.56775022 3.7487392
1.9969393 -0.13375127 3.8800199
2.0492368 -0.27783507 3.8164127
2.0902522 -0.41759062 3.7370899
2.1382692 -0.56138873 3.6585631
2.0623276 -0.1344538 3.7937539
2.1084132 -0.27529952 3.7183175
2.151526 -0.41415286 3.6439734
2.2015734 -0.55497676 3.5664628
2.1216609 -0.13508055 3.7046013
2.1666985 -0.27386877 3.6262209
2.213897 -0.40980932 3.5558546
2.258822 -0.54848897 3.4714761
2.1779578 -0.13566035 3.6135061
2.2240589 -0.27250677 3.5381417
2.2692096 -0.4063862 3.4648499
2.3131092 -0.54202658 3.378545
2.2374594 -0.1364499 3.5333505
2.2825313 -0.27125686 3.4560418
2.3235035 -0.40294144 3.3728645
2.3745928 -0.53778803 3.296443
2.2877531 -0.138008 3.4423497
2.3337991 -0.2697829 3.3630769
2.3881135 -0.39984006 3.2976854
2.433006 -0.53246647 3.2104163
2.3432369 -0.13876511 3.36127
2.3902907 -0.26854393 3.2820144
2.4404826 -0.39646044 3.2097363
2.4853868 -0.52608734 3.1225209
2.3967175 -0.14051487 3.2802095
2.4437082 -0.26722184 3.1970093
2.4897964 -0.39301583 3.1188445
2.5408382 -0.52079123 3.0385501
2.45222 -0.14129007 3.2001293
2.4992707 -0.26705146 3.119946
2.5483849 -0.39087462 3.0427606
2.597379 -0.51658899 2.9595408
2.5017052 -0.14202562 3.1191618
2.5558372 -0.26588485 3.042882
2.596792 -0.38751683 2.9568858
2.6467564 -0.51119888 2.8716843
2.5542791 -0.14386225 3.0431182
2.5992711 -0.2655448 2.9590464
2.6483488 -0.38431457 2.878952
2.7023911 -0.50708348 2.7976921
2.6048539 -0.14569168 2.9671128
2.6538754 -0.26440719 2.8840194
2.6998825 -0.38209397 2.8000007
2.744751 -0.50165021 2.7089672
2.6523764 -0.14645624 2.8881824
2.7064574 -0.26424414 2.808012
2.7483835 -0.37882662 2.7191241
2.7973113 -0.49745172 2.6310325
2.7029698 -0.14830376 2.8131762
2.7529695 -0.26298738 2.7281368
2.800992 -0.37668201 2.6441526
2.8519273 -0.49331462 2.5560594
2.747437 -0.1490033 2.7313035
2.7954223 -0.26266178 2.6453199
2.8474705 -0.37438926 2.5622962
3.0314388 -0.50853348 2.5844328
2.7950306 -0.15084006 2.6563535
2.8460233 -0.26250967 2.5703497
2.9163682 -0.37459114 2.5029826
3.9981852 -0.63488084 3.2242639
2.8436618 -0.15271658 2.5833845
2.9098842 -0.26265743 2.509131
2.9791765 -0.37368119 2.4388011
4.314744 -0.66467094 3.3098273
2.891293 -0.15458952 2.5104342
2.9960699 -0.26520944 2.465456
3.034837 -0.37260148 2.3667543
4.3978829 -0.6611855 3.2092998
2.980572 -0.15724272 2.4717014
3.0436156 -0.26499224 2.3875437
3.0783386 -0.36931622 2.2859719
4.4637551 -0.65436828 3.0941508
3.0322402 -0.15916619 2.4006751
3.0932353 -0.26485461 2.3135917
3.1259258 -0.36813539 2.2100766
4.5306988 -0.6486268 2.9829636
3.0828707 -0.16104989 2.3276682
3.1347442 -0.26457974 2.2337925
3.1815712 -0.3660377 2.1370478
4.6026568 -0.64392114 2.872664
3.1254091 -0.16281444 2.2498138
3.1934566 -0.26456484 2.1646702
3.2271211 -0.36481351 2.0591908
4.6736522 -0.63924819 2.7643826
3.1770771 -0.1647379 2.1787872
3.2380025 -0.26433691 2.0868139
4.6607113 -0.48967558 2.79234
4.7496834 -0.63462925 2.6580067
3.2246854 -0.16759259 2.1048193
4.6557865 -0.35018438 2.8229659
4.7418385 -0.4891825 2.6917958
4.8196225 -0.62989831 2.5467451
3.2773533 -0.16951963 2.0337744
4.7258186 -0.3505612 2.7176123
4.8108077 -0.48648384 2.5825164
4.7362251 -0.60824972 2.3626356
4.7108865 -0.21805096 2.7492993
4.7978497 -0.35094514 2.6122205
4.6688328 -0.46606597 2.3684711
4.9423428 -0.61821312 2.3155804
4.7789073 -0.22142006 2.643929
4.5740838 -0.33447596 2.3576221
4.9406486 -0.48196727 2.3590913
5.0475407 -0.6178785 2.2185841
4.551065 -0.21489868 2.3872259
4.6482463 -0.33499375 2.2591908
5.0216684 -0.48036578 2.2525673
5.1133685 -0.61302471 2.1013994
4.7514205 -0.2220581 2.3523333
4.9785194 -0.35155541 2.2737126
5.0925765 -0.4786199 2.1402333
13.488649 -1.4836447 5.074851
4.7922401 -0.22513132 2.2364745
5.0756922 -0.35317367 2.1758306
5.1634851 -0.47687399 2.0278993
13.658995 -1.4708147 4.7697906
5.0548902 -0.23582026 2.2173569
5.1496639 -0.35451037 2.0673847
13.62939 -1.1387613 4.8873911
13.847407 -1.4591217 4.4683723
5.1248164 -0.2391061 2.106951
13.568353 -0.82724893 4.9862027
13.812829 -1.1351031 4.588922
14.050771 -1.4494461 4.1646366
13.513485 -0.53499007 5.0975542
13.754825 -0.82965481 4.690567
14.008265 -1.131488 4.2902265
14.26513 -1.4408096 3.8606763
13.699089 -0.54655367 4.8107729
13.949323 -0.83412516 4.3967452
14.205532 -1.1277173 3.9824972
14.462308 -1.4309313 3.5470572
13.891513 -0.55596179 4.5138988
14.151711 -0.83751601 4.0967932
14.419826 -1.1260434 3.6764116
14.679389 -1.4210346 3.2280641
14.077928 -0.56734806 4.2171025
14.343934 -0.84070814 3.7880316
14.613945 -1.1221173 3.3607414
14.883324 -1.4109464 2.9013176
14.278323 -0.57876647 3.9190431
14.547168 -0.84495759 3.4800453
14.832973 -1.120208 3.0405664
15.097289 -1.4019297 2.5763643
14.481638 -0.5911231 3.6169102
14.763411 -0.85127145 3.1727784
13.220052 -0.99025315 2.3968971
15.311049 -1.3927146 2.2404149
14.329317 -0.59052873 3.2286413
13.307544 -0.76712555 2.5393436
12.442933 -0.92230862 1.9595279
15.546673 -1.3834515 1.8970547
13.485602 -0.56395072 2.7147443
12.589337 -0.72440654 2.1014147
11.732633 -0.85941434 1.5658307
15.77115 -1.3740045 1.5459037
12.822257 -0.54438907 2.2733681
12.07535 -0.69266284 1.7284857
11.454881 -0.82774425 1.2564991
6.0793142 -0.5566259 0.48178574
12.197658 -0.52468759 1.8712826
11.573842 -0.66243219 1.3813044
6.1349425 -0.46506551 0.55042362
5.9925799 -0.53861362 0.33368528
11.641863 -0.50802565 1.5118682
15.812963 -0.8781504 1.4940727
5.9820781 -0.44968927 0.39651173
6.0029278 -0.52907467 0.19061556
11.125673 -0.49310046 1.1846917
6.0525966 -0.37112626 0.46163458
6.0395021 -0.44742641 0.25843072
3.886517 -0.35820463 0.050283741
6.1282096 -0.30170634 0.533499
6.0279045 -0.36844251 0.31809682
6.0608315 -0.44192627 0.11508225
-0.02611593 -0.059798401 0.050936799
5.963285 -0.29726705 0.37861466
6.03124 -0.3668952 0.17601417
3.8777833 -0.30126292 0.00046037883
3.613385 -0.32505691 -0.12006062
6.0046659 -0.30192745 0.2397085
3.8666775 -0.25591505 0.039501838
-0.02611593 -0.059798401 0.050936799
4.0691581 -0.35072449 -0.23809823
6.0720005 -0.30764487 0.098296463
-0.02611593 -0.059798401 0.050936799
3.6546326 -0.28032872 -0.16904041
-0.02611593 -0.059798401 0.050936799
-0.02611593 -0.059798401 0.050936799
3.6334829 -0.24192573 -0.13093683
-0.02611593 -0.059798401 0.050936799
3.7971723 -0.31872487 -0.40048215
-0.02611593 -0.059798401 0.050936799
3.6548419 -0.24243419 -0.21837556
-0.02611593 -0.059798401 0.050936799
4.3808794 -0.35187727 -0.57506955
-0.02611593 -0.059798401 0.050936799
-0.02611593 -0.059798401 0.050936799
3.8283045 -0.27986938 -0.45438039
4.3121338 -0.33990192 -0.66959786
-0.02611593 -0.059798401 0.050936799
3.8012216 -0.24853407 -0.41129193
1.9361383 -0.17004943 -0.25289914
4.0561209 -0.3168869 -0.72540718
-0.02611593 -0.059798401 0.050936799
1.9285918 -0.15540314 -0.23148568
4.2175369 -0.29481232 -0.70902449
3.3840048 -0.26904017 -0.68094277
3.8592143 -0.22971779 -0.46905693
4.2762613 -0.27063981 -0.67567545
3.5013497 -0.25275239 -0.66684043
3.3695102 -0.26252913 -0.76158106
-0.02611593 -0.059798401 0.050936799
3.48915 -0.23139687 -0.62821269
3.846261 -0.26814038 -0.83163232
3.4525437 -0.26195276 -0.86716098
4.143683 -0.24650066 -0.70976812
3.43874 -0.2288464 -0.70324808
3.4553626 -0.2446866 -0.82688779
3.7463639 -0.27404967 -1.0369384
3.5142443 -0.22158726 -0.67852211
3.378448 -0.22536875 -0.77207971
3.553236 -0.24601899 -0.94078296
3.6312668 -0.26152089 -1.0965772
3.9636595 -0.24391675 -0.86940497
3.5062208 -0.23173563 -0.89062732
3.6808107 -0.25018722 -1.0702908
2.029757 -0.16931996 -0.64677227
3.4183664 -0.22146726 -0.83077645
3.7253249 -0.241817 -1.0449641
3.5776584 -0.24166463 -1.1322263
3.4638965 -0.24054404 -1.2251076
3.7459884 -0.23952238 -1.0102978
3.6102045 -0.23528714 -1.1047109
3.4914806 -0.23418482 -1.1954991
-0.02611593 -0.059798401 0.050936799
3.6556754 -0.23791865 -1.0796014
3.5190122 -0.23178872 -1.1679618
-0.02611593 -0.059798401 0.050936799
0.18027149 -0.069059886 -0.03512403
2.0389779 -0.16053468 -0.63678265
-0.02611593 -0.059798401 0.050936799
0.18924716 -0.070073932 -0.036310814
-0.02611593 -0.059798401 0.050936799
3.4722409 -0.23388147 -1.2081376
0.19324644 -0.07008829 -0.03638598
-0.02611593 -0.059798401 0.050936799
0.15230319 -0.066977829 -0.033562191
-0.02611593 -0.059798401 0.050936799
-0.02611593 -0.059798401 0.050936799
0.16027905 -0.067988284 -0.0347302
-0.02611593 -0.059798401 0.050936799
0.17730555 -0.070085131 -0.033086352
0.17319788 -0.06896241 -0.038991142
-0.02611593 -0.059798401 0.050936799
0.13231076 -0.065906219 -0.033168364
-0.02611593 -0.059798401 0.050936799
-0.02611593 -0.059798401 0.050936799
0.14026792 -0.066898592 -0.035336021
-0.02611593 -0.059798401 0.050936799
0.15329513 -0.068981074 -0.03361702
0.14920618 -0.067876451 -0.038522147
-0.02611593 -0.059798401 0.050936799
0.11631761 -0.064848967 -0.032849696
-0.02611593 -0.059798401 0.050936799
-0.02611593 -0.059798401 0.050936799
0.12325624 -0.065819658 -0.035998233
-0.02611593 -0.059798401 0.050936799
0.13132182 -0.067920387 -0.032185949
0.1302136 -0.066808432 -0.03814711
-0.02611593 -0.059798401 0.050936799
0.1033052 -0.063784391 -0.033587065
-0.02611593 -0.059798401 0.050936799
-0.02611593 -0.059798401 0.050936799
0.10331999 -0.064802311 -0.032605417
-0.02611593 -0.059798401 0.050936799
0.11628711 -0.067830369 -0.033903416
0.11617871 -0.066722006 -0.03988336
-0.02611593 -0.059798401 0.050936799
0.089330412 -0.062752403 -0.032306314
-0.02611593 -0.059798401 0.050936799
-0.02611593 -0.059798401 0.050936799
0.091326118 -0.063759416 -0.032361913
-0.02611593 -0.059798401 0.050936799
0.10129378 -0.066776708 -0.033603538
0.10318501 -0.065675519 -0.039621066
-0.02611593 -0.059798401 0.050936799
0.079317451 -0.061698597 -0.033100054
-0.02611593 -0.059798401 0.050936799
-0.02611593 -0.059798401 0.050936799
0.083271421 -0.063676439 -0.035210572
-0.02611593 -0.059798401 0.050936799
0.090277076 -0.066719145 -0.034396496
0.088229127 -0.064658038 -0.037321873
-0.02611593 -0.059798401 0.050936799
0.072262563 -0.061619215 -0.035967506
-0.02611593 -0.059798401 0.050936799
-0.02611593 -0.059798401 0.050936799
0.071296267 -0.062651634 -0.033967402
-0.02611593 -0.059798401 0.050936799
0.080278911 -0.066683255 -0.034208588
0.080174431 -0.064575054 -0.040170532
-0.02611593 -0.059798401 0.050936799
0.060324855 -0.060630582 -0.032725018
-0.02611593 -0.059798401 0.050936799
-0.02611593 -0.059798401 0.050936799
0.067222111 -0.062564917 -0.037890892
-0.02611593 -0.059798401 0.050936799
0.066341557 -0.06568744 -0.03092853
0.068214066 -0.064568169 -0.037945721
-0.02611593 -0.059798401 0.050936799
0.04940176 -0.060663462 -0.028519679
-0.02611593 -0.059798401 0.050936799
-0.02611593 -0.059798401 0.050936799
0.051378749 -0.061652377 -0.029574934
-0.02611593 -0.059798401 0.050936799
0.058324307 -0.065640643 -0.031777862
0.060200736 -0.063521534 -0.038777035
-0.02611593 -0.059798401 0.050936799
0.047312442 -0.059566006 -0.033462375
-0.02611593 -0.059798401 0.050936799
-0.02611593 -0.059798401 0.050936799
0.047323309 -0.061583754 -0.032498758
-0.02611593 -0.059798401 0.050936799
0.0483675 -0.064641103 -0.029572621
0.053183299 -0.063478321 -0.039645169
-0.02611593 -0.059798401 0.050936799
0.036408067 -0.059616975 -0.028257381
-0.02611593 -0.059798401 0.050936799
-0.02611593 -0.059798401 0.050936799
0.04228678 -0.061529636 -0.034404121
-0.02611593 -0.059798401 0.050936799
0.042349882 -0.064601481 -0.030459534
0.046184581 -0.063453205 -0.039513636
-0.02611593 -0.059798401 0.050936799
0.033352446 -0.059551943 -0.031199988
-0.02611593 -0.059798401 0.050936799
-0.02611593 -0.059798401 0.050936799
0.035310712 -0.060522772 -0.033254907
-0.02611593 -0.059798401 0.050936799
0.035351165 -0.064576358 -0.030328002
0.04114804 -0.063399084 -0.041418999
-0.02611593 -0.059798401 0.050936799
0.028319843 -0.058497988 -0.033087336
-0.02611593 -0.059798401 0.050936799
-0.02611593 -0.059798401 0.050936799
0.029293083 -0.06048315 -0.034141831
-0.02611593 -0.059798401 0.050936799
0.031314448 -0.06452582 -0.032252166
0.034153253 -0.062374126 -0.041269448
-0.02611593 -0.059798401 0.050936799
-0.02611593 -0.059798401 0.050936799
-0.02611593 -0.059798401 0.050936799
-0.02611593 -0.059798401 0.050936799
0.025256369 -0.060432617 -0.036065996
-0.02611593 -0.059798401 0.050936799
0.026296645 -0.064489797 -0.033157866
0.024267422 -0.062446773 -0.035083577
-0.02611593 -0.059798401 0.050936799
-0.02611593 -0.059798401 0.050936799
-0.02611593 -0.059798401 0.050936799
-0.02611593 -0.059798401 0.050936799
-0.02611593 -0.059798401 0.050936799
-0.02611593 -0.059798401 0.050936799
-0.02611593 -0.059798401 0.050936799
0.021193076 -0.062363651 -0.039025851
-0.02611593 -0.059798401 0.050936799
-0.02611593 -0.059798401 0.050936799
-0.02611593 -0.059798401 0.050936799
-0.02611593 -0.059798401 0.050936799
-0.02611593 -0.059798401 0.050936799
-0.02611593 -0.059798401 0.050936799
-0.02611593 -0.059798401 0.050936799
-0.02611593 -0.059798401 0.050936799
-0.02611593 -0.059798401 0.050936799
-0.02611593 -0.059798401 0.050936799
-0.02611593 -0.059798401 0.050936799
-0.02611593 -0.059798401 0.050936799
-0.02611593 -0.059798401 0.050936799
-0.02611593 -0.059798401 0.050936799
-0.02611593 -0.059798401 0.050936799
-0.02611593 -0.059798401 0.050936799
-0.02611593 -0.059798401 0.050936799
-0.02611593 -0.059798401 0.050936799
-0.02611593 -0.059798401 0.050936799
-0.02611593 -0.059798401 0.050936799
-0.02611593 -0.059798401 0.050936799
-0.02611593 -0.059798401 0.050936799
-0.02611593 -0.059798401 0.050936799
-0.02611593 -0.059798401 0.050936799
-0.02611593 -0.059798401 0.050936799
-0.02611593 -0.059798401 0.050936799
-0.02611593 -0.059798401 0.050936799
-0.02611593 -0.059798401 0.050936799
-0.02611593 -0.059798401 0.050936799
-0.02611593 -0.059798401 0.050936799
-0.02611593 -0.059798401 0.050936799
-0.02611593 -0.059798401 0.050936799
-0.02611593 -0.059798401 0.050936799
-0.02611593 -0.059798401 0.050936799
-0.02611593 -0.059798401 0.050936799
-0.02611593 -0.059798401 0.050936799
-0.02611593 -0.059798401 0.050936799
-0.02611593 -0.059798401 0.050936799
-0.02611593 -0.059798401 0.050936799
-0.02611593 -0.059798401 0.050936799
-0.02611593 -0.059798401 0.050936799
-0.02611593 -0.059798401 0.050936799
-0.02611593 -0.059798401 0.050936799
-0.02611593 -0.059798401 0.050936799
-0.02611593 -0.059798401 0.050936799
-0.02611593 -0.059798401 0.050936799
-0.02611593 -0.059798401 0.050936799
-0.02611593 -0.059798401 0.050936799
-0.02611593 -0.059798401 0.050936799
-0.02611593 -0.059798401 0.050936799
-0.02611593 -0.059798401 0.050936799
-0.02611593 -0.059798401 0.050936799
-0.02611593 -0.059798401 0.050936799
-0.02611593 -0.059798401 0.050936799
-0.02611593 -0.059798401 0.050936799
-0.02611593 -0.059798401 0.050936799
-0.02611593 -0.059798401 0.050936799
-0.02611593 -0.059798401 0.050936799
-0.02611593 -0.059798401 0.050936799
-0.02611593 -0.059798401 0.050936799
-0.02611593 -0.059798401 0.050936799
-0.02611593 -0.059798401 0.050936799
-0.02611593 -0.059798401 0.050936799
-0.02611593 -0.059798401 0.050936799
-0.02611593 -0.059798401 0.050936799
-0.02611593 -0.059798401 0.050936799
-0.02611593 -0.059798401 0.050936799
-0.02611593 -0.059798401 0.050936799
-0.02611593 -0.059798401 0.050936799
-0.02611593 -0.059798401 0.050936799
-0.02611593 -0.059798401 0.050936799
-0.02611593 -0.059798401 0.050936799
-0.02611593 -0.059798401 0.050936799
-0.02611593 -0.059798401 0.050936799
-0.02611593 -0.059798401 0.050936799
-0.02611593 -0.059798401 0.050936799
-0.02611593 -0.059798401 0.050936799
-0.02611593 -0.059798401 0.050936799
-0.02611593 -0.059798401 0.050936799
-0.02611593 -0.059798401 0.050936799
-0.02611593 -0.059798401 0.050936799
-0.02611593 -0.059798401 0.050936799
-0.02611593 -0.059798401 0.050936799
-0.02611593 -0.059798401 0.050936799
-0.02611593 -0.059798401 0.050936799
-0.02611593 -0.059798401 0.050936799
-0.02611593 -0.059798401 0.050936799
-0.02611593 -0.059798401 0.050936799
-0.02611593 -0.059798401 0.050936799
-0.02611593 -0.059798401 0.050936799
-0.02611593 -0.059798401 0.050936799
-0.02611593 -0.059798401 0.050936799
-0.02611593 -0.059798401 0.050936799
-0.02611593 -0.059798401 0.050936799
-0.02611593 -0.059798401 0.050936799
-0.02611593 -0.059798401 0.050936799
-0.02611593 -0.059798401 0.050936799
-0.02611593 -0.059798401 0.050936799
-0.02611593 -0.059798401 0.050936799
-0.02611593 -0.059798401 0.050936799
-0.02611593 -0.059798401 0.050936799
-0.02611593 -0.059798401 0.050936799
-0.02611593 -0.059798401 0.050936799
-0.02611593 -0.059798401 0.050936799
-0.02611593 -0.059798401 0.050936799
-0.02611593 -0.059798401 0.050936799
-0.02611593 -0.059798401 0.050936799
-0.02611593 -0.059798401 0.050936799
-0.02611593 -0.059798401 0.050936799
-0.02611593 -0.059798401 0.050936799
-0.02611593 -0.059798401 0.050936799
-0.02611593 -0.059798401 0.050936799
-0.02611593 -0.059798401 0.050936799
-0.02611593 -0.059798401 0.050936799
-0.02611593 -0.059798401 0.050936799
-0.02611593 -0.059798401 0.050936799
-0.02611593 -0.059798401 0.050936799
-0.02611593 -0.059798401 0.050936799
-0.02611593 -0.059798401 0.050936799
-0.02611593 -0.059798401 0.050936799
-0.02611593 -0.059798401 0.050936799
-0.02611593 -0.059798401 0.050936799
-0.02611593 -0.059798401 0.050936799
-0.02611593 -0.059798401 0.050936799
-0.02611593 -0.059798401 0.050936799
-0.02611593 -0.059798401 0.050936799
-0.02611593 -0.059798401 0.050936799
-0.02611593 -0.059798401 0.050936799
-0.02611593 -0.059798401 0.050936799
-0.02611593 -0.059798401 0.050936799
-0.02611593 -0.059798401 0.050936799
-0.02611593 -0.059798401 0.050936799
-0.02611593 -0.059798401 0.050936799
-0.02611593 -0.059798401 0.050936799
-0.02611593 -0.059798401 0.050936799
-0.02611593 -0.059798401 0.050936799
-0.02611593 -0.059798401 0.050936799
-0.02611593 -0.059798401 0.050936799
-0.02611593 -0.059798401 0.050936799
-0.02611593 -0.059798401 0.050936799
-0.02611593 -0.059798401 0.050936799
-0.02611593 -0.059798401 0.050936799
-0.02611593 -0.059798401 0.050936799
-0.02611593 -0.059798401 0.050936799
-0.02611593 -0.059798401 0.050936799
-0.02611593 -0.059798401 0.050936799
-0.02611593 -0.059798401 0.050936799
-0.02611593 -0.059798401 0.050936799
-0.02611593 -0.059798401 0.050936799
-0.02611593 -0.059798401 0.050936799
-0.02611593 -0.059798401 0.050936799
-0.02611593 -0.059798401 0.050936799
-0.02611593 -0.059798401 0.050936799
-0.02611593 -0.059798401 0.050936799
-0.02611593 -0.059798401 0.050936799
-0.02611593 -0.059798401 0.050936799
-0.02611593 -0.059798401 0.050936799
-0.02611593 -0.059798401 0.050936799
-0.02611593 -0.059798401 0.050936799
-0.02611593 -0.059798401 0.050936799
-0.02611593 -0.059798401 0.050936799
-0.02611593 -0.059798401 0.050936799
-0.02611593 -0.059798401 0.050936799
-0.02611593 -0.059798401 0.050936799
-0.02611593 -0.059798401 0.050936799
-0.02611593 -0.059798401 0.050936799
-0.02611593 -0.059798401 0.050936799
-0.02611593 -0.059798401 0.050936799
-0.02611593 -0.059798401 0.050936799
-0.02611593 -0.059798401 0.050936799
-0.02611593 -0.059798401 0.050936799
-0.02611593 -0.059798401 0.050936799
-0.02611593 -0.059798401 0.050936799
-0.02611593 -0.059798401 0.050936799
-0.02611593 -0.059798401 0.050936799
-0.077720851 -0.059063125 -0.03411255
-0.02611593 -0.059798401 0.050936799
-0.02611593 -0.059798401 0.050936799
-0.02611593 -0.059798401 0.050936799
-0.02611593 -0.059798401 0.050936799
-0.02611593 -0.059798401 0.050936799
-0.02611593 -0.059798401 0.050936799
-0.02611593 -0.059798401 0.050936799
-0.081663966 -0.059103038 -0.031038392
-0.02611593 -0.059798401 0.050936799
-0.02611593 -0.059798401 0.050936799
-0.02611593 -0.059798401 0.050936799
-0.02611593 -0.059798401 0.050936799
-0.02611593 -0.059798401 0.050936799
-0.02611593 -0.059798401 0.050936799
-0.087655917 -0.062099081 -0.029980052
-0.088700131 -0.059041739 -0.032906193
-0.02611593 -0.059798401 0.050936799
-0.02611593 -0.059798401 0.050936799
-0.02611593 -0.059798401 0.050936799
-0.02611593 -0.059798401 0.050936799
-0.089654639 -0.057074666 -0.030852031
-0.02611593 -0.059798401 0.050936799
-0.095695831 -0.063034028 -0.031847067
-0.096736096 -0.058976848 -0.034755189
-0.02611593 -0.059798401 0.050936799
-0.089601487 -0.053111527 -0.028780639
-0.02611593 -0.059798401 0.050936799
-0.02611593 -0.059798401 0.050936799
-0.093612537 -0.056096658 -0.028759532
-0.02611593 -0.059798401 0.050936799
-0.10063481 -0.062070515 -0.028736107
-0.10169775 -0.058995083 -0.032661915
-0.02611593 -0.059798401 0.050936799
-0.094581842 -0.053111672 -0.027687028
-0.02611593 -0.059798401 0.050936799
-0.02611593 -0.059798401 0.050936799
-0.099611431 -0.056075126 -0.028646789
-0.02611593 -0.059798401 0.050936799
-0.10967062 -0.062002037 -0.030566312
-0.11073354 -0.058926601 -0.03449212
-0.02611593 -0.059798401 0.050936799
-0.10261783 -0.053046782 -0.029536027
-0.02611593 -0.059798401 0.050936799
-0.02611593 -0.059798401 0.050936799
-0.10966577 -0.055984966 -0.031457867
-0.02611593 -0.059798401 0.050936799
-0.11259517 -0.062063627 -0.026511304
-0.11870942 -0.057916149 -0.033324119
-0.02611593 -0.059798401 0.050936799
-0.10859408 -0.052043505 -0.028405599
-0.02611593 -0.059798401 0.050936799
-0.02611593 -0.059798401 0.050936799
-0.11664577 -0.055977933 -0.030326668
-0.02611593 -0.059798401 0.050936799
-0.12463043 -0.061984379 -0.028285135
-0.12772651 -0.057865761 -0.034154661
-0.02611593 -0.059798401 0.050936799
-0.11253718 -0.052083418 -0.02533146
-0.02611593 -0.059798401 0.050936799
-0.02611593 -0.059798401 0.050936799
-0.12057015 -0.056035936 -0.02625287
-0.02611593 -0.059798401 0.050936799
-0.13666567 -0.061905134 -0.030058969
-0.13974303 -0.057804607 -0.034928836
-0.02611593 -0.059798401 0.050936799
-0.11951717 -0.052076384 -0.024200261
-0.02611593 -0.059798401 0.050936799
-0.02611593 -0.059798401 0.050936799
-0.13362001 -0.054935183 -0.028989561
-0.02611593 -0.059798401 0.050936799
-0.14664511 -0.061887335 -0.02887141
-0.14770411 -0.057812072 -0.032779191
-0.02611593 -0.059798401 0.050936799
-0.13460411 -0.050932273 -0.028898694
-0.02611593 -0.059798401 0.050936799
-0.02611593 -0.059798401 0.050936799
-0.13854422 -0.054989595 -0.024896964
-0.02611593 -0.059798401 0.050936799
-0.1586242 -0.061862361 -0.027646258
-0.15564649 -0.057837628 -0.029629875
-0.02611593 -0.059798401 0.050936799
-0.13952832 -0.050986685 -0.024806097
-0.02611593 -0.059798401 0.050936799
-0.02611593 -0.059798401 0.050936799
-0.15156054 -0.054924849 -0.025652345
-0.02611593 -0.059798401 0.050936799
-0.1716031 -0.061833791 -0.026402321
-0.17671753 -0.057689905 -0.033233926
-0.02611593 -0.059798401 0.050936799
-0.15657744 -0.049871575 -0.02746762
-0.02611593 -0.059798401 0.050936799
-0.02611593 -0.059798401 0.050936799
-0.16959077 -0.053824242 -0.027295414
-0.02611593 -0.059798401 0.050936799
-0.19363652 -0.061718654 -0.027988255
-0.18865916 -0.057701103 -0.030009452
-0.02611593 -0.059798401 0.050936799
-0.16553834 -0.049875453 -0.025299184
-0.02611593 -0.059798401 0.050936799
-0.02611593 -0.059798401 0.050936799
-0.18660636 -0.053745143 -0.027975641
-0.02611593 -0.059798401 0.050936799
-0.21665104 -0.061618019 -0.028555725
-0.21269222 -0.057578791 -0.031557806
-0.02611593 -0.059798401 0.050936799
-0.18354984 -0.048792936 -0.025942594
-0.02611593 -0.059798401 0.050936799
-0.02611593 -0.059798401 0.050936799
-0.19954392 -0.052752923 -0.024714362
-0.02611593 -0.059798401 0.050936799
-0.24464983 -0.062517367 -0.02804761
-0.23768763 -0.057489071 -0.031088043
-0.02611593 -0.059798401 0.050936799
-0.20556062 -0.047696061 -0.026510842
-0.02611593 -0.059798401 0.050936799
-0.02611593 -0.059798401 0.050936799
-0.23562701 -0.051533446 -0.029018186
-0.02611593 -0.059798401 0.050936799
-1.0433003 -0.070088685 -0.26631245
-0.25358716 -0.056522261 -0.025771063
-0.02611593 -0.059798401 0.050936799
-0.23558865 -0.046552382 -0.027928427
-1.0428057 -0.068559341 -0.24028525
-0.02611593 -0.059798401 0.050936799
-0.25153047 -0.051566467 -0.023719233
-0.02611593 -0.059798401 0.050936799
-1.0473514 -0.067975707 -0.21618143
-1.0396707 -0.043610536 -0.23789179
-0.02611593 -0.059798401 0.050936799
-0.26357961 -0.045452062 -0.027384274
-1.0709686 -0.067251518 -0.19571918
-1.0522524 -0.042962007 -0.215637
-1.0254517 -0.020791316 -0.23074283
-0.02611593 -0.059798401 0.050936799
-1.0664749 -0.065736532 -0.16976711
-1.0547986 -0.042385552 -0.19157073
-1.0420703 -0.020092255 -0.21041213
-1.0313681 0.00022664666 -0.2302517
-1.0810562 -0.065080822 -0.14747469
-1.0713984 -0.04170458 -0.17024039
-1.0536749 -0.020429058 -0.18919377
-1.0319226 -0.0012037284 -0.20625907
-1.0835798 -0.063522622 -0.12239076
-1.0769479 -0.042117186 -0.14613578
-1.0662607 -0.020780362 -0.16695696
-1.0575769 -0.00043619331 -0.18775861
-1.1041602 -0.062845387 -0.0999856
-1.0704583 -0.041609202 -0.12023931
-1.0728287 -0.021171287 -0.14383322
-1.0611494 -0.0018377122 -0.16470924
-1.1076834 -0.0612836 -0.074882865
-1.1010742 -0.040859897 -0.09964557
-1.0583071 -0.021728026 -0.11610579
-1.0627036 -0.0032645066 -0.14069781
-1.1222274 -0.060664076 -0.050591126
-1.1136186 -0.040247552 -0.075391404
-1.072911 -0.022054063 -0.094831027
-1.0592401 -0.0047273263 -0.11578069
-1.1187371 -0.060145326 -0.024638295
-1.1041294 -0.039750334 -0.049551308
-1.0834745 -0.021430802 -0.071614131
-1.0708261 -0.0050822189 -0.093562648
-1.1342771 -0.058522377 -0.00030974299
-1.1216917 -0.039101951 -0.02620285
-1.0830065 -0.021883028 -0.046622589
-1.0743759 -0.0055020005 -0.069495618
-1.1548014 -0.057899408 0.025094412
-1.1272224 -0.039532647 -0.0010985807
-1.112604 -0.0211554 -0.02504798
-1.0989782 -0.0057921484 -0.048032969
-0.02611593 -0.059798401 0.050936799
-1.1407479 -0.038934793 0.024174031
-1.1351503 -0.021506991 -0.00062392652
-1.1085269 -0.0061903959 -0.023853205
-0.02611593 -0.059798401 0.050936799
-1.1542734 -0.038336948 0.049446646
-1.1306829 -0.021973575 0.024292435
-1.1250933 -0.0065454328 -0.0005415529
-0.02611593 -0.059798401 0.050936799
-1.1647995 -0.03774986 0.074662879
-1.1542066 -0.021339837 0.049752954
-1.1396265 -0.0079436554 0.024713811
-1.212782 -0.053602535 0.13229403
-1.1962841 -0.037123598 0.10227305
-1.1477396 -0.021813596 0.074631736
-1.1411579 -0.0083887056 0.049742918
-0.02611593 -0.059798401 0.050936799
-0.02611593 -0.059798401 0.050936799
-1.1642498 -0.022222901 0.10094237
-1.1496922 -0.0098084621 0.074885547
-1.2277002 -0.051576696 0.18962941
-1.2192234 -0.036050789 0.15874109
-1.1977153 -0.021607542 0.12958978
-1.167202 -0.010214177 0.10121496
-1.2261683 -0.05008712 0.21763715
-0.02611593 -0.059798401 0.050936799
-0.02611593 -0.059798401 0.050936799
-0.02611593 -0.059798401 0.050936799
-1.2236592 -0.049582873 0.24460846
-1.2311647 -0.035017461 0.21500242
-1.2515928 -0.020477746 0.1896393
-0.02611593 -0.059798401 0.050936799
-1.2609891 -0.048079949 0.28034669
-1.2336172 -0.034531444 0.24406698
-0.02611593 -0.059798401 0.050936799
-0.02611593 -0.059798401 0.050936799
-1.270399 -0.046605162 0.31156009
-1.2510108 -0.034045864 0.2764124
-1.238569 -0.022515543 0.24437717
-0.02611593 -0.059798401 0.050936799
-0.02611593 -0.059798401 0.050936799
-0.02611593 -0.059798401 0.050936799
-0.02611593 -0.059798401 0.050936799
-1.2345533 -0.013513337 0.24346448
-0.02611593 -0.059798401 0.050936799
-0.02611593 -0.059798401 0.050936799
-0.02611593 -0.059798401 0.050936799
-0.02611593 -0.059798401 0.050936799
-6.2538929 0.027986001 1.8097215
-1.3558707 -0.029688846 0.39049312
-0.02611593 -0.059798401 0.050936799
-0.02611593 -0.059798401 0.050936799
-3.0928192 -0.013711497 0.9925065
-6.2688837 0.082229637 1.7999802
-0.02611593 -0.059798401 0.050936799
-1.26581 -0.016077019 0.33703506
-3.1062806 -0.010123723 1.073851
-3.095814 0.011385458 0.98801506
-6.2637792 0.12325898 1.797626
-0.02611593 -0.059798401 0.050936799
-3.1733532 -0.0057041077 1.1762215
-3.099345 0.011992127 1.0661186
-3.1017234 0.029385846 0.98945177
-6.2626743 0.14523356 1.7990031
-3.2462523 -0.00042592734 1.2877195
-3.1684065 0.014401171 1.1694902
-3.101263 0.027978491 1.0674441
-3.0996926 0.037377309 0.98955834
-3.3111758 0.0038418062 1.3980498
-3.2472937 0.01768313 1.2820648
-3.1693516 0.028402381 1.1697612
-3.1071823 0.033944741 1.0706639
-3.3948257 0.009924138 1.5227681
-3.3052638 0.01996226 1.3902279
-3.2442887 0.028706672 1.2802073
-3.1782405 0.032343559 1.1750008
-3.4724247 0.014930846 1.6503549
-3.3958642 0.024015795 1.5180409
-3.3121672 0.029931422 1.3935387
-3.2511859 0.030641019 1.2853732
-4.7826271 0.049741574 2.3907657
-3.4853752 0.026975455 1.6508154
-3.3948221 0.029993091 1.5191299
-3.3240378 0.028848033 1.4007438
-4.6592436 0.052964278 2.4625385
-4.7797298 0.06187347 2.3829286
-3.4793606 0.030953242 1.6507747
-3.4027014 0.026895698 1.5262237
-4.5963216 0.05689925 2.5634658
-4.66923 0.061016902 2.4618711
-4.7736664 0.063797332 2.3858509
-3.4802716 0.024849322 1.6566834
-4.7471194 0.067473575 2.7865562
-4.5963812 0.060970929 2.5595393
-4.6513004 0.05800708 2.4584799
-4.7606826 0.050716724 2.3873715
-4.6435642 0.070605256 2.8677015
-4.7451987 0.066538915 2.7825019
-4.5913491 0.054899737 2.5623364
-4.6571193 0.041796178 2.4712996
-3.4530618 0.042060323 2.249686
-4.6515226 0.06658037 2.8707786
-3.4421725 0.024899207 2.0340989
-4.6179509 0.035547655 2.5874927
-4.420794 0.077136815 3.0116975
-3.4155722 0.033377703 2.2238185
-4.6286612 0.05157274 2.8660777
-3.4549413 0.006659504 2.0500133
-3.2702365 0.045636985 2.3443601
-4.4149251 0.063189998 3.007334
-3.3294895 0.018882021 2.1769288
-4.6215467 0.023335312 2.8774374
-2.6063542 0.027907427 1.9624802
-3.2721899 0.033555757 2.3491795
-4.4028788 0.042023893 3.0137277
-3.2720106 -0.0059239194 2.1533957
-2.7455926 0.036855042 2.1623168
-2.6171751 0.015731875 1.9744667
-3.265172 0.014443416 2.3537042
-4.3858514 0.0068060346 3.0217745
-3.9946334 0.088630244 3.2800176
-2.7347138 0.020872563 2.1588228
-2.6042295 -0.0023298115 1.9748976
-4.2814331 -0.00097354501 3.0977044
-2.4179568 0.033922952 2.0871038
-3.990669 0.060548291 3.2834363
-2.7227275 -0.0012391172 2.1621995
-2.6020696 -0.028585814 1.9883869
-1.9096676 0.01739132 1.7281667
-2.4238093 0.013730828 2.0988524
-3.9756224 0.025319517 3.2925205
-2.724508 -0.031552441 2.1796904
-1.8620319 0.018607264 1.7613082
-1.904683 -0.00067783706 1.7307475
-2.4177177 -0.01046752 2.1083035
-3.9585221 -0.025022414 3.3072948
-1.8252215 0.020699719 1.8036711
-1.855074 -0.0014506336 1.7628155
-1.8946925 -0.02178251 1.7341797
-2.5483544 -0.041354928 2.2412357
-1.9895444 0.031871878 2.0520339
-1.8545644 0.00010532141 1.8428613
-1.8460311 -0.023605816 1.7692475
-1.8885415 -0.050052531 1.7475578
-2.1799898 0.045308325 2.3469424
-2.0227716 0.0071658976 2.0982249
-1.8985419 -0.023796523 1.9022725
-1.8310542 -0.052745163 1.7734414
-3.3220582 0.10895716 3.725944
-2.2376475 0.016131986 2.4245205
-2.0715618 -0.021916131 2.1686361
-1.9375181 -0.056750957 1.9634268
-3.2347999 0.11243567 3.7913957
-3.3109651 0.056637079 3.7407949
-2.2618213 -0.01869506 2.4753604
-2.1437836 -0.060489349 2.2713253
-3.1445837 0.1149398 3.854773
-3.215836 0.056196131 3.8000259
-3.2859163 -0.0017141104 3.7542751
-3.352025 -0.066637516 3.7083228
-3.0485368 0.11758518 3.9090412
-3.1245568 0.055624798 3.8673294
-3.192672 -0.0062738396 3.8204691
-3.2538455 -0.073160574 3.7713878
-2.9603159 0.1210963 3.9724743
-3.027503 0.05524902 3.9225242
-3.0895898 -0.0087069906 3.8775144
-3.1614962 -0.07982491 3.8435628
-2.8651903 0.12467276 4.0307779
-2.9323559 0.05478996 3.9827549
-2.9993033 -0.012292299 3.9457824
-3.0594108 -0.086271882 3.9015543
-2.7701659 0.12633997 4.0840468
-2.8420911 0.055240162 4.0490952
-2.9021869 -0.015739925 4.0049219
-2.9612312 -0.09279494 3.9646199
-2.6877906 0.13072778 4.1556082
-2.7460184 0.054849878 4.105309
-2.8080323 -0.019212969 4.0661168
-2.8659766 -0.099379599 4.0317402
-2.5917625 0.13339123 4.2088766
-2.6528895 0.054416105 4.1645775
-2.7157836 -0.022769269 4.1323476
-2.7688341 -0.10586289 4.0928245
-2.5016208 0.13596772 4.2682552
-2.5597601 0.05398231 4.223846
-2.6186669 -0.026216909 4.1914873
-2.6697106 -0.11233528 4.1528721
-2.4124379 0.13951141 4.3296709
-2.4705179 0.053454354 4.2891879
-2.5225086 -0.028697282 4.2526627
-2.5734708 -0.11790559 4.2189918
-2.3173492 0.14312406 4.3859749
-2.3724794 0.054092899 4.3433819
-2.4282978 -0.032224596 4.3168564
-2.4762535 -0.12446125 4.2840748
-2.2271702 0.14566433 4.4473529
-2.2811773 0.054503322 4.4117031
-2.3340681 -0.035769992 4.3820505
-2.3771262 -0.1299338 4.3441405
-2.1369686 0.14918637 4.5097494
-2.1899168 0.053950094 4.4780073
-2.2339857 -0.038192373 4.4391522
-2.281811 -0.1355729 4.414278
-2.0438051 0.15273383 4.5700898
-2.0919197 0.053624988 4.5301838
-2.1378312 -0.041672595 4.5003099
-2.1836128 -0.14211404 4.4783425
-1.9496791 0.1563139 4.6284118
-1.9976928 0.054097004 4.59445
-2.0416019 -0.045225173 4.5654655
-2.0834527 -0.14862621 4.5403705
-0.98614544 0.055136789 2.4848154
-1.901448 0.054543756 4.6596789
-1.9424444 -0.047716327 4.6265855
-1.9841756 -0.15424347 4.6084332
-0.90608931 0.052732956 2.4342558
-1.8033572 0.0541282 4.7168541
-0.98335326 -0.05507233 2.4947727
-1.8809595 -0.16082065 4.6734037
-0.8242771 0.050557125 2.3706632
-0.85799623 -0.0037819892 2.3963201
-1.7449269 -0.053893857 4.7598205
-1.7758708 -0.16627856 4.7313566
-0.75404686 0.049026202 2.3293066
-0.78668737 -0.0043890178 2.3589613
-1.6417888 -0.056381278 4.8198647
-1.6726359 -0.17287384 4.7973275
-0.68400776 0.046676356 2.277935
-0.8068918 0.00010455772 2.6135073
-1.5395232 -0.059991561 4.8869076
-1.5683037 -0.17856333 4.8682952
-0.61696821 0.04433728 2.2266202
-0.72507566 -0.0010714568 2.5499325
-1.3884017 -0.062767252 4.7859941
-1.462032 -0.18520555 4.9362082
-0.55475509 0.042853165 2.1844144
-0.60636878 -0.0074230693 2.3215175
-1.3300226 -0.065194227 5.0189352
-1.3566478 -0.19195271 5.010138
-0.49646649 0.041311052 2.1462824
-0.51344687 -0.011835987 2.1576426
-1.225529 -0.068028927 5.0979548
-1.247354 -0.19762394 5.0790129
-0.43925261 0.039844889 2.1041703
-0.45883536 -0.012671426 2.1365979
-1.1142799 -0.070653602 5.163847
-1.13299 -0.20438531 5.1517739
-0.38769668 0.039074484 2.080183
-0.41978595 -0.011821132 2.1919007
-1.0039597 -0.074346863 5.2337379
-1.0214946 -0.21126255 5.2315888
-0.33636931 0.037521318 2.0441816
-0.35721368 -0.013693634 2.1156695
-0.89052367 -0.077159606 5.3095894
-0.90603721 -0.21811797 5.30933
-0.28871906 0.03667482 2.0252678
-0.30478898 -0.014341008 2.084666
-1.271945 -0.09258651 8.912673
-1.2936256 -0.33372343 8.9227209
-0.24986777 0.03972375 2.0696106
-0.25949764 -0.014791934 2.0998149
-1.0162367 -0.095564567 8.5226994
-1.0270525 -0.32757968 8.5237055
-0.20979202 0.042552032 2.1259305
-0.21676728 -0.01364848 2.1380484
-0.78101122 -0.096956022 8.1601477
-0.78610408 -0.32270423 8.145154
-0.16767523 0.046336781 2.1842301
-0.55839664 0.11112438 7.8316317
-0.56726134 -0.099774823 7.8259807
-0.56621158 -0.31765449 7.8170166
-0.35723603 0.31374204 7.5334296
-0.36683452 0.10359289 7.5418105
-0.36993885 -0.10107563 7.5221596
-0.36424083 -0.31261247 7.493217
-0.18549873 0.30210203 7.2539086
-0.18917227 0.097021043 7.2572689
-0.18918262 -0.10273148 7.2416506
-0.17655598 -0.30820403 7.2076859
-0.027076975 0.29186076 7.0106754
-0.025656894 0.091688633 7.0180302
-0.02082099 -0.1039197 6.9933929
-0.0053062886 -0.30427724 6.9524641
0.12185604 0.28216687 6.7946377
0.12666933 0.08557675 6.7689834
0.13650523 -0.10503226 6.7433419
0.15317047 -0.30052087 6.7094827
0.26073474 0.27256313 6.5757895
0.26845083 0.080070086 6.5441523
0.28230566 -0.10555415 6.518527
0.30292967 -0.29700351 6.4816651
0.39103481 0.2645933 6.3791394
0.40510255 0.075752504 6.3654552
0.4195196 -0.10644168 6.3158727
0.4429903 -0.29373971 6.27003
0.51448596 0.25650394 6.1906185
0.53130674 0.07190495 6.1629548
0.54864138 -0.10721007 6.1083713
0.57413137 -0.28951612 6.0625811
0.63207322 0.24930936 6.0092249
0.65056437 0.067028433 5.9635658
0.67027414 -0.10743833 5.9280286
0.69868171 -0.2866652 5.8772378
0.73950851 0.24129552 5.8200045
0.76341164 0.063615918 5.7953343
0.78494161 -0.10867746 5.7497988
-0.02611593 -0.059798401 0.050936799
0.84774202 0.23552144 5.6728234
-0.02611593 -0.059798401 0.050936799
-0.02611593 -0.059798401 0.050936799
0.17002672 -0.10497155 1.182831
-0.02611593 -0.059798401 0.050936799
0.18565464 -0.035380974 1.202804
0.19134757 -0.070233762 1.1930637
0.19242339 -0.10447524 1.1504096
1.0442501 0.22400883 5.380837
1.0729216 0.054563172 5.3422222
1.1012383 -0.10952154 5.2837033
0.21606328 -0.10421769 1.1309651
0.27437794 0.011886463 1.3910617
0.28205782 -0.030990224 1.3821393
0.29290959 -0.073040649 1.3821754
0.23872206 -0.10397463 1.1125392
1.2251207 0.21320976 5.1081629
1.2545495 0.049012937 5.055624
1.2837961 -0.10898593 4.992197
0.26354504 -0.10490137 1.1030543
1.3064715 0.20742407 4.9674873
1.3379304 0.04620143 4.9159651
0.34703434 -0.073405772 1.3351396
0.28837195 -0.1048283 1.0935876
1.3882046 0.20327619 4.8468413
1.421671 0.044046059 4.7953172
0.37476709 -0.073253021 1.320618
0.31532958 -0.10488902 1.0910809
1.4681251 0.19895467 4.7362289
1.4993005 0.042020768 4.6687841
0.41619021 -0.07381621 1.34284
0.34332052 -0.10598934 1.0905368
1.5407437 0.19394782 4.609736
1.5793039 0.039626516 4.5622067
0.3595674 -0.071161248 1.0968647
0.37336728 -0.10715111 1.092954
-0.02611593 -0.059798401 0.050936799
-0.02611593 -0.059798401 0.050936799
0.46001726 -0.073856026 1.2799973
0.4076232 -0.10752638 1.1063104
0.38478157 -0.0012086052 1.0946573
0.47727272 -0.03201462 1.2854331
1.7593367 -0.10785979 4.271069
0.45846739 -0.11053758 1.1513193
0.49034169 0.010022029 1.2809472
1.7931019 0.03475377 4.2310033
1.8241113 -0.10696557 4.1518326
1.8673205 -0.24992681 4.0834141
1.8198763 0.17939213 4.1911049
1.8549628 0.033568636 4.116785
1.8911852 -0.10636796 4.0485525
1.9343084 -0.24723908 3.975172
1.879763 0.17517853 4.0788698
1.9169884 0.031220905 4.0115457
1.9604082 -0.10592223 3.953232
2.0004277 -0.24467438 3.873946
1.939916 0.1717115 3.9806471
1.984339 0.030547358 3.9232426
2.0235388 -0.10536452 3.8530262
2.0603983 -0.24194345 3.7648358
2.0032594 0.16905263 3.8923833
2.0444849 0.030097917 3.8240747
2.0898376 -0.10498038 3.761761
2.1329432 -0.24081618 3.6864712
2.0666218 0.1663757 3.8051188
2.1037018 0.028579876 3.7289062
2.1480253 -0.104459 3.6646481
2.1931424 -0.23730248 3.5893748
2.1218731 0.16383603 3.712007
2.1640537 0.027931444 3.6407347
2.2083476 -0.10307159 3.5745132
2.2503004 -0.23474167 3.4903173
2.1792367 0.16118059 3.6248553
2.2224247 0.02727209 3.5536003
2.2646108 -0.10261539 3.4814365
2.3147948 -0.23253158 3.4091225
2.2346189 0.15851426 3.5387411
2.2757368 0.025685161 3.4635432
2.3230081 -0.10129315 3.3953378
2.3721213 -0.23013358 3.319062
2.2859645 0.15589851 3.4507027
2.3352425 0.025895428 3.3834057
2.3794024 -0.10096356 3.3092589
2.4243929 -0.22766337 3.2260966
2.3455377 0.15403675 3.3745275
2.3927448 0.025113057 3.3032877
2.434819 -0.099648647 3.2242162
2.4828694 -0.22541364 3.1440146
2.395977 0.15133414 3.2915063
2.4400239 0.024583653 3.2113619
2.4903107 -0.098406091 3.1431723
2.5372756 -0.22207738 3.0580268
2.4464352 0.14861341 3.2094846
2.4955831 0.023754206 3.1342804
2.5447655 -0.097123772 3.0601475
2.5907342 -0.21979165 2.9750392
2.4999757 0.14780919 3.1314411
2.5511832 0.023888387 3.0592163
2.5942206 -0.095823497 2.9772172
2.6421742 -0.21748064 2.8910897
2.5505276 0.14499801 3.0544178
2.5986123 0.023214262 2.9752877
2.647769 -0.094628036 2.8992097
2.7018044 -0.2143794 2.8170042
2.6000836 0.14319026 2.9774311
2.6491573 0.023420658 2.8973186
2.6921504 -0.09323746 2.8123748
2.7421007 -0.21088436 2.7252817
2.6506808 0.14234258 2.9024432
2.6997545 0.022572972 2.8223305
2.7447176 -0.092056498 2.7353859
2.7997272 -0.20877579 2.651216
2.7012925 0.14047697 2.8284366
2.7503181 0.022761282 2.7453611
2.7973034 -0.090893619 2.6593964
2.848228 -0.20550844 2.5703397
2.7458308 0.13870522 2.7505443
2.7937708 0.023083262 2.6625254
2.8417788 -0.0895935 2.5775597
2.925169 -0.20377555 2.5129108
2.7934434 0.13685039 2.6765943
2.8423908 0.023224477 2.5885928
2.8974802 -0.087550089 2.50753
2.9970365 -0.20195238 2.4515779
2.8359818 0.13508585 2.5987394
2.8869555 0.02343433 2.5117362
2.9907515 -0.08720006 2.4677765
3.0445564 -0.19869955 2.3717198
2.8846166 0.13420916 2.5257885
2.9893978 0.024589077 2.4808283
3.0403047 -0.084990412 2.3898621
3.0910537 -0.19642487 2.2908628
2.9830823 0.13636 2.4959736
3.0390029 0.025744636 2.4058952
3.087858 -0.082773581 2.3119857
3.1517208 -0.1933634 2.2187579
3.0256395 0.13457736 2.4191186
3.0875857 0.025922045 2.3299632
3.1414809 -0.081650466 2.2379768
3.2073328 -0.19022971 2.143748
3.071219 0.1337657 2.3432248
3.1372244 0.026041586 2.2570112
3.1880159 -0.079411961 2.1591194
3.2538528 -0.18697327 2.0639088
3.118854 0.13289261 2.2702925
3.1837926 0.027244084 2.180135
3.2386248 -0.077260166 2.0841854
4.6865582 -0.23466398 2.7884676
3.168541 0.13095821 2.2003033
3.2344499 0.027341962 2.1081638
4.6566372 -0.081031144 2.8168163
4.7605715 -0.23001982 2.6811295
3.2100837 0.13019709 2.1224854
3.2931845 0.028338596 2.0400591
4.737772 -0.078538381 2.7163084
4.8072939 -0.22398949 2.5583222
3.2698703 0.13013604 2.0573428
4.7158332 0.066049188 2.7453444
4.792613 -0.075662881 2.6002944
4.7288494 -0.21435678 2.3739026
4.6960311 0.20748538 2.7822862
4.781836 0.067722574 2.6381028
-0.02611593 -0.059798401 0.050936799
4.7827168 -0.20949613 2.2589431
4.7650628 0.20711219 2.6769514
4.5811849 0.06191396 2.3936715
-0.02611593 -0.059798401 0.050936799
5.0533342 -0.20914328 2.2358751
4.7532997 0.20178685 2.5310256
4.6462975 0.062482573 2.2924285
5.0246763 -0.064801916 2.2800374
5.1181655 -0.20328608 2.1187272
4.6244998 0.19087391 2.3321724
4.7628264 0.066469528 2.2122915
5.0915937 -0.061042003 2.1678145
13.506331 -0.4203608 5.1207695
4.6886458 0.19041011 2.2329295
5.0678768 0.073301196 2.2107034
5.1554546 -0.057217062 2.0526493
13.692779 -0.4046793 4.8204603
5.0482836 0.20550378 2.2604785
5.1338048 0.075046942 2.0994627
13.616634 -0.043787409 4.9574609
13.896204 -0.38904071 4.5188322
5.1132374 0.20421745 2.151202
13.561206 0.29823133 5.0827279
13.803119 -0.033159338 4.6600604
14.090538 -0.37327939 4.2123747
5.1771393 0.20398879 2.0389633
13.762915 0.30457112 4.7979693
14.008536 -0.019527584 4.3583589
14.30182 -0.35552517 3.9026358
-0.02611593 -0.059798401 0.050936799
13.944343 0.31025416 4.4985743
14.201906 -0.0088160783 4.0548296
14.51599 -0.33767313 3.5868416
9.200511 0.39609244 3.1004701
14.139776 0.31788668 4.1989512
14.405241 0.002895534 3.7491307
14.567458 -0.31853426 3.235105
9.4607153 0.40382469 2.9476862
14.34126 0.32444352 3.9021969
14.579322 0.015964322 3.4299998
13.920367 -0.28727576 2.7516217
9.7639904 0.41233009 2.7981114
14.541594 0.33114865 3.5974643
14.371771 0.027025748 3.0279496
13.197556 -0.25499791 2.2835798
9.7825527 0.40750009 2.5625968
14.587061 0.33525735 3.248569
13.591395 0.032964963 2.5355005
12.589872 -0.22725022 1.8753209
-0.02611593 -0.059798401 0.050936799
13.858548 0.31805003 2.7527294
12.917062 0.040513862 2.0971138
11.9978 -0.20115314 1.499751
10.330921 0.42285559 2.2014852
13.221033 0.30456015 2.3082705
12.307558 0.047019061 1.7025094
11.476386 -0.17695829 1.1588354
-0.02611593 -0.059798401 0.050936799
12.615296 0.29019928 1.9052155
11.754827 0.051563695 1.3488203
6.0891314 -0.11280244 0.49363425
-0.02611593 -0.059798401 0.050936799
12.03613 0.27820191 1.5317153
6.1753249 0.0041935705 0.58716851
6.0073314 -0.10177074 0.34331435
10.674015 0.42495236 1.5108652
11.530738 0.26618263 1.1988473
6.0013452 0.0087194443 0.4294543
6.0256968 -0.092278644 0.20109402
10.726412 0.42316255 1.2657686
6.1073794 0.1147541 0.51641661
6.0577631 0.01400348 0.29044646
3.8876286 -0.075252771 0.055382971
11.172551 0.44025323 1.0526527
5.9895387 0.11391701 0.36655694
6.0510831 0.020621981 0.14664251
-0.02611593 -0.059798401 0.050936799
6.0184798 0.20728451 0.4517329
6.0159316 0.11632732 0.22705914
3.8882291 -0.0046170596 0.020637672
3.6203942 -0.063104898 -0.11645219
6.0638614 0.20762695 0.31184199
3.1031096 0.032619022 0.068026841
-0.02611593 -0.059798401 0.050936799
4.0652804 -0.055720538 -0.23468818
6.0441856 0.20525748 0.17011946
3.0977437 0.033953875 -0.0048732553
3.5500851 -0.0013213756 -0.14402756
-0.02611593 -0.059798401 0.050936799
3.0797169 0.075237095 0.039225969
3.1533744 0.037069481 -0.078883536
3.4326646 0.00048779603 -0.21882176
3.8311901 -0.043835808 -0.39914611
3.1043978 0.075410195 -0.031256877
3.2549069 0.041110255 -0.15873846
3.3343158 0.002156422 -0.28997433
1.9291056 -0.04851177 -0.2245594
3.1450047 0.076598041 -0.106021
3.3553123 0.046281077 -0.24555422
3.2350416 0.0037562805 -0.35710949
4.2874279 -0.025916317 -0.66045249
2.732024 0.05802089 -0.15064006
3.2140827 0.042978246 -0.30899128
1.929901 -0.019212775 -0.24104992
3.9177356 -0.021850694 -0.69446886
2.765763 0.059107244 -0.21827503
1.95544 0.0042592851 -0.21709535
3.0416837 0.0077569941 -0.48145908
3.4875557 -0.019054383 -0.70036614
2.7954466 0.060262222 -0.2888338
3.071569 0.042923234 -0.44136891
2.953614 0.009118394 -0.53780466
3.4282198 -0.012526576 -0.77216148
1.940218 0.023599312 -0.23246571
2.9834499 0.041321319 -0.49976784
2.8795452 0.011429381 -0.59439528
3.49034 -0.0049302913 -0.8742218
2.4140003 0.044022094 -0.35900965
2.8993902 0.040650621 -0.55522496
2.8184743 0.013693711 -0.65123016
2.6589892 -0.0123778 -0.7237404
2.4736824 0.046069235 -0.43011412
2.8203478 0.039943878 -0.60977638
2.8748882 0.019022439 -0.73721915
2.5414004 -0.0093612969 -0.75449467
2.5283279 0.0481705 -0.50312406
2.8419435 0.042217851 -0.68516511
2.6178818 0.015981652 -0.73446131
2.4099832 -0.0064573521 -0.77598894
2.8079605 0.060435779 -0.63418204
2.841599 0.044516504 -0.75714141
2.5032806 0.015987897 -0.76532608
3.0634847 0.014438409 -1.0789489
2.865381 0.062743336 -0.71924412
2.5557845 0.036381654 -0.74293256
2.4374731 0.018016927 -0.80807179
-0.02611593 -0.059798401 0.050936799
2.631216 0.053747643 -0.7240243
2.1976831 0.02482193 -0.68941891
-0.02611593 -0.059798401 0.050936799
0.17038447 -0.055080652 -0.031684883
2.5115962 0.048772685 -0.7548852
3.0610404 0.060079575 -1.0580704
0.18833287 -0.053091325 -0.034986056
-0.02611593 -0.059798401 0.050936799
3.0570097 0.072208941 -1.0087589
-0.02611593 -0.059798401 0.050936799
-0.02611593 -0.059798401 0.050936799
0.15037334 -0.053990953 -0.032290712
-0.02611593 -0.059798401 0.050936799
0.1853186 -0.052062634 -0.035911318
0.16729924 -0.052979775 -0.036590774
-0.02611593 -0.059798401 0.050936799
0.18934052 -0.051095251 -0.034968812
-0.02611593 -0.059798401 0.050936799
-0.02611593 -0.059798401 0.050936799
0.13235788 -0.053908266 -0.032952141
-0.02611593 -0.059798401 0.050936799
0.15832356 -0.051965736 -0.035403974
0.14430347 -0.05289723 -0.036158592
-0.02611593 -0.059798401 0.050936799
0.16532227 -0.051990859 -0.035535507
-0.02611593 -0.059798401 0.050936799
-0.02611593 -0.059798401 0.050936799
0.11436119 -0.053843666 -0.032613911
-0.02611593 -0.059798401 0.050936799
0.14028546 -0.05286479 -0.037083097
0.13124965 -0.052796308 -0.038913302
-0.02611593 -0.059798401 0.050936799
0.14332236 -0.052911732 -0.035140134
-0.02611593 -0.059798401 0.050936799
-0.02611593 -0.059798401 0.050936799
0.10136356 -0.05379701 -0.032369632
-0.02611593 -0.059798401 0.050936799
0.11734191 -0.053836342 -0.033669949
0.10930593 -0.053771451 -0.035518944
-0.02611593 -0.059798401 0.050936799
0.1203601 -0.053865198 -0.032726653
-0.02611593 -0.059798401 0.050936799
-0.02611593 -0.059798401 0.050936799
0.087384857 -0.05376485 -0.031106904
-0.02611593 -0.059798401 0.050936799
0.10530667 -0.053757094 -0.035443779
0.098270513 -0.053695794 -0.037311573
-0.02611593 -0.059798401 0.050936799
0.10732502 -0.053782362 -0.034481697
-0.02611593 -0.059798401 0.050936799
-0.02611593 -0.059798401 0.050936799
0.07934887 -0.053699963 -0.032955907
-0.02611593 -0.059798401 0.050936799
0.086385034 -0.053761266 -0.031088114
0.087272525 -0.053656317 -0.037104875
-0.02611593 -0.059798401 0.050936799
0.091361471 -0.054760952 -0.032199748
-0.02611593 -0.059798401 0.050936799
