# .PCD v0.7 - Point Cloud Data file format
VERSION 0.7
FIELDS x y z
SIZE 4 4 4
TYPE F F F
COUNT 1 1 1
WIDTH 1390
HEIGHT 1
VIEWPOINT 0 0 0 1 0 0 0
POINTS 1390
DATA ascii
-2.5294843 -0.15491682 1.9897431
-4.1744094 -0.29646525 3.1543748
-3.3030217 -0.30772227 2.4236088
-2.9294219 -0.33709282 2.0849679
-2.4676785 -0.15291408 2.0316365
-2.8032663 -0.22217725 2.2297337
-2.826441 -0.27816606 2.1781373
-2.852545 -0.34023353 2.1314878
-2.4295356 -0.15215065 2.0919566
-3.9658289 -0.29571962 3.2895291
-2.7811689 -0.28257158 2.2462332
-2.7934666 -0.34550822 2.1893058
-1.9112567 -0.13257959 1.7254827
-3.8665323 -0.29633775 3.3576818
-2.724041 -0.28487584 2.3061421
-2.7245321 -0.34867445 2.2389746
-1.8567117 -0.13029848 1.7535123
-1.8932307 -0.17783552 1.73533
-1.9287271 -0.2243944 1.7181466
-2.6290104 -0.35053986 2.2661617
-1.8316826 -0.13037969 1.8080606
-1.8406744 -0.17756498 1.7643607
-1.8731755 -0.22513446 1.7471029
-1.9047151 -0.27768859 1.7287365
-2.0010004 -0.13725889 2.0601919
-1.9108951 -0.18599725 1.9145738
-1.8245517 -0.22692159 1.7801714
-1.8511333 -0.28045729 1.7596936
-2.1983807 -0.14593828 2.3628328
-2.0839818 -0.20111397 2.1806312
-1.9880044 -0.24874741 2.0279207
-1.897779 -0.2955946 1.8883369
-3.3251693 -0.19305667 3.7245386
-2.2831576 -0.22001964 2.4961252
-2.1903651 -0.27649608 2.3353119
-2.085638 -0.32994369 2.1703284
-3.2349193 -0.19158858 3.7898977
-3.2861021 -0.29864913 3.747905
-3.3361912 -0.40580368 3.7108917
-3.3832896 -0.51998591 3.6746962
-3.1378388 -0.18998277 3.846128
-3.1889586 -0.30011517 3.8080802
-3.2409616 -0.40935266 3.776067
-3.2889407 -0.5266574 3.7468333
-3.0427358 -0.18738806 3.9034138
-3.0947359 -0.30064297 3.872328
-3.1447325 -0.41290522 3.841223
-3.186837 -0.53312248 3.8058248
-2.9544706 -0.18693072 3.9697921
-2.9996111 -0.30208379 3.9315412
-3.04656 -0.41641068 3.9033427
-3.0916004 -0.53968906 3.8719454
-2.8594091 -0.18529965 4.0250607
-2.9025426 -0.30347747 3.9877176
-2.9494281 -0.42087623 3.9634635
-2.9943647 -0.5462628 3.9380283
-2.7682528 -0.18374468 4.0854025
-2.8113048 -0.30501246 4.0530038
-2.8562176 -0.42439994 4.0276766
-2.8971848 -0.55278224 4.001112
-2.6790257 -0.18325473 4.1497626
-2.7201042 -0.30651122 4.1162906
-2.7590673 -0.42888361 4.0887971
-2.8009527 -0.56035221 4.0671959
-2.5859487 -0.18263441 4.2060499
-2.6259458 -0.30898446 4.1775036
-2.6678262 -0.43443596 4.1550107
-2.7037208 -0.56792581 4.1332612
-2.4928865 -0.18099618 4.2613564
-2.5327833 -0.31045425 4.2387538
-2.5696907 -0.43790528 4.2151313
-2.6046162 -0.5743801 4.1923084
-2.4007158 -0.18046272 4.3226609
-2.4386055 -0.31294554 4.3009667
-2.4725783 -0.44235277 4.2742529
-2.5083506 -0.58298606 4.2603736
-2.3124547 -0.18100518 4.3890214
-2.342541 -0.31533548 4.3571434
-2.379319 -0.4479304 4.3414283
-2.4092271 -0.58945853 4.3204207
-2.2193029 -0.18045722 4.4493074
-2.2532132 -0.31795353 4.4274478
-2.2830975 -0.45348263 4.406548
-2.3090894 -0.59695238 4.3814316
-2.1290419 -0.18100686 4.5156298
-2.157074 -0.32041582 4.4876237
-2.184989 -0.4589335 4.4656334
-2.214715 -0.60665959 4.4555144
-2.0330403 -0.18032497 4.5678625
-2.0609341 -0.32287815 4.5477996
-2.0887115 -0.46454 4.533752
-2.1145437 -0.61518943 4.5185051
-1.9388179 -0.18085277 4.6321106
-1.9676483 -0.32647422 4.6160111
-1.9924715 -0.47011036 4.5998721
-2.0104251 -0.62267959 4.5784411
-1.8465574 -0.1814096 4.6983957
-1.8694943 -0.3299616 4.6771307
-1.8894012 -0.47554296 4.6568637
-1.9121449 -0.63231069 4.6474504
-1.7465419 -0.18175997 4.7515354
-1.7694118 -0.33238399 4.7342324
-1.7892033 -0.48209131 4.7208905
-1.8079556 -0.64087307 4.7113662
-1.6493759 -0.18224427 4.8127279
-1.6691833 -0.33595091 4.799314
-1.689949 -0.48869032 4.7879357
-1.7027851 -0.64942086 4.7742643
-1.5521727 -0.18276477 4.8759198
-1.568086 -0.33939481 4.8573785
-1.5847707 -0.49523848 4.8508692
-1.6013972 -0.66017103 4.8491964
-1.4528987 -0.18436465 4.9430547
-1.4687865 -0.34403035 4.9264584
-1.4853518 -0.50300014 4.9268932
-1.4932686 -0.66969341 4.9100204
-1.3517334 -0.1848633 5.0041728
-1.3645213 -0.34764779 4.9934635
-1.3772639 -0.50846881 4.9847903
-1.3831217 -0.67924094 4.9718065
-1.2524222 -0.18649933 5.073307
-1.2631284 -0.35238096 5.0675049
-1.26994 -0.51616871 5.0556655
-1.2756786 -0.69006699 5.0496254
-1.1481304 -0.18813524 5.1413479
-1.1539992 -0.35688955 5.1274004
-1.162635 -0.52385056 5.1255412
-1.1642964 -0.70185292 5.124352
-1.0428202 -0.18979278 5.2103691
-1.0494758 -0.36176014 5.2083826
-1.052222 -0.53265148 5.2013407
-1.0528767 -0.71367496 5.2010779
-0.93545401 -0.19151181 5.2823524
-0.93825722 -0.36736619 5.2732215
-0.93984699 -0.54142344 5.2751031
-0.93838668 -0.72658002 5.2817283
-1.3959541 -0.2886976 9.1105137
-1.3916773 -0.59316075 9.0769148
-1.3815988 -0.89042968 9.031333
-1.3654345 -1.203862 8.9933491
-1.1392549 -0.27962705 8.7177391
-1.1298945 -0.57214636 8.6862612
-1.1168817 -0.85731947 8.6348419
-1.0938323 -1.1566164 8.5879812
-0.90597492 -0.27203092 8.3563862
-0.890737 -0.55241102 8.3160152
-0.87186545 -0.82542682 8.2547026
-0.84775031 -1.1127477 8.2090387
-0.69010741 -0.26393116 8.0263796
-0.67298031 -0.5341754 7.9781537
-0.65010768 -0.79717112 7.9149466
-0.62113345 -1.072331 7.8594084
-0.49294463 -0.25805226 7.7126875
-0.47083145 -0.5172621 7.6615677
-0.44764653 -0.77253044 7.6134996
-0.41589183 -1.0364497 7.5441079
-0.31002629 -0.25184327 7.4392829
-0.28601313 -0.50293499 7.3812714
-0.25916415 -0.74785769 7.3133154
-0.22611605 -1.0040351 7.2580438
-0.14099698 -0.24669239 7.1721206
-0.11478423 -0.48995548 7.1232133
-0.085870668 -0.72792268 7.0573444
-0.05000855 -0.97389549 6.990201
0.016408965 -0.24186024 6.9251776
0.045686111 -0.47817147 6.8783388
0.076593265 -0.70811099 6.8105779
0.11146829 -0.94606352 6.7425976
0.1633599 -0.23751318 6.7074308
0.19336478 -0.46653974 6.6447053
0.22522435 -0.6894117 6.5730529
0.26225758 -0.92049921 6.5121584
0.30149576 -0.23431456 6.4998317
0.33435908 -0.45619029 6.4281788
0.36646691 -0.67328036 6.3686309
0.40434021 -0.89719176 6.2978473
0.43183905 -0.2312862 6.30338
0.4658716 -0.44831109 6.2397952
0.49770737 -0.65811288 6.1643786
0.53753293 -0.8749603 6.089685
0.55324018 -0.2282798 6.110096
0.58813155 -0.43814665 6.0376215
0.62308002 -0.64305055 5.9672365
0.66420579 -0.85517377 5.9076095
0.66881078 -0.22541466 5.925921
0.70489019 -0.43044877 5.8625154
0.74087685 -0.63037515 5.7932019
0.78271163 -0.8351956 5.7166877
0.77753258 -0.22266914 5.749876
-0.02611593 -0.059798401 0.050936799
-0.02611593 -0.059798401 0.050936799
0.89351463 -0.81647813 5.5418925
-0.02611593 -0.059798401 0.050936799
-0.02611593 -0.059798401 0.050936799
-0.02611593 -0.059798401 0.050936799
1.0028077 -0.80224109 5.3940535
-0.02611593 -0.059798401 0.050936799
-0.02611593 -0.059798401 0.050936799
-0.02611593 -0.059798401 0.050936799
1.1017587 -0.78462499 5.2274632
-0.02611593 -0.059798401 0.050936799
-0.02611593 -0.059798401 0.050936799
-0.02611593 -0.059798401 0.050936799
1.1980916 -0.77037752 5.0818682
-0.02611593 -0.059798401 0.050936799
-0.02611593 -0.059798401 0.050936799
-0.02611593 -0.059798401 0.050936799
1.2916273 -0.75731808 4.9473076
-0.02611593 -0.059798401 0.050936799
-0.02611593 -0.059798401 0.050936799
-0.02611593 -0.059798401 0.050936799
1.3781117 -0.74317944 4.8098969
-0.02611593 -0.059798401 0.050936799
-0.02611593 -0.059798401 0.050936799
-0.02611593 -0.059798401 0.050936799
1.4637197 -0.73116356 4.6794677
-0.02611593 -0.059798401 0.050936799
-0.02611593 -0.059798401 0.050936799
-0.02611593 -0.059798401 0.050936799
1.5433888 -0.71818042 4.5521674
-0.02611593 -0.059798401 0.050936799
-0.02611593 -0.059798401 0.050936799
-0.02611593 -0.059798401 0.050936799
1.6242559 -0.70739961 4.4358091
-0.02611593 -0.059798401 0.050936799
-0.02611593 -0.059798401 0.050936799
-0.02611593 -0.059798401 0.050936799
0.50602454 -0.25565112 1.3678774
-0.02611593 -0.059798401 0.050936799
-0.02611593 -0.059798401 0.050936799
-0.02611593 -0.059798401 0.050936799
-0.02611593 -0.059798401 0.050936799
-0.02611593 -0.059798401 0.050936799
-0.02611593 -0.059798401 0.050936799
-0.02611593 -0.059798401 0.050936799
1.842041 -0.67714792 4.0971642
-0.02611593 -0.059798401 0.050936799
-0.02611593 -0.059798401 0.050936799
1.865074 -0.51467913 4.0676618
1.9079858 -0.66638565 3.9850862
-0.02611593 -0.059798401 0.050936799
1.8901049 -0.36225206 4.0399408
1.9291157 -0.50801754 3.9615471
1.9792359 -0.6589483 3.8898544
1.9122553 -0.21294031 4.0192204
1.9542242 -0.35968021 3.9387527
1.9973546 -0.50356889 3.8663177
2.0454874 -0.65149295 3.7947168
1.9713266 -0.2133138 3.9160724
2.0174751 -0.35723138 3.8445809
2.0605609 -0.49806631 3.769201
2.1045601 -0.64183205 3.68975
2.0357153 -0.21401277 3.8298249
2.0776892 -0.35473558 3.748466
2.1238945 -0.49369016 3.6790638
2.1719947 -0.63556099 3.6045721
2.0950112 -0.21460333 3.7386734
2.1390862 -0.35342413 3.6623111
2.1852286 -0.48930684 3.5889645
2.2302663 -0.62809503 3.5105839
2.1502702 -0.21514338 3.6455975
2.2004683 -0.35109472 3.5751743
2.2425258 -0.484873 3.4969406
2.2885373 -0.62062913 3.4165962
2.2097538 -0.21591485 3.5644422
2.2537358 -0.34962794 3.482172
2.2998605 -0.48047534 3.4069159
2.3458989 -0.61424989 3.3276074
2.2651064 -0.21654531 3.4763646
2.3070822 -0.34723365 3.3931866
2.3613777 -0.47727275 3.3267951
2.4073527 -0.60797542 3.2435417
2.3143668 -0.21706381 3.3834014
2.3716846 -0.34613192 3.3179715
2.4137135 -0.47285712 3.2368646
2.4607522 -0.60161805 3.1566279
2.3790512 -0.21905203 3.3131306
2.4210088 -0.34470505 3.2280433
2.466105 -0.46849576 3.1499331
2.5162075 -0.59532201 3.072675
2.4264238 -0.21967189 3.2262032
2.4765568 -0.34351674 3.1499984
2.5237167 -0.46536922 3.0748858
2.5706964 -0.59005851 2.9907222
2.4758716 -0.22037129 3.1432364
2.5300865 -0.34230319 3.0709913
2.5761607 -0.462062 2.9909351
2.6211338 -0.58372653 2.9058635
2.5325012 -0.22227651 3.0701168
2.5835934 -0.34207135 2.9909666
2.6225536 -0.45767915 2.9041164
2.6766787 -0.57852077 2.8268909
2.581001 -0.22402643 2.9901502
2.6310678 -0.34078202 2.9090734
2.6741061 -0.45547664 2.8261647
2.7231131 -0.57317418 2.7420895
2.6305234 -0.22479814 2.9111822
2.6826165 -0.33957937 2.8311036
2.7266436 -0.45225987 2.7472124
2.7715881 -0.56687129 2.6592679
2.6821167 -0.22664928 2.8361573
2.7301621 -0.3393622 2.7531908
2.7751634 -0.44901058 2.6673355
2.8272228 -0.56275582 2.5852757
2.7255988 -0.22836313 2.7552848
2.7736185 -0.33804041 2.6703732
2.8277907 -0.4468841 2.5933638
2.8798203 -0.55859345 2.5093403
2.7731738 -0.23018181 2.6793356
2.8242383 -0.33790636 2.5964026
2.8763437 -0.44467083 2.5154686
3.5353134 -0.65659201 2.9204345
2.8248606 -0.23212337 2.609309
2.8738399 -0.33775064 2.5214515
3.4609337 -0.51242816 2.873419
4.2710299 -0.7611298 3.3439124
2.867399 -0.23388791 2.5314541
2.958003 -0.34127718 2.4767966
4.2659097 -0.60438824 3.3608491
4.3632941 -0.75880319 3.2501953
2.9596698 -0.23855154 2.4926291
3.0116596 -0.34119007 2.4047692
4.3561668 -0.60405403 3.2671337
4.435256 -0.75309771 3.139914
3.0133557 -0.24050027 2.4225647
3.0551689 -0.34092239 2.3249323
4.4200468 -0.60024714 3.1529682
4.507236 -0.74741042 3.030632
3.0599458 -0.24333325 2.3476162
3.1017327 -0.34071973 2.2480381
4.4849977 -0.59751612 3.0427642
4.579216 -0.74172294 2.9213502
3.1065214 -0.24514835 2.2716854
3.1604786 -0.34174082 2.180897
4.5631108 -0.59599435 2.9412947
4.6431599 -0.73597068 2.8102193
3.1571853 -0.24806805 2.20066
3.2040431 -0.34152734 2.1040592
4.6290803 -0.59328496 2.8320715
4.7191734 -0.73133379 2.7028439
3.2068312 -0.25096607 2.1286538
3.2485666 -0.34228119 2.0251853
4.7122078 -0.59279901 2.7314899
4.7901306 -0.72662449 2.5925629
3.2544248 -0.25280285 2.0537038
4.6960435 -0.46206775 2.751164
4.7771211 -0.59003174 2.6192865
4.8580704 -0.72188646 2.481339
4.6870604 -0.33755961 2.7815945
4.7619634 -0.46232167 2.6398873
4.7663269 -0.57927293 2.4686322
4.9329896 -0.71715546 2.3689837
4.7520213 -0.34186351 2.6732638
4.7148643 -0.4541437 2.4738607
4.8474121 -0.57974344 2.3660707
5.0049248 -0.71343154 2.2576666
4.7574053 -0.34237731 2.5341065
4.673914 -0.446132 2.3157189
5.002079 -0.5870719 2.2950182
5.0728116 -0.7076394 2.1434615
4.6013904 -0.33290735 2.3201263
4.971972 -0.46637917 2.3197734
5.0649891 -0.58529729 2.1828346
5.1477795 -0.70496231 2.0340695
4.6745892 -0.33847499 2.224623
5.0499945 -0.46878436 2.2142336
5.1268287 -0.58244699 2.066689
13.577409 -1.721772 4.8938208
5.0300293 -0.35930651 2.2485993
5.1148553 -0.46998024 2.0999587
13.544419 -1.4164315 4.995996
13.76987 -1.7121472 4.5952897
5.1039848 -0.36464259 2.1400814
13.501038 -1.1297445 5.0810227
13.742902 -1.4148812 4.7002077
13.954224 -1.7013853 4.2909298
13.44573 -0.86315572 5.173912
13.685422 -1.1350704 4.781373
13.937275 -1.413208 4.3984966
14.17352 -1.6937122 3.9838591
13.635377 -0.87778735 4.8900003
13.88495 -1.1415945 4.4894199
14.139661 -1.4125813 4.0976167
14.377783 -1.6859493 3.6750703
13.821803 -0.89119136 4.5941677
14.075365 -1.1479779 4.1916385
14.342915 -1.4118316 3.7897205
14.589023 -1.6791931 3.3651323
14.005337 -0.9066928 4.3043528
14.281809 -1.1564546 3.89552
14.554196 -1.4131465 3.4836371
14.801097 -1.671278 3.0461969
14.216727 -0.92316794 4.0069962
14.478015 -1.1636604 3.5866113
14.758279 -1.4132375 3.166707
15.013965 -1.6631675 2.7162461
14.410011 -0.93946993 3.7039795
14.685102 -1.1717968 3.2714801
14.935149 -1.4110148 2.8383245
15.224774 -1.6559952 2.3833163
14.614195 -0.95672083 3.3957403
14.900179 -1.1819618 2.9561627
15.154982 -1.4119279 2.5080805
15.463442 -1.6497968 2.0428443
13.539341 -0.89505672 2.8167834
15.117031 -1.1919167 2.6288116
15.364697 -1.4136962 2.1720078
15.693976 -1.6444428 1.6955074
13.170953 -0.877527 2.4238648
15.327792 -1.2017597 2.2965748
15.600257 -1.4164131 1.8274316
6.1421919 -0.67011368 0.54957855
12.36862 -0.83236223 1.979553
11.526495 -0.91479099 1.4646542
15.818766 -1.4180148 1.4801939
5.9583507 -0.6405924 0.39450201
11.776684 -0.80037475 1.6100891
11.567508 -0.9141618 1.1988076
6.0387306 -0.57297295 0.45424053
6.0417323 -0.63838661 0.25393313
11.452783 -0.78544635 1.296317
6.1020412 -0.50923759 0.51122737
6.0550952 -0.56849086 0.3129673
6.065093 -0.62991232 0.11160083
6.1544547 -0.45358801 0.57527447
5.9692321 -0.49800473 0.36086616
6.0263901 -0.55975765 0.16761345
3.8753242 -0.41823584 -0.0016102009
5.9765105 -0.44506648 0.41870707
5.9925423 -0.497511 0.21739003
3.8731225 -0.37784708 0.033173405
5.2334595 -0.53400278 -0.14518091
6.0568724 -0.45286644 0.27901405
6.08391 -0.50335068 0.077526338
6.2069702 -0.5632503 -0.1219288
3.6122437 -0.38116083 -0.17007108
6.053153 -0.45625696 0.13497353
6.1471972 -0.50699979 -0.066773497
3.6040077 -0.34974903 -0.13533689
-0.02611593 -0.059798401 0.050936799
3.8749683 -0.31648475 0.013242066
3.6386652 -0.3244181 -0.10551745
4.0477405 -0.38135439 -0.25425678
-0.02611593 -0.059798401 0.050936799
-0.02611593 -0.059798401 0.050936799
4.0435104 -0.35297453 -0.21865214
4.6148362 -0.42184258 -0.40665838
3.8169098 -0.38081273 -0.45599356
3.6178114 -0.30344528 -0.15476434
4.9131866 -0.41527522 -0.3921206
3.7987268 -0.35543635 -0.41718099
1.9189863 -0.21901625 -0.25146332
4.9341083 -0.39516458 -0.34713325
3.8363564 -0.33711502 -0.38754404
1.9313232 -0.20935045 -0.23551404
4.2081037 -0.40074393 -0.71176505
-0.02611593 -0.059798401 0.050936799
4.3722029 -0.37523901 -0.55332232
4.2687397 -0.38452291 -0.6815967
3.4452102 -0.33370042 -0.65825075
3.9690065 -0.33531177 -0.46101987
4.3114047 -0.37127298 -0.64914471
3.4927318 -0.32334131 -0.63294446
3.3709857 -0.32320994 -0.72469383
1.9291872 -0.19616459 -0.24523881
4.0832701 -0.35426697 -0.71058667
3.9800966 -0.35680526 -0.82473963
3.4570107 -0.32464394 -0.83036619
4.2494593 -0.36109686 -0.70081842
3.4648664 -0.31036007 -0.68120432
3.9045799 -0.34903935 -0.90621293
3.5707982 -0.32796112 -0.94859666
3.4684727 -0.30895001 -0.64923549
3.5070412 -0.31378058 -0.77808869
3.4252067 -0.31070283 -0.87553382
3.6794782 -0.33015192 -1.0727131
-0.02611593 -0.059798401 0.050936799
3.5591168 -0.31814638 -0.88017726
3.707005 -0.32875568 -1.0451939
3.5862985 -0.31862956 -1.1367818
3.4114487 -0.31084299 -0.80925632
3.7424216 -0.33129698 -1.0228955
3.6097996 -0.31920052 -1.1102233
3.4961221 -0.30611816 -1.2008889
3.508249 -0.32113412 -0.92529416
3.6431673 -0.32469797 -1.0899405
3.5096509 -0.30968887 -1.1721971
-0.02611593 -0.059798401 0.050936799
3.6745822 -0.33725938 -1.0657477
2.031697 -0.20841096 -0.64251429
-0.02611593 -0.059798401 0.050936799
0.18625075 -0.074080572 -0.035326865
3.5912907 -0.33469906 -1.1341652
3.4617829 -0.3126874 -1.2173704
0.1932268 -0.075087443 -0.036476072
-0.02611593 -0.059798401 0.050936799
3.4911182 -0.33118638 -1.1962472
-0.02611593 -0.059798401 0.050936799
-0.02611593 -0.059798401 0.050936799
0.16124837 -0.070973277 -0.0358027
-0.02611593 -0.059798401 0.050936799
0.18125166 -0.074062623 -0.035232913
0.17218234 -0.072958142 -0.039044425
-0.02611593 -0.059798401 0.050936799
0.18326215 -0.076087557 -0.034306865
-0.02611593 -0.059798401 0.050936799
-0.02611593 -0.059798401 0.050936799
0.13827524 -0.069908984 -0.034352846
-0.02611593 -0.059798401 0.050936799
0.15724126 -0.072958581 -0.035763573
0.1481946 -0.070872344 -0.038557414
-0.02611593 -0.059798401 0.050936799
0.15627494 -0.073990993 -0.033763483
-0.02611593 -0.059798401 0.050936799
-0.02611593 -0.059798401 0.050936799
0.11930529 -0.067859225 -0.032960121
-0.02611593 -0.059798401 0.050936799
0.13922974 -0.071876056 -0.03640699
0.12723981 -0.069833331 -0.036145467
-0.02611593 -0.059798401 0.050936799
0.13330182 -0.072926708 -0.032313623
-0.02611593 -0.059798401 0.050936799
-0.02611593 -0.059798401 0.050936799
0.10331213 -0.066801973 -0.032641452
-0.02611593 -0.059798401 0.050936799
0.11627925 -0.069830023 -0.033939455
0.11618958 -0.068739749 -0.038919739
-0.02611593 -0.059798401 0.050936799
0.11728993 -0.071851365 -0.032994613
-0.02611593 -0.059798401 0.050936799
-0.02611593 -0.059798401 0.050936799
0.092299357 -0.065744579 -0.033416409
-0.02611593 -0.059798401 0.050936799
0.1032629 -0.069765285 -0.034694828
0.10119624 -0.067686096 -0.038619861
-0.02611593 -0.059798401 0.050936799
0.1082167 -0.071746714 -0.036824152
-0.02611593 -0.059798401 0.050936799
-0.02611593 -0.059798401 0.050936799
0.079324387 -0.064716175 -0.032154445
-0.02611593 -0.059798401 0.050936799
0.090269223 -0.068718798 -0.034432534
0.088221274 -0.0666577 -0.037357908
-0.02611593 -0.059798401 0.050936799
0.089298993 -0.070751041 -0.032450464
-0.02611593 -0.059798401 0.050936799
-0.02611593 -0.059798401 0.050936799
0.074273057 -0.063644141 -0.035041459
-0.02611593 -0.059798401 0.050936799
0.077312969 -0.067708492 -0.032170918
0.077227212 -0.065618388 -0.037133195
-0.02611593 -0.059798401 0.050936799
0.079286031 -0.069697231 -0.033244204
-0.02611593 -0.059798401 0.050936799
-0.02611593 -0.059798401 0.050936799
0.063312523 -0.063640833 -0.032835443
-0.02611593 -0.059798401 0.050936799
0.06633763 -0.066687271 -0.030946545
0.06919124 -0.065553501 -0.03898219
-0.02611593 -0.059798401 0.050936799
0.067310877 -0.068672426 -0.032001033
-0.02611593 -0.059798401 0.050936799
-0.02611593 -0.059798401 0.050936799
0.052355908 -0.062637709 -0.030611403
-0.02611593 -0.059798401 0.050936799
0.060282569 -0.066611476 -0.033832777
0.062177725 -0.064510457 -0.039832301
-0.02611593 -0.059798401 0.050936799
0.058331251 -0.068658218 -0.030832257
-0.02611593 -0.059798401 0.050936799
-0.02611593 -0.059798401 0.050936799
0.048304398 -0.061569255 -0.0335172
-0.02611593 -0.059798401 0.050936799
0.049344674 -0.065626435 -0.03060909
0.052216988 -0.064510748 -0.037645072
-0.02611593 -0.059798401 0.050936799
0.051295087 -0.068596914 -0.032700051
-0.02611593 -0.059798401 0.050936799
-0.02611593 -0.059798401 0.050936799
0.038381122 -0.061605722 -0.029330656
-0.02611593 -0.059798401 0.050936799
0.045289237 -0.065557815 -0.033532903
0.048146758 -0.063424207 -0.041550536
-0.02611593 -0.059798401 0.050936799
0.043337919 -0.067604557 -0.030532379
-0.02611593 -0.059798401 0.050936799
-0.02611593 -0.059798401 0.050936799
0.033348519 -0.060551774 -0.031218007
-0.02611593 -0.059798401 0.050936799
0.037328146 -0.065565273 -0.031383261
0.038242206 -0.06347876 -0.036364324
-0.02611593 -0.059798401 0.050936799
0.037320293 -0.067564934 -0.031419296
-0.02611593 -0.059798401 0.050936799
-0.02611593 -0.059798401 0.050936799
0.03031162 -0.060504828 -0.033160955
-0.02611593 -0.059798401 0.050936799
0.030352078 -0.064558409 -0.03023405
0.033186957 -0.063406542 -0.039269358
-0.02611593 -0.059798401 0.050936799
0.032283764 -0.067510821 -0.033324663
-0.02611593 -0.059798401 0.050936799
-0.02611593 -0.059798401 0.050936799
-0.02611593 -0.059798401 0.050936799
-0.02611593 -0.059798401 0.050936799
0.026296645 -0.064489797 -0.033157866
0.028191797 -0.062388774 -0.039157387
-0.02611593 -0.059798401 0.050936799
0.026284864 -0.067489289 -0.03321192
-0.02611593 -0.059798401 0.050936799
-0.02611593 -0.059798401 0.050936799
0.021261025 -0.059418429 -0.035972811
-0.02611593 -0.059798401 0.050936799
0.02225993 -0.064439259 -0.035082035
0.022174174 -0.062349152 -0.0400443
-0.02611593 -0.059798401 0.050936799
-0.02611593 -0.059798401 0.050936799
-0.02611593 -0.059798401 0.050936799
-0.02611593 -0.059798401 0.050936799
-0.02611593 -0.059798401 0.050936799
-0.02611593 -0.059798401 0.050936799
-0.02611593 -0.059798401 0.050936799
0.019099828 -0.062266029 -0.043986566
-0.02611593 -0.059798401 0.050936799
-0.02611593 -0.059798401 0.050936799
-0.02611593 -0.059798401 0.050936799
-0.02611593 -0.059798401 0.050936799
-0.02611593 -0.059798401 0.050936799
-0.02611593 -0.059798401 0.050936799
-0.02611593 -0.059798401 0.050936799
-0.02611593 -0.059798401 0.050936799
-0.02611593 -0.059798401 0.050936799
-0.02611593 -0.059798401 0.050936799
-0.02611593 -0.059798401 0.050936799
-0.02611593 -0.059798401 0.050936799
-0.02611593 -0.059798401 0.050936799
-0.02611593 -0.059798401 0.050936799
-0.02611593 -0.059798401 0.050936799
-0.02611593 -0.059798401 0.050936799
-0.02611593 -0.059798401 0.050936799
-0.02611593 -0.059798401 0.050936799
-0.02611593 -0.059798401 0.050936799
-0.02611593 -0.059798401 0.050936799
-0.02611593 -0.059798401 0.050936799
-0.02611593 -0.059798401 0.050936799
-0.02611593 -0.059798401 0.050936799
-0.02611593 -0.059798401 0.050936799
-0.02611593 -0.059798401 0.050936799
-0.02611593 -0.059798401 0.050936799
-0.02611593 -0.059798401 0.050936799
-0.02611593 -0.059798401 0.050936799
-0.02611593 -0.059798401 0.050936799
-0.02611593 -0.059798401 0.050936799
-0.02611593 -0.059798401 0.050936799
-0.02611593 -0.059798401 0.050936799
-0.02611593 -0.059798401 0.050936799
-0.02611593 -0.059798401 0.050936799
-0.02611593 -0.059798401 0.050936799
-0.02611593 -0.059798401 0.050936799
-0.02611593 -0.059798401 0.050936799
-0.02611593 -0.059798401 0.050936799
-0.02611593 -0.059798401 0.050936799
-0.02611593 -0.059798401 0.050936799
-0.02611593 -0.059798401 0.050936799
-0.02611593 -0.059798401 0.050936799
-0.02611593 -0.059798401 0.050936799
-0.02611593 -0.059798401 0.050936799
-0.02611593 -0.059798401 0.050936799
-0.02611593 -0.059798401 0.050936799
-0.02611593 -0.059798401 0.050936799
-0.02611593 -0.059798401 0.050936799
-0.02611593 -0.059798401 0.050936799
-0.02611593 -0.059798401 0.050936799
-0.02611593 -0.059798401 0.050936799
-0.02611593 -0.059798401 0.050936799
-0.02611593 -0.059798401 0.050936799
-0.02611593 -0.059798401 0.050936799
-0.02611593 -0.059798401 0.050936799
-0.02611593 -0.059798401 0.050936799
-0.02611593 -0.059798401 0.050936799
-0.02611593 -0.059798401 0.050936799
-0.02611593 -0.059798401 0.050936799
-0.02611593 -0.059798401 0.050936799
-0.02611593 -0.059798401 0.050936799
-0.02611593 -0.059798401 0.050936799
-0.02611593 -0.059798401 0.050936799
-0.02611593 -0.059798401 0.050936799
-0.02611593 -0.059798401 0.050936799
-0.02611593 -0.059798401 0.050936799
-0.02611593 -0.059798401 0.050936799
-0.02611593 -0.059798401 0.050936799
-0.02611593 -0.059798401 0.050936799
-0.02611593 -0.059798401 0.050936799
-0.02611593 -0.059798401 0.050936799
-0.02611593 -0.059798401 0.050936799
-0.02611593 -0.059798401 0.050936799
-0.02611593 -0.059798401 0.050936799
-0.02611593 -0.059798401 0.050936799
-0.02611593 -0.059798401 0.050936799
-0.02611593 -0.059798401 0.050936799
-0.02611593 -0.059798401 0.050936799
-0.02611593 -0.059798401 0.050936799
-0.02611593 -0.059798401 0.050936799
-0.02611593 -0.059798401 0.050936799
-0.02611593 -0.059798401 0.050936799
-0.02611593 -0.059798401 0.050936799
-0.02611593 -0.059798401 0.050936799
-0.02611593 -0.059798401 0.050936799
-0.02611593 -0.059798401 0.050936799
-0.02611593 -0.059798401 0.050936799
-0.02611593 -0.059798401 0.050936799
-0.02611593 -0.059798401 0.050936799
-0.02611593 -0.059798401 0.050936799
-0.02611593 -0.059798401 0.050936799
-0.02611593 -0.059798401 0.050936799
-0.02611593 -0.059798401 0.050936799
-0.02611593 -0.059798401 0.050936799
-0.02611593 -0.059798401 0.050936799
-0.02611593 -0.059798401 0.050936799
-0.02611593 -0.059798401 0.050936799
-0.02611593 -0.059798401 0.050936799
-0.02611593 -0.059798401 0.050936799
-0.02611593 -0.059798401 0.050936799
-0.02611593 -0.059798401 0.050936799
-0.02611593 -0.059798401 0.050936799
-0.02611593 -0.059798401 0.050936799
-0.02611593 -0.059798401 0.050936799
-0.02611593 -0.059798401 0.050936799
-0.02611593 -0.059798401 0.050936799
-0.02611593 -0.059798401 0.050936799
-0.02611593 -0.059798401 0.050936799
-0.02611593 -0.059798401 0.050936799
-0.02611593 -0.059798401 0.050936799
-0.02611593 -0.059798401 0.050936799
-0.02611593 -0.059798401 0.050936799
-0.02611593 -0.059798401 0.050936799
-0.02611593 -0.059798401 0.050936799
-0.02611593 -0.059798401 0.050936799
-0.02611593 -0.059798401 0.050936799
-0.02611593 -0.059798401 0.050936799
-0.02611593 -0.059798401 0.050936799
-0.02611593 -0.059798401 0.050936799
-0.02611593 -0.059798401 0.050936799
-0.02611593 -0.059798401 0.050936799
-0.02611593 -0.059798401 0.050936799
-0.02611593 -0.059798401 0.050936799
-0.02611593 -0.059798401 0.050936799
-0.02611593 -0.059798401 0.050936799
-0.02611593 -0.059798401 0.050936799
-0.02611593 -0.059798401 0.050936799
-0.02611593 -0.059798401 0.050936799
-0.02611593 -0.059798401 0.050936799
-0.02611593 -0.059798401 0.050936799
-0.02611593 -0.059798401 0.050936799
-0.02611593 -0.059798401 0.050936799
-0.02611593 -0.059798401 0.050936799
-0.02611593 -0.059798401 0.050936799
-0.02611593 -0.059798401 0.050936799
-0.02611593 -0.059798401 0.050936799
-0.02611593 -0.059798401 0.050936799
-0.02611593 -0.059798401 0.050936799
-0.02611593 -0.059798401 0.050936799
-0.02611593 -0.059798401 0.050936799
-0.02611593 -0.059798401 0.050936799
-0.02611593 -0.059798401 0.050936799
-0.02611593 -0.059798401 0.050936799
-0.02611593 -0.059798401 0.050936799
-0.02611593 -0.059798401 0.050936799
-0.02611593 -0.059798401 0.050936799
-0.02611593 -0.059798401 0.050936799
-0.02611593 -0.059798401 0.050936799
-0.02611593 -0.059798401 0.050936799
-0.02611593 -0.059798401 0.050936799
-0.02611593 -0.059798401 0.050936799
-0.02611593 -0.059798401 0.050936799
-0.02611593 -0.059798401 0.050936799
-0.02611593 -0.059798401 0.050936799
-0.02611593 -0.059798401 0.050936799
-0.02611593 -0.059798401 0.050936799
-0.02611593 -0.059798401 0.050936799
-0.02611593 -0.059798401 0.050936799
-0.02611593 -0.059798401 0.050936799
-0.071815573 -0.058994215 -0.039223596
-0.02611593 -0.059798401 0.050936799
-0.02611593 -0.059798401 0.050936799
-0.02611593 -0.059798401 0.050936799
-0.02611593 -0.059798401 0.050936799
-0.02611593 -0.059798401 0.050936799
-0.02611593 -0.059798401 0.050936799
-0.02611593 -0.059798401 0.050936799
-0.075773463 -0.058016207 -0.037131097
-0.02611593 -0.059798401 0.050936799
-0.02611593 -0.059798401 0.050936799
-0.02611593 -0.059798401 0.050936799
-0.02611593 -0.059798401 0.050936799
-0.02611593 -0.059798401 0.050936799
-0.02611593 -0.059798401 0.050936799
-0.02611593 -0.059798401 0.050936799
-0.079735287 -0.05803803 -0.035056606
-0.02611593 -0.059798401 0.050936799
-0.02611593 -0.059798401 0.050936799
-0.02611593 -0.059798401 0.050936799
-0.02611593 -0.059798401 0.050936799
-0.02611593 -0.059798401 0.050936799
-0.02611593 -0.059798401 0.050936799
-0.083652727 -0.061113607 -0.030037194
-0.084696926 -0.058056265 -0.032963336
-0.02611593 -0.059798401 0.050936799
-0.02611593 -0.059798401 0.050936799
-0.02611593 -0.059798401 0.050936799
-0.02611593 -0.059798401 0.050936799
-0.02611593 -0.059798401 0.050936799
-0.02611593 -0.059798401 0.050936799
-0.090692818 -0.062052138 -0.031923
-0.09275163 -0.057973288 -0.03581199
-0.02611593 -0.059798401 0.050936799
-0.092648067 -0.065098718 -0.028940491
-0.02611593 -0.059798401 0.050936799
-0.02611593 -0.059798401 0.050936799
-0.02611593 -0.059798401 0.050936799
-0.02611593 -0.059798401 0.050936799
-0.093613446 -0.061113894 -0.027849965
-0.09669473 -0.058013197 -0.032737851
-0.02611593 -0.059798401 0.050936799
-0.098628245 -0.065095276 -0.02782809
-0.02611593 -0.059798401 0.050936799
-0.02611593 -0.059798401 0.050936799
-0.093593813 -0.056114748 -0.027759872
-0.02611593 -0.059798401 0.050936799
-0.10266797 -0.061027329 -0.030679826
-0.10574925 -0.057926629 -0.035567712
-0.02611593 -0.059798401 0.050936799
-0.10460842 -0.065091826 -0.026715685
-0.02611593 -0.059798401 0.050936799
-0.02611593 -0.059798401 0.050936799
-0.10061125 -0.056071535 -0.028627999
-0.02611593 -0.059798401 0.050936799
-0.10862943 -0.061041977 -0.028567765
-0.11071089 -0.05794486 -0.033474442
-0.02611593 -0.059798401 0.050936799
-0.11260696 -0.065063119 -0.026565362
-0.02611593 -0.059798401 0.050936799
-0.02611593 -0.059798401 0.050936799
-0.10557289 -0.056089766 -0.026534725
-0.02611593 -0.059798401 0.050936799
-0.11766523 -0.060973495 -0.03039797
-0.12176504 -0.057851117 -0.036266729
-0.02611593 -0.059798401 0.050936799
-0.12162403 -0.065012731 -0.027395904
-0.02611593 -0.059798401 0.050936799
-0.02611593 -0.059798401 0.050936799
-0.1105306 -0.055108175 -0.024423432
-0.02611593 -0.059798401 0.050936799
-0.12766732 -0.061937433 -0.030228082
-0.1256707 -0.057927206 -0.031193256
-0.02611593 -0.059798401 0.050936799
-0.13366321 -0.065933309 -0.029187761
-0.02611593 -0.059798401 0.050936799
-0.02611593 -0.059798401 0.050936799
-0.12258457 -0.05501084 -0.027196929
-0.02611593 -0.059798401 0.050936799
-0.13158777 -0.060995605 -0.026136264
-0.13770594 -0.057847962 -0.032967098
-0.02611593 -0.059798401 0.050936799
-0.13958722 -0.065984137 -0.025076374
-0.02611593 -0.059798401 0.050936799
-0.02611593 -0.059798401 0.050936799
-0.13260147 -0.054956865 -0.028008685
-0.02611593 -0.059798401 0.050936799
-0.14664511 -0.061887335 -0.02887141
-0.15174083 -0.057761539 -0.034703348
-0.02611593 -0.059798401 0.050936799
-0.1576401 -0.065865271 -0.027737122
-0.02611593 -0.059798401 0.050936799
-0.02611593 -0.059798401 0.050936799
-0.13852549 -0.055007685 -0.023897298
-0.02611593 -0.059798401 0.050936799
-0.1586242 -0.061862361 -0.027646258
-0.16371992 -0.057736561 -0.0334782
-0.02611593 -0.059798401 0.050936799
-0.16558246 -0.065890826 -0.024587817
-0.02611593 -0.059798401 0.050936799
-0.02611593 -0.059798401 0.050936799
-0.15661579 -0.054852638 -0.028557379
-0.02611593 -0.059798401 0.050936799
-0.17969525 -0.061714634 -0.031250309
-0.17368063 -0.057736851 -0.031290978
-0.02611593 -0.059798401 0.050936799
-0.18963818 -0.066750251 -0.027153842
-0.02611593 -0.059798401 0.050936799
-0.02611593 -0.059798401 0.050936799
-0.16455817 -0.054878194 -0.025408067
-0.02611593 -0.059798401 0.050936799
-0.19565488 -0.061693389 -0.028950326
-0.19067752 -0.057675838 -0.030971538
-0.02611593 -0.059798401 0.050936799
-0.20863469 -0.066682063 -0.026796822
-0.02611593 -0.059798401 0.050936799
-0.02611593 -0.059798401 0.050936799
-0.18356948 -0.053792089 -0.026032686
-0.02611593 -0.059798401 0.050936799
-0.21766958 -0.061596349 -0.029536601
-0.21169239 -0.057582382 -0.031576596
-0.02611593 -0.059798401 0.050936799
-0.2396704 -0.067534454 -0.028231654
-0.02611593 -0.059798401 0.050936799
-0.02611593 -0.059798401 0.050936799
-0.20458436 -0.053698633 -0.026637748
-0.02611593 -0.059798401 0.050936799
-0.24366483 -0.061503038 -0.029048048
-0.23466948 -0.057517927 -0.030144755
-0.02611593 -0.059798401 0.050936799
-1.0566061 -0.095838621 -0.27753294
-0.02611593 -0.059798401 0.050936799
-0.02611593 -0.059798401 0.050936799
-0.2285987 -0.053594407 -0.027186438
-1.0782462 -0.096103363 -0.25812599
-1.0433751 -0.070016325 -0.27031112
-0.26264563 -0.057435527 -0.028618954
-0.02611593 -0.059798401 0.050936799
-1.0676746 -0.093682431 -0.22826999
-1.0549572 -0.069371387 -0.24807505
-0.02611593 -0.059798401 0.050936799
-0.25757074 -0.052508589 -0.025623828
-1.0953138 -0.093925633 -0.20875031
-1.0605067 -0.069783993 -0.22397044
-1.0407274 -0.048569914 -0.23996246
-0.02611593 -0.059798401 0.050936799
-1.0958189 -0.092392698 -0.18270427
-1.076088 -0.069124706 -0.20165925
-1.0513134 -0.048928399 -0.21776319
-1.0365785 -0.029659862 -0.2356966
-1.0983464 -0.091834337 -0.15763837
-1.0756159 -0.068577103 -0.17664967
-1.0669174 -0.049250845 -0.19646966
-1.0441505 -0.031047029 -0.2125721
-1.1038693 -0.090265363 -0.13249806
-1.0902013 -0.068921223 -0.15437528
-1.0664494 -0.049703073 -0.17147814
-1.0557551 -0.031383831 -0.19135374
-1.1364888 -0.090508707 -0.11188475
-1.0927286 -0.068362854 -0.12930937
-1.070999 -0.050119266 -0.14739232
-1.0753809 -0.032673664 -0.17100272
-1.1299578 -0.089037083 -0.083970957
-1.1203303 -0.068642236 -0.10779036
-1.0835848 -0.050470568 -0.12515549
-1.0708948 -0.033158336 -0.14508669
-1.1395026 -0.088435501 -0.059773162
-1.1228579 -0.068083867 -0.082724422
-1.1051875 -0.050771482 -0.10374923
-1.0774668 -0.034549087 -0.12198097
-1.1349902 -0.086938597 -0.032821432
-1.1394016 -0.067457162 -0.058395103
-1.1087189 -0.051209353 -0.078682542
-1.0950557 -0.035882279 -0.09966822
-1.1725487 -0.086218432 -0.0090971664
-1.1449324 -0.06788785 -0.033290833
-1.1182677 -0.051607601 -0.054502763
-1.1016049 -0.036291294 -0.075544819
-0.02611593 -0.059798401 0.050936799
-1.1444417 -0.067358337 -0.0072816312
-1.1258169 -0.052013025 -0.030360572
-1.1101767 -0.037674874 -0.052401505
-1.2135596 -0.085008673 0.043710448
-1.1549678 -0.066771254 0.017934613
-1.1383463 -0.052418597 -0.0051247701
-1.1167113 -0.039101806 -0.027296469
-0.02611593 -0.059798401 0.050936799
-1.176477 -0.067162618 0.044339187
-1.1438771 -0.052849289 0.019979496
-1.1192466 -0.040543098 -0.0022665933
-1.2105371 -0.082993172 0.09770862
-1.2089801 -0.066514663 0.070968479
-1.1614059 -0.053236917 0.045309257
-1.1588086 -0.040815588 0.021477237
-1.2210256 -0.082442269 0.12492418
-1.2044941 -0.066999331 0.096884511
-1.198912 -0.053570852 0.072014481
-1.1553262 -0.042296499 0.047394037
-1.2115139 -0.080963314 0.15178195
-1.2159637 -0.066462927 0.12511852
-0.02611593 -0.059798401 0.050936799
-1.182857 -0.043648064 0.072893679
-1.221965 -0.080448583 0.18099684
-1.216454 -0.06594792 0.15214619
-1.2109026 -0.055500835 0.12622243
-0.02611593 -0.059798401 0.050936799
-1.2264318 -0.078937478 0.20911735
-1.220929 -0.06643647 0.18023065
-1.2203765 -0.05597144 0.15440086
-1.2058456 -0.045538571 0.12730834
-0.02611593 -0.059798401 0.050936799
-1.2303802 -0.065925337 0.20942676
-1.2218519 -0.056470755 0.18242896
-0.02611593 -0.059798401 0.050936799
-1.2692178 -0.077937596 0.27395847
-1.2318369 -0.066442743 0.23845451
-1.2273266 -0.056955718 0.21053219
-1.2218019 -0.048490208 0.18357275
-0.02611593 -0.059798401 0.050936799
-1.2412695 -0.065949693 0.26865023
-1.2327827 -0.057458766 0.23963511
-1.2252809 -0.049982175 0.21162041
-0.02611593 -0.059798401 0.050936799
-1.2825878 -0.066450164 0.30542725
-1.2382385 -0.057961814 0.26873803
-1.2337214 -0.051492374 0.24176134
-0.02611593 -0.059798401 0.050936799
-1.3089049 -0.066004634 0.3419404
-0.02611593 -0.059798401 0.050936799
-1.2521416 -0.052984778 0.27308983
-1.5247097 -0.076337144 0.46283495
-1.4467187 -0.066627301 0.4065313
-0.02611593 -0.059798401 0.050936799
-0.02611593 -0.059798401 0.050936799
-3.1143839 -0.091369621 0.97750044
-1.5356162 -0.067353457 0.46620277
-1.4795018 -0.060690776 0.41725609
-0.02611593 -0.059798401 0.050936799
-3.0900431 -0.088737167 1.0481162
-3.1153207 -0.075368747 0.97780752
-1.5375361 -0.061401568 0.46934745
-0.02611593 -0.059798401 0.050936799
-3.1511996 -0.086266376 1.1463392
-3.089988 -0.074739553 1.0483685
-3.1102037 -0.064460918 0.98191041
-1.5315146 -0.060441364 0.47025239
-3.2241709 -0.084933259 1.2547665
-3.1570992 -0.075300992 1.1496491
-3.0958247 -0.066845998 1.0556231
-3.1001494 -0.064551078 0.98472148
-3.2891021 -0.082665183 1.3650604
-3.2270935 -0.074960366 1.2570022
-3.158963 -0.069403365 1.1557928
-3.1026814 -0.068965249 1.0637158
-3.3718054 -0.080549583 1.4876887
-3.2960172 -0.075695522 1.3683171
-3.2349119 -0.072094962 1.2662035
-3.1707518 -0.073576689 1.1679422
-3.4514306 -0.077517271 1.6142771
-3.3737292 -0.075597517 1.4908153
-3.2988441 -0.074847728 1.3773885
-3.2526364 -0.079318598 1.2824103
-4.8263993 -0.081828408 2.3752003
-3.4632559 -0.076637179 1.6235178
-3.3844955 -0.078792691 1.5039636
-3.3116004 -0.085070699 1.3924475
-4.6851468 -0.077543847 2.4396551
-4.8173676 -0.082896717 2.3770127
-3.4759922 -0.081861004 1.6386667
-3.3932602 -0.091029689 1.5189114
-4.5796633 -0.073347151 2.5167823
-4.6949625 -0.08370591 2.450731
-4.8240762 -0.095195159 2.3949215
-3.4787927 -0.098100759 1.6524301
-4.7473502 -0.068837434 2.7470813
-4.5864949 -0.083519302 2.5277297
-4.6679854 -0.097836606 2.4519708
-4.895196 -0.12287279 2.4477706
-3.4095128 -0.064177483 2.0858934
-4.7600889 -0.084095731 2.7640495
-4.5991144 -0.10190372 2.5516415
-4.740026 -0.12960042 2.5097647
-4.5531178 -0.060636267 2.9156504
-3.3352556 -0.077793062 2.0482442
-4.7509003 -0.10739546 2.778461
-4.828517 -0.13966981 2.6993034
-3.3580935 -0.057625573 2.2661104
-3.2354236 -0.076962709 2.0914049
-3.2944648 -0.095810525 2.0401518
-3.4079249 -0.12203861 2.0217955
-3.3116033 -0.054216955 2.3443282
-3.227567 -0.077775232 2.1902766
-3.2183819 -0.099146605 2.0976865
-3.2793796 -0.12605824 2.0503256
-4.2329526 -0.048789024 3.1319435
-3.2512515 -0.07790722 2.3137593
-3.182857 -0.10175177 2.1790018
-3.210228 -0.13144122 2.1119547
-2.7463465 -0.049732193 2.1387565
-2.6276429 -0.07510823 1.9670168
-3.206557 -0.10588307 2.3024125
-3.1894915 -0.13820893 2.2054756
-4.0214615 -0.041946657 3.2611516
-2.6012952 -0.075500533 2.0385406
-2.6037455 -0.10019011 1.9661155
-4.2771363 -0.17494382 3.0934758
-2.4403641 -0.046893872 2.0810595
-2.5157642 -0.075330347 2.0659518
-2.5103357 -0.10193976 1.9873421
-2.5709038 -0.13428468 1.9638832
-2.5458384 -0.043868266 2.2691529
-2.4441178 -0.075218439 2.0996239
-2.4544137 -0.10404143 2.0362737
-2.4981983 -0.13824804 2.0014629
-1.872435 -0.04620108 1.7523276
-1.9090962 -0.072524615 1.7225277
-2.4299989 -0.10649857 2.1117976
-2.448175 -0.14343619 2.0564511
-1.8228517 -0.043938205 1.7824503
-1.8643889 -0.072370082 1.759706
-1.8970131 -0.098744154 1.7318302
-2.4266775 -0.14897251 2.1369758
-1.950966 -0.041173745 1.9899693
-1.8413217 -0.072480276 1.8162912
-1.8483706 -0.10054937 1.7658985
-1.8809665 -0.13397652 1.7408956
-2.1317103 -0.036518406 2.2705326
-2.0086019 -0.074385598 2.0694745
-1.8969727 -0.10468139 1.8947773
-1.8313279 -0.13678515 1.7749269
-3.3428569 -0.018659886 3.7080188
-2.204936 -0.076087862 2.3732226
-2.0641451 -0.11271229 2.15485
-1.9535357 -0.14800365 1.9800816
-3.2575274 -0.016246364 3.7774885
-3.3236701 -0.085150987 3.7304645
-2.2740738 -0.12177918 2.4817274
-2.1480191 -0.16362028 2.2785413
-3.159462 -0.013626244 3.8327186
-3.2255607 -0.085584626 3.7886395
-3.2905619 -0.15663722 3.749558
-3.3476484 -0.23466307 3.7072008
-3.0643775 -0.011013441 3.8890047
-3.1333377 -0.086105272 3.8529251
-3.1943662 -0.15915379 3.8127327
-3.2484648 -0.24018988 3.7702653
-2.9781005 -0.0075493976 3.9554741
-3.0372276 -0.086531729 3.9111376
-3.0932691 -0.16259769 3.8707974
-3.1551762 -0.24780339 3.8394046
-2.8878655 -0.0050633773 4.0198522
-2.9430799 -0.086987182 3.9713871
-3.001024 -0.16715382 3.9370103
-3.0540121 -0.25331929 3.9014316
-2.7928557 -0.0023782253 4.0721393
-2.849895 -0.08747524 4.0336547
-2.9048285 -0.16967037 4.000185
-2.9519639 -0.2597301 3.9574242
-2.703639 0.00012948364 4.1355357
-2.7586904 -0.087974198 4.0969596
-2.8116403 -0.17417586 4.0633802
-2.8625998 -0.26740155 4.0306368
-2.6105356 0.0027313679 4.1928592
-2.6626182 -0.088364482 4.153173
-2.7174294 -0.17770314 4.1275744
-2.7595294 -0.27283421 4.0876284
-2.5184507 0.0053549185 4.2492018
-2.5723798 -0.089895867 4.2184777
-2.6183882 -0.1810856 4.1826777
-2.6623721 -0.28033543 4.1496944
-2.4292152 0.0078445375 4.3135977
-2.4763072 -0.090286143 4.2746911
-2.5231962 -0.18459842 4.2458534
-2.5710042 -0.28701425 4.222888
-2.3409796 0.010337755 4.3780127
-2.3811972 -0.090709016 4.3329225
-2.4290042 -0.18810761 4.3090477
-2.4689374 -0.29344314 4.27988
-2.2440121 0.012052067 4.4282451
-2.2918987 -0.091291249 4.4012632
-2.3328311 -0.19160593 4.3712044
-2.3717577 -0.29996264 4.3429642
-2.1537545 0.015519835 4.4936404
-2.1986799 -0.09281531 4.4655123
-2.2376056 -0.19615474 4.4363618
-2.2754879 -0.30756879 4.411047
-2.062557 0.018038452 4.5559998
-2.1035137 -0.093292437 4.5267425
-2.1414325 -0.19965306 4.4985185
-2.1772337 -0.31416419 4.4781108
-1.9684201 0.019600756 4.6152854
-2.0073473 -0.093773171 4.587954
-2.044189 -0.20422715 4.5646381
-2.0751297 -0.32062927 4.5371022
-1.8751667 0.022057928 4.6806059
-1.9131101 -0.095318906 4.6531839
-1.9450538 -0.20770004 4.6247396
-1.9777478 -0.3283475 4.6111641
-1.7790637 0.024649031 4.7378726
-1.8139446 -0.095810398 4.7143393
-1.8496598 -0.21241164 4.6988931
-1.8755729 -0.33588481 4.6741366
-0.84216642 -0.0177285 2.3897691
-1.7147979 -0.096283808 4.7744946
-1.7465255 -0.2158989 4.7589197
-1.7714319 -0.34239319 4.7350898
-0.77749658 -0.017654264 2.3715537
-1.6175237 -0.097876489 4.8416677
-1.6424891 -0.22029912 4.813911
-1.6671637 -0.35002807 4.8030224
-0.74595112 -0.015245911 2.4530342
-1.5134712 -0.098277383 4.8967304
-1.5401486 -0.22398177 4.8849521
-1.5628957 -0.35766298 4.8709555
-0.66547179 -0.016092736 2.3714845
-1.4066294 -0.099489905 4.9407234
-1.4368871 -0.22859547 4.9519577
-1.4566464 -0.36528689 4.9378505
-0.57512569 -0.017893359 2.2297125
-1.308902 -0.10051689 5.0319057
-1.3306825 -0.23316565 5.0159082
-1.3482667 -0.37304467 5.0117064
-0.50741941 -0.018910598 2.1604025
-1.2056288 -0.10213111 5.0989656
-1.2252154 -0.23798552 5.0938735
-1.2389097 -0.38178778 5.0845251
-0.45207006 -0.019496387 2.125344
-1.1002247 -0.10387913 5.1729856
-1.1168425 -0.24272572 5.1667833
-1.1265869 -0.38950559 5.1553068
-0.40317264 -0.019581795 2.1194248
-0.99368614 -0.10475752 5.2540026
-1.0046391 -0.24731743 5.2306209
-1.0141368 -0.39834991 5.233068
-0.34981906 -0.019160569 2.0844219
-1.530722 -0.14071561 9.3087816
-1.5497508 -0.39858907 9.3034716
-1.5586717 -0.67165869 9.3066988
-0.29854402 -0.019659633 2.0454395
-1.2555594 -0.13822365 8.8885317
-1.2703663 -0.38729385 8.8933048
-1.2697139 -0.64894897 8.8715534
-0.25777581 -0.018545181 2.08571
-1.008414 -0.13556838 8.5208282
-1.0134947 -0.37738624 8.5095453
-1.0069166 -0.62895608 8.481863
-0.77219659 0.10596266 8.1646547
-0.77819455 -0.13392431 8.1574249
-0.78024054 -0.36675447 8.1462469
-0.76783794 -0.61014819 8.1075993
-0.56913435 0.10087615 7.8476529
-0.57006824 -0.13206613 7.8424549
-0.56450009 -0.35752824 7.8092608
-0.55002904 -0.59296668 7.7727189
-0.38154492 0.09534058 7.5589423
-0.3787328 -0.13034591 7.5388007
-0.36811945 -0.34884524 7.5066385
-0.34788018 -0.57605332 7.4561324
-0.2086305 0.090551138 7.2875266
-0.19898337 -0.12898061 7.2573647
-0.18542182 -0.34141937 7.2212558
-0.16389708 -0.56288528 7.1848345
-0.046107084 0.087221995 7.0483422
-0.034496859 -0.1272635 7.0152335
-0.018047273 -0.33458728 6.9721608
0.0080921501 -0.54867435 6.9137793
0.1024524 0.082907088 6.8114023
0.11906262 -0.12657912 6.7772908
0.13731074 -0.327694 6.7222924
0.16571282 -0.53702426 6.6769586
0.24437281 0.07927344 6.5936065
0.26294613 -0.12516652 6.5565476
0.28532553 -0.32140514 6.5075622
0.31561583 -0.52561688 6.4552832
0.37663206 0.075350091 6.3939915
0.39939284 -0.12426788 6.3659449
0.42152578 -0.31625396 6.3030362
0.45368555 -0.515329 6.2428117
0.5032708 0.072086327 6.2145
0.5255605 -0.12306203 6.1605344
0.55061495 -0.31096908 6.0926428
0.58392531 -0.50517517 6.0394883
0.62070525 0.069053829 6.0241818
0.64493537 -0.12203002 5.9662523
0.67330456 -0.30623794 5.914372
0.70848435 -0.49530736 5.853272
0.73029095 0.065905318 5.8420119
0.7597605 -0.1214142 5.7960558
0.78899544 -0.30148172 5.7362313
-0.02611593 -0.059798401 0.050936799
0.83942366 0.063235663 5.688868
0.86986744 -0.12105179 5.6409483
-0.02611593 -0.059798401 0.050936799
0.17062604 -0.14473318 1.1690959
-0.02611593 -0.059798401 0.050936799
-0.02611593 -0.059798401 0.050936799
0.18661866 -0.10765218 1.1614647
0.19313504 -0.14434542 1.1426725
1.0378013 0.056859754 5.3889375
1.0712384 -0.11940365 5.3391056
0.20816529 -0.107297 1.1370593
0.21784963 -0.1441638 1.1272079
0.27119094 -0.03107737 1.3893437
0.28082514 -0.075924717 1.3783481
0.23080535 -0.10703585 1.1176336
0.23836291 -0.14276901 1.1008401
1.2175646 0.052189931 5.1093922
1.250778 -0.11883919 5.0466557
0.25461373 -0.1069411 1.1071861
0.25895113 -0.14144659 1.0784709
1.3000019 0.049327724 4.9727507
0.34905607 -0.076403916 1.390066
0.28057155 -0.10699823 1.1046981
0.28481135 -0.14241311 1.0709666
1.3816117 0.047306173 4.8451424
0.36183652 -0.075278379 1.324825
0.30433851 -0.10786712 1.0922333
0.31606388 -0.14377744 1.0843614
1.4635959 0.044922821 4.7375283
0.39696118 -0.075530611 1.331165
0.33133361 -0.10796402 1.0917259
0.34405485 -0.14487776 1.0838172
1.5341517 0.042994998 4.6071277
0.43529126 -0.075992592 1.3484448
0.3614552 -0.10919815 1.0981418
0.37415779 -0.1460938 1.0892335
-0.02611593 -0.059798401 0.050936799
-0.02611593 -0.059798401 0.050936799
0.39048737 -0.1093384 1.0995963
0.40940562 -0.14847232 1.1025351
0.42356279 -0.034181211 1.1953689
0.47498792 -0.07589142 1.2786798
0.4268513 -0.1108292 1.1188949
0.45611167 -0.1533422 1.1405855
1.7470732 0.035999566 4.2829056
1.7914007 -0.11510859 4.222321
1.8325984 -0.26106215 4.1538863
1.8704145 -0.40864277 4.0654793
1.8152325 0.034503482 4.1845689
1.8563437 -0.11437718 4.1120815
1.8923669 -0.25713238 4.0337977
1.9394848 -0.40403491 3.9612339
1.878314 0.032097891 4.0823097
1.9183621 -0.11370735 4.0058966
1.9616501 -0.25574109 3.9414949
2.0076678 -0.39953202 3.8630056
1.9383812 0.030720964 3.979125
1.9846754 -0.11434112 3.9156127
2.0268259 -0.25322708 3.8432865
2.0687394 -0.39489543 3.7589109
2.0027285 0.02905836 3.8908603
2.0448818 -0.11384501 3.8194618
2.0890396 -0.25073847 3.7471342
2.1361098 -0.39056987 3.6706977
2.0609605 0.026525982 3.7966924
2.1051064 -0.11336698 3.7243109
2.1523838 -0.24838009 3.6579611
2.1983833 -0.38713568 3.5775623
2.1203461 0.024845123 3.710521
2.1664994 -0.11305535 3.6381378
2.2075424 -0.24581209 3.5589411
2.2566247 -0.38265118 3.4825211
2.180769 0.023124531 3.6263301
2.2217813 -0.11261363 3.5460794
2.2659063 -0.24345386 3.4708612
2.316977 -0.37828237 3.3934398
2.2360992 0.021512307 3.5372345
2.2781193 -0.11222978 3.4570012
2.3273449 -0.24117875 3.3867233
2.3774385 -0.37502187 3.3103385
2.2874303 0.019914448 3.4482145
2.3365879 -0.11197974 3.3748834
2.3837616 -0.23986743 3.3016622
2.4296992 -0.37053391 3.2164094
2.3429286 0.018139414 3.3681161
2.3889825 -0.1116358 3.2888794
2.4320338 -0.23738284 3.2087719
2.4851093 -0.36620143 3.1304212
2.3964093 0.016389664 3.2870557
2.4434893 -0.11140758 3.2088361
2.4916227 -0.23524526 3.132669
2.5426271 -0.36298448 3.0503755
2.4478564 0.015683092 3.2040515
2.4969773 -0.11115767 3.1278117
2.5460997 -0.2329812 3.050662
2.5930378 -0.35863408 2.9644811
2.5024676 0.013803128 3.1299701
2.5525403 -0.11098731 3.0507483
2.5945179 -0.23164116 2.9657512
2.6495559 -0.35541353 2.8844543
2.5540233 0.0119882 3.0529459
2.597955 -0.11063632 2.9658756
2.6521254 -0.22951449 2.8906856
2.6990194 -0.35211357 2.8015594
2.5994489 0.010321412 2.9690366
2.653574 -0.11052022 2.8918111
2.6965294 -0.22714217 2.804868
2.7454121 -0.34773073 2.714741
2.6510832 0.009433955 2.8960292
2.7021008 -0.11028855 2.81288
2.7450266 -0.22487468 2.7239738
2.8020611 -0.3446368 2.6417115
2.7006578 0.0076081119 2.8200421
2.7527056 -0.10913658 2.7379284
2.7986684 -0.22376965 2.6509645
2.8455112 -0.34029743 2.5579481
2.7421405 0.0059014298 2.7392073
2.7982287 -0.10989398 2.6590352
