# .PCD v0.7 - Point Cloud Data file format
VERSION 0.7
FIELDS x y z
SIZE 4 4 4
TYPE F F F
COUNT 1 1 1
WIDTH 1367
HEIGHT 1
VIEWPOINT 0 0 0 1 0 0 0
POINTS 1367
DATA ascii
-0.02611593 -0.059798401 0.050936799
-0.02611593 -0.059798401 0.050936799
-0.630705 0.63788331 0.31796721
-0.65877962 0.63203913 0.31538624
-0.02611593 -0.059798401 0.050936799
-0.02611593 -0.059798401 0.050936799
-0.62545174 0.63561255 0.33183247
-0.65744972 0.63472748 0.33241573
-0.02611593 -0.059798401 0.050936799
-0.02611593 -0.059798401 0.050936799
-0.61919457 0.63433784 0.34569693
-0.65414679 0.63542718 0.34837195
-0.02611593 -0.059798401 0.050936799
-0.02611593 -0.059798401 0.050936799
-0.61295623 0.63308132 0.35856178
-0.64688295 0.63113135 0.36316326
-0.02611593 -0.059798401 0.050936799
-0.02611593 -0.059798401 0.050936799
-0.60966814 0.63479894 0.37353638
-0.64357603 0.6328308 0.37913752
-0.02611593 -0.059798401 0.050936799
-0.02611593 -0.059798401 0.050936799
-0.60340708 0.63452417 0.3874189
-0.63532722 0.62954938 0.39292839
-0.02611593 -0.059798401 0.050936799
-0.02611593 -0.059798401 0.050936799
-0.59419584 0.63127524 0.39919162
-0.63200164 0.63123071 0.4099023
-0.02611593 -0.059798401 0.050936799
-0.02611593 -0.059798401 0.050936799
-0.58793867 0.63000065 0.41305614
-0.62767619 0.63290858 0.42685741
-0.02611593 -0.059798401 0.050936799
-0.02611593 -0.059798401 0.050936799
-0.58069664 0.62974042 0.42592019
-0.62041926 0.6316303 0.44070309
-0.02611593 -0.059798401 0.050936799
-0.02611593 -0.059798401 0.050936799
-0.57345444 0.62948006 0.43878424
-0.61117065 0.62834531 0.45447519
-0.02611593 -0.059798401 0.050936799
-0.02611593 -0.059798401 0.050936799
-0.56718951 0.63020515 0.45268479
-0.6028952 0.62704539 0.46930176
-0.02611593 -0.059798401 0.050936799
-0.02611593 -0.059798401 0.050936799
-0.55894756 0.62994123 0.46553004
-0.59561163 0.62774885 0.48418316
-0.02611593 -0.059798401 0.050936799
-0.02611593 -0.059798401 0.050936799
-0.55168283 0.63066268 0.47941178
-0.5883134 0.62743425 0.50004625
-0.02611593 -0.059798401 0.050936799
-0.02611593 -0.059798401 0.050936799
-0.54246372 0.62941355 0.49122062
-0.57807976 0.62516356 0.51281786
-0.02611593 -0.059798401 0.050936799
-0.02611593 -0.059798401 0.050936799
-0.53519899 0.63013494 0.50510234
-0.57372379 0.62982273 0.53082669
-0.02611593 -0.059798401 0.050936799
-0.02611593 -0.059798401 0.050936799
-0.52792639 0.63285613 0.51902014
-0.55954403 0.6235745 0.54145181
-0.02611593 -0.059798401 0.050936799
-0.02611593 -0.059798401 0.050936799
-0.51968056 0.63359207 0.53188336
-0.55221123 0.62724119 0.55838656
-0.02611593 -0.059798401 0.050936799
-0.02611593 -0.059798401 0.050936799
-0.51043481 0.63432443 0.54472792
-0.54197359 0.62597036 0.57117623
-0.02611593 -0.059798401 0.050936799
-0.02611593 -0.059798401 0.050936799
-0.49633387 0.62714875 0.55133635
-0.53073621 0.6246959 0.58394706
-0.02611593 -0.059798401 0.050936799
-0.02611593 -0.059798401 0.050936799
-0.48708814 0.62788111 0.56418085
-0.52339947 0.62936234 0.60089993
-0.02611593 -0.059798401 0.050936799
-0.02611593 -0.059798401 0.050936799
-0.47686139 0.62862796 0.57600689
-0.50923449 0.6241321 0.61054337
-0.02611593 -0.059798401 0.050936799
-0.02611593 -0.059798401 0.050936799
-0.46758911 0.63134193 0.58988708
-0.4979744 0.62383938 0.62433189
-0.02611593 -0.059798401 0.050936799
-0.02611593 -0.059798401 0.050936799
-0.45640785 0.63012177 0.59965897
-0.48671037 0.62454647 0.63813853
-0.02611593 -0.059798401 0.050936799
-0.02611593 -0.059798401 0.050936799
-0.44225371 0.6269092 0.60833883
-0.47446522 0.6252681 0.65092665
-0.02611593 -0.059798401 0.050936799
-0.02611593 -0.059798401 0.050936799
-0.43202692 0.62765604 0.62016487
-0.4622201 0.62598962 0.66371477
-0.02611593 -0.059798401 0.050936799
-0.02611593 -0.059798401 0.050936799
-0.42081904 0.62841743 0.63097245
-0.44804722 0.62275904 0.6733942
-0.02611593 -0.059798401 0.050936799
-0.02611593 -0.059798401 0.050936799
-0.40768343 0.62522662 0.6386714
-0.43577552 0.62546223 0.68721807
-0.02611593 -0.059798401 0.050936799
-0.02611593 -0.059798401 0.050936799
-0.39449859 0.62499905 0.64842367
-0.42160264 0.6222316 0.69689757
-0.02611593 -0.059798401 0.050936799
-0.02611593 -0.059798401 0.050936799
-0.38424131 0.62872738 0.66130352
-0.40739533 0.62298226 0.70764881
-0.02611593 -0.059798401 0.050936799
-0.02611593 -0.059798401 0.050936799
-0.3701207 0.62655079 0.66800201
-0.39510095 0.62666708 0.72249031
-0.02611593 -0.059798401 0.050936799
-0.02611593 -0.059798401 0.050936799
-0.35789034 0.62829036 0.67980856
-0.37994304 0.6244508 0.7311694
-0.02611593 -0.059798401 0.050936799
-0.02611593 -0.059798401 0.050936799
-0.3437697 0.62611371 0.68650699
-0.36189896 0.61731505 0.73470366
-0.02611593 -0.059798401 0.050936799
-0.02611593 -0.059798401 0.050936799
-0.32964903 0.62393725 0.69320554
-0.34860086 0.62199628 0.74954438
-0.02611593 -0.059798401 0.050936799
-0.02611593 -0.059798401 0.050936799
-0.31550181 0.62374228 0.70093977
-0.33250326 0.61883074 0.75518757
-0.02611593 -0.059798401 0.050936799
-0.02611593 -0.059798401 0.050936799
-0.30230916 0.62551439 0.71072817
-0.31636029 0.61762881 0.76286626
-0.02611593 -0.059798401 0.050936799
-0.02611593 -0.059798401 0.050936799
-0.28723001 0.62237072 0.71539056
-0.3011719 0.6183939 0.77259898
-0.02611593 -0.059798401 0.050936799
-0.02611593 -0.059798401 0.050936799
-0.27212831 0.62020862 0.72107059
-0.28593817 0.62112254 0.7843672
-0.02611593 -0.059798401 0.050936799
-0.24898911 0.62697166 0.67374367
-0.25988618 0.62494761 0.73293114
-0.26696917 0.61405545 0.78388405
-0.02611593 -0.059798401 0.050936799
-0.2358565 0.6277982 0.68051499
-0.24289021 0.61986941 0.73352128
-0.25173151 0.6177839 0.79567015
-0.02611593 -0.059798401 0.050936799
-0.22183733 0.62371248 0.68217921
-0.22778456 0.61870718 0.73921937
-0.23462622 0.61661458 0.80133063
-0.02611593 -0.059798401 0.050936799
-0.2096553 0.62750596 0.69102275
-0.2136029 0.62249345 0.7480253
-0.2174717 0.6184085 0.80904454
-0.02611593 -0.059798401 0.050936799
-0.19465505 0.62343466 0.69166845
-0.19944784 0.62429816 0.75579554
-0.20036641 0.61723906 0.81470507
-0.02611593 -0.059798401 0.050936799
-0.1815185 0.62526101 0.69845784
-0.18152 0.61627114 0.75331384
-0.18228002 0.61608428 0.81934708
-0.02611593 -0.059798401 0.050936799
-0.16847257 0.62316048 0.70117652
-0.16731569 0.62103915 0.76313752
-0.1651895 0.61593276 0.82402599
-0.02611593 -0.059798401 0.050936799
-0.15435496 0.62500131 0.70694745
-0.15133826 0.61598259 0.76274681
-0.14807636 0.616763 0.82972252
-0.02611593 -0.059798401 0.050936799
-0.14030525 0.62389696 0.70966536
-0.13613023 0.62174684 0.77256966
-0.12905024 0.61465901 0.83132875
-0.02611593 -0.059798401 0.050936799
-0.12537295 0.61688054 0.70725811
-0.12010355 0.61965352 0.77423227
-0.11193316 0.61648911 0.83704334
-0.02611593 -0.059798401 0.050936799
-0.11225121 0.61972481 0.71306574
-0.1039597 0.62346876 0.78100133
-0.093865484 0.61535233 0.84068578
-0.02611593 -0.059798401 0.050936799
-0.098129645 0.62256551 0.71885473
-0.087997064 0.61943018 0.77962893
-0.075808689 0.61623329 0.84336454
-0.02611593 -0.059798401 0.050936799
-0.084234588 0.61558878 0.71446687
-0.071902454 0.62028217 0.78434461
-0.057801113 0.61415094 0.84398985
-0.02611593 -0.059798401 0.050936799
-0.070086457 0.62041116 0.72129154
-0.055845287 0.62117028 0.78706098
-0.03878979 0.61306483 0.84461451
-0.02611593 -0.059798401 0.050936799
-0.056032851 0.62030667 0.72402751
-0.038946856 0.61518264 0.78263474
-0.020732991 0.6139459 0.84729326
-0.02611593 -0.059798401 0.050936799
-0.040971573 0.62219816 0.72678065
-0.022821737 0.61901599 0.78840423
-0.0037587536 0.61290306 0.84595621
-0.02611593 -0.059798401 0.050936799
-0.026985921 0.61914843 0.7264635
-0.0068285912 0.61795872 0.78808552
0.015320515 0.61476219 0.84963381
-0.02611593 -0.059798401 0.050936799
-0.011924642 0.62104005 0.72921669
0.0091192508 0.61493802 0.78573143
0.0332532 0.6127522 0.84626055
-0.02611593 -0.059798401 0.050936799
0.0010690531 0.61999351 0.72895437
0.025048377 0.61193544 0.78237778
0.052291095 0.6136477 0.84792095
-0.02611593 -0.059798401 0.050936799
0.016017081 0.61697638 0.72661912
0.042135864 0.61580133 0.786129
0.070159756 0.60969228 0.84151262
-0.02611593 -0.059798401 0.050936799
0.031010406 0.61592275 0.72631919
0.059178047 0.6177038 0.78784502
0.088137738 0.60964578 0.84017473
-0.02611593 -0.059798401 0.050936799
0.045053147 0.61783594 0.7280916
0.075129822 0.6156829 0.78550893
0.10716476 0.6125589 0.84087139
-0.02611593 -0.059798401 0.050936799
0.060050402 0.61778212 0.72780973
0.091066808 0.61467993 0.78219134
0.12514275 0.61251247 0.83953357
-0.02611593 -0.059798401 0.050936799
0.075028941 0.61774635 0.72652823
0.10918069 0.62052387 0.78695953
0.14300053 0.61057484 0.83216166
-0.02611593 -0.059798401 0.050936799
0.090030119 0.6186924 0.72626436
0.12504971 0.6165756 0.78058887
0.16200492 0.61250627 0.83184063
-0.02611593 -0.059798401 0.050936799
0.10505002 0.61962026 0.72700018
0.14205444 0.6185143 0.78030545
0.1788816 0.61055416 0.82548726
-0.02611593 -0.059798401 0.050936799
0.12000589 0.61860281 0.72470093
0.15688229 0.61360598 0.77193618
0.1968448 0.61152554 0.82316768
-0.02611593 -0.059798401 0.050936799
0.13392058 0.61662525 0.72040325
0.17384958 0.6155808 0.76965344
0.21470653 0.61058784 0.8158139
-0.02611593 -0.059798401 0.050936799
0.14890304 0.61758929 0.7191397
0.19083562 0.61753756 0.76837039
0.23160981 0.61061722 0.81049603
-0.02611593 -0.059798401 0.050936799
0.16384414 0.61758971 0.71585894
0.20566739 0.6136291 0.76001912
0.25059938 0.61356664 0.80919343
-0.02611593 -0.059798401 0.050936799
0.17776276 0.61661202 0.7115792
0.22158955 0.61364406 0.7557199
0.26531094 0.60776699 0.79480821
-0.02611593 -0.059798401 0.050936799
0.19270384 0.61661249 0.70829833
0.23749301 0.61367702 0.75042087
0.28430447 0.61171627 0.79352361
-0.02611593 -0.059798401 0.050936799
0.2087127 0.61955452 0.70805174
0.2544603 0.61565191 0.74813819
0.30112892 0.61081821 0.78418922
-0.02611593 -0.059798401 0.050936799
0.22260867 0.61759502 0.70275432
0.26825485 0.61178327 0.7378065
0.31696835 0.60890585 0.77585524
-0.02611593 -0.059798401 0.050936799
0.23544081 0.61369383 0.69444066
0.28522608 0.6147579 0.7355417
0.33279693 0.60901117 0.76655763
-0.02611593 -0.059798401 0.050936799
0.25143486 0.61765379 0.69321239
0.30009222 0.61483067 0.72826225
0.35070789 0.61103672 0.76125711
-0.02611593 -0.059798401 0.050936799
0.26635724 0.61767232 0.68893188
0.31600356 0.61686337 0.72299933
0.36653647 0.6111421 0.75195956
-0.02611593 -0.059798401 0.050936799
0.27919328 0.61477083 0.68063635
0.32770783 0.60907483 0.7086345
0.38029742 0.60830939 0.73964649
-0.02611593 -0.059798401 0.050936799
0.29516864 0.61874896 0.67840838
0.34566799 0.61406368 0.70538729
0.396126 0.60841477 0.73034889
-0.02611593 -0.059798401 0.050936799
0.30798203 0.61486578 0.6690951
0.36055687 0.61511827 0.69912553
0.41093603 0.60854185 0.72007048
0.26936424 0.61861664 0.63587469
0.3228896 0.61590225 0.66383296
0.37540433 0.61520916 0.69084632
0.42781758 0.61260682 0.71282542
0.28226429 0.61766064 0.63061416
0.33679736 0.61694229 0.6585896
0.38509414 0.60844576 0.67553747
0.44056001 0.60979581 0.6995315
0.29414189 0.61572647 0.6243546
0.34961465 0.61405891 0.64929432
0.40406203 0.61543065 0.67230755
0.4543249 0.60796297 0.68723649
0.30911347 0.61870831 0.62212747
0.36248127 0.61413884 0.64205247
0.41688719 0.61454695 0.66304827
0.46916547 0.61107147 0.67801172
0.32506618 0.62170464 0.61888188
0.37530649 0.61325526 0.63279319
0.4317199 0.61565578 0.65378749
0.48191181 0.6092602 0.66473579
0.33795148 0.62176657 0.61263973
0.39019921 0.6153096 0.62654936
0.44143626 0.610874 0.63951427
0.49568459 0.60942703 0.65247679
0.35081014 0.61984682 0.60536176
0.40404686 0.61540401 0.61828905
0.45729536 0.61396074 0.63127041
0.50743508 0.60861933 0.6392377
0.36367279 0.61892694 0.59810179
0.41689473 0.61550206 0.61004746
0.47112823 0.61507308 0.62202835
0.52123445 0.61076778 0.62801445
0.37553564 0.6180107 0.59086072
0.42971987 0.61461842 0.60078818
0.48394254 0.61620724 0.6118055
0.53091735 0.60702199 0.6117599
0.389402 0.61808705 0.58359998
0.44152656 0.61375648 0.5905481
0.49568906 0.61439961 0.59854841
0.54062289 0.60425794 0.59652299
0.39300534 0.60340089 0.56526065
0.45537812 0.6148507 0.58230579
0.50748098 0.6145556 0.58732665
0.5513587 0.60447162 0.58232099
0.40382695 0.60152453 0.55602098
0.46718872 0.61498851 0.57208371
0.52129906 0.61668587 0.57710302
0.56311715 0.60566366 0.56911796
0.42695656 0.6163671 0.55985773
0.47795025 0.61216664 0.55982697
0.53204972 0.61588168 0.56388265
0.57385296 0.6058774 0.55491602
0.44083083 0.61844313 0.55263305
0.48259568 0.60345775 0.54257661
0.53668028 0.60819072 0.54565072
0.58154017 0.60313863 0.53871703
0.45675388 0.62347525 0.5474242
0.50259393 0.61342043 0.54038167
0.54847616 0.60934651 0.53444695
0.59534734 0.60728669 0.52752978
0.45629001 0.60585821 0.52610695
0.51438963 0.61457622 0.52917796
0.5602532 0.6105203 0.5222435
0.60101223 0.60357332 0.5103507
0.46911913 0.60597432 0.51686579
0.52925283 0.61866635 0.52097088
0.56695539 0.60676724 0.50704503
0.61075222 0.60479051 0.49618557
0.4789035 0.60413778 0.50564551
0.53797728 0.61588782 0.50675243
0.57771385 0.60796267 0.49386075
0.61844337 0.60305154 0.48000461
0.49175534 0.6052357 0.49742201
0.5507955 0.61802173 0.49654761
0.58644623 0.60718381 0.47967836
0.62816459 0.60428685 0.46483985
0.50252074 0.60341358 0.48518333
0.55851626 0.61424696 0.48232993
0.59925359 0.61133546 0.46850988
0.63793117 0.60748559 0.4517104
0.51535773 0.60552937 0.47597817
0.56827104 0.61444622 0.46914643
0.60594094 0.60860026 0.4523297
0.64057398 0.60280132 0.43357003
0.54044253 0.62341857 0.47683236
0.56889057 0.60377008 0.45093554
0.61367345 0.60782498 0.43816611
0.65639645 0.61094147 0.42241728
0.53593409 0.60385233 0.45355496
0.57661915 0.60199499 0.43675393
0.62443584 0.61002034 0.42499986
0.66309959 0.61220562 0.40630919
0.5487563 0.60698605 0.44336814
0.58537412 0.60219783 0.42358923
0.63317603 0.6112411 0.41085353
0.67487365 0.61739683 0.39317816
0.55749947 0.6041894 0.43014935
0.59310275 0.60042274 0.40940762
0.63786376 0.60851312 0.39471093
0.67246425 0.60876739 0.37306038
0.58149779 0.61915505 0.42696971
0.60591012 0.60457432 0.39823914
0.65369028 0.61765313 0.38357615
0.6811974 0.6130057 0.35796839
0.59125251 0.61935431 0.41378617
0.61669129 0.60675162 0.38607255
0.66140795 0.61789572 0.36843091
0.68589693 0.6132772 0.34187987
0.60302967 0.62052816 0.40158278
0.63556248 0.61784434 0.3769168
0.670156 0.62111616 0.35432062
0.69260001 0.61454123 0.32577178
0.60975444 0.61775672 0.38740194
0.64127266 0.61609447 0.36177304
0.6768738 0.62136239 0.33919415
0.70135599 0.61976135 0.31169751
0.62253916 0.62092662 0.37521577
0.65103537 0.6182934 0.3486256
0.677517 0.61668527 0.32109138
0.70604062 0.62105078 0.29462734
0.62924534 0.61817336 0.36003527
0.65875697 0.6195358 0.33349839
0.68726873 0.62090194 0.30698028
0.70771414 0.61935151 0.27755949
0.63798159 0.61839432 0.34587088
0.66850084 0.62175286 0.31935126
0.69296807 0.62116981 0.29087299
0.71644729 0.62358981 0.26246753
0.65076625 0.62156421 0.33368474
0.67421108 0.62000299 0.30420759
0.69869012 0.62241948 0.27578333
0.71309125 0.61892712 0.2444399
0.65545404 0.61883622 0.31754217
0.67788422 0.6182965 0.28710213
0.7003637 0.62072009 0.25871548
0.7137689 0.61823118 0.22740887
0.66922772 0.62402028 0.30437362
0.68460602 0.6195426 0.2719937
0.69800341 0.61505395 0.24065104
0.70840526 0.6115759 0.20938277
0.67491913 0.62228853 0.28823024
0.69233155 0.62178487 0.25688452
0.70776302 0.62127024 0.22657599
0.56103265 0.47595531 0.16367325
0.6755771 0.61659348 0.2711091
0.69501966 0.61906403 0.24077949
0.70439905 0.61460781 0.20851234
0.54567695 0.46130106 0.14769027
0.68832839 0.62079936 0.25694165
0.69971925 0.61933547 0.22469096
0.56408226 0.4839251 0.16476069
0.54242229 0.45854756 0.13469699
0.69099385 0.61709678 0.23981896
0.70441872 0.61960697 0.20860243
0.55476379 0.47423038 0.1497547
0.56533211 0.47962421 0.12564623
0.69871938 0.61933911 0.22470975
0.56106013 0.48295408 0.16379938
0.54744887 0.4655284 0.13472916
0.56809604 0.48184827 0.11263031
0.70239246 0.61763263 0.20760432
0.54971159 0.47028515 0.14777726
0.55827618 0.47468635 0.12368836
0.5929758 0.50495356 0.1015787
0.56103361 0.48097256 0.16276368
0.55046016 0.46851712 0.13472685
0.57309991 0.48784739 0.1116448
0.60477734 0.51714361 0.088573843
0.54666978 0.46431512 0.14672588
0.56529856 0.48066026 0.12366494
0.58994579 0.50198293 0.10058136
0.60250771 0.5154044 0.074580133
0.55243319 0.46652836 0.13365357
0.57708836 0.48985076 0.11060601
0.60475469 0.51616192 0.087556161
0.61029822 0.52460933 0.061596379
0.56223023 0.47270855 0.12157784
0.59190416 0.50101215 0.098526433
0.61251855 0.52338523 0.073536716
0.61909246 0.53481048 0.04861185
0.57603836 0.48187384 0.109481
0.60871261 0.51518393 0.085463658
0.62128621 0.53160477 0.05951649
0.61883426 0.53606355 0.034634616
0.59786165 0.50002694 0.096396349
0.62249118 0.52638501 0.071403541
0.62003917 0.53084368 0.046521667
0.61458766 0.53531331 0.021696163
0.61263603 0.51022464 0.082299426
0.62822491 0.53063416 0.056367952
0.62479573 0.53607816 0.032522552
0.61533713 0.53856236 0.0077361763
0.62641066 0.52042598 0.068221286
0.62697774 0.52987307 0.043373134
0.62251133 0.53535688 0.017547194
0.61107183 0.53783011 -0.0062019341
0.63916671 0.53064889 0.053162273
0.62268198 0.52615941 0.028381307
0.61524564 0.5296182 0.0045750253
0.60682136 0.53608 -0.019158401
0.62585592 0.51795101 0.039177056
0.62541234 0.52941948 0.013384074
0.60997266 0.52688986 -0.0093803257
0.5955525 0.52935582 -0.032073434
0.62253726 0.51325214 0.023148758
0.62212026 0.52670211 -0.0016085245
0.60570341 0.52515781 -0.023336455
0.59032476 0.52859098 -0.043993428
0.6402933 0.52847433 0.0070862286
0.62186211 0.52795517 -0.015585762
0.59844559 0.52141887 -0.036272597
0.58607817 0.52784067 -0.056931879
0.6259827 0.51578009 -0.0068801977
0.61257017 0.52024204 -0.029556055
0.58318049 0.51069152 -0.048184868
0.58284318 0.53008628 -0.069835059
0.59465373 0.48811322 -0.01879815
0.60328609 0.51452869 -0.043490309
0.58493364 0.51493692 -0.062145635
0.67656255 0.62534785 -0.10387809
0.60537267 0.4983795 -0.035818897
0.5910244 0.50479048 -0.055440933
0.58068717 0.51418662 -0.07508409
0.67628264 0.63063633 -0.11978259
0.59509975 0.49065194 -0.048770726
0.58575135 0.5020622 -0.069396302
0.68636471 0.61847591 -0.11318909
0.67200643 0.63192195 -0.13468432
0.58482277 0.4819245 -0.061740588
0.5844934 0.50331885 -0.083354741
0.69405466 0.6307888 -0.13211675
0.66474164 0.63120037 -0.14856605
0.5755536 0.4751932 -0.074693188
0.71409148 0.62666351 -0.12956566
0.6847598 0.62709314 -0.14701462
0.21539 0.18364844 -0.024206605
0.58926898 0.48946616 -0.092697904
0.71576977 0.63098115 -0.14752504
0.68347609 0.63138545 -0.16291833
0.20930442 0.18074283 -0.028146558
0.74274212 0.6299026 -0.14905009
0.71045238 0.63130671 -0.16442534
0.21629529 0.17871806 -0.028314132
-0.02611593 -0.059798401 0.050936799
0.7443831 0.63425654 -0.16900881
0.70412737 0.62963611 -0.18134287
0.20323183 0.16678484 -0.029285733
0.17721902 0.15284435 -0.027050119
0.73805404 0.63158607 -0.18594435
0.20522659 0.16076058 -0.028431766
-0.02611593 -0.059798401 0.050936799
-0.02611593 -0.059798401 0.050936799
0.20223226 0.14771931 -0.025610648
0.19216706 0.14982721 -0.029385351
0.18012396 0.1479068 -0.031195227
0.16111471 0.13995826 -0.02998269
0.19016165 0.13880007 -0.027546655
-0.02611593 -0.059798401 0.050936799
-0.02611593 -0.059798401 0.050936799
-0.02611593 -0.059798401 0.050936799
-0.02611593 -0.059798401 0.050936799
0.16606668 0.12794235 -0.030292861
0.15205747 0.1249931 -0.030083854
0.13906285 0.12102236 -0.028911989
0.17004631 0.12292884 -0.030458115
-0.02611593 -0.059798401 0.050936799
-0.02611593 -0.059798401 0.050936799
-0.02611593 -0.059798401 0.050936799
-0.02611593 -0.059798401 0.050936799
0.14201126 0.10801379 -0.029202599
0.13201307 0.10804968 -0.029014695
0.12102596 0.10607142 -0.027844377
0.14398339 0.1010078 -0.029366311
-0.02611593 -0.059798401 0.050936799
-0.02611593 -0.059798401 0.050936799
-0.02611593 -0.059798401 0.050936799
-0.02611593 -0.059798401 0.050936799
0.12694813 0.096087761 -0.030136622
0.11794977 0.096120059 -0.029967509
0.10698138 0.094123699 -0.027797531
0.12591296 0.087092884 -0.030279998
-0.02611593 -0.059798401 0.050936799
-0.02611593 -0.059798401 0.050936799
-0.02611593 -0.059798401 0.050936799
-0.02611593 -0.059798401 0.050936799
0.10990018 0.083150983 -0.030051425
0.10590183 0.088182569 -0.030885834
0.094952159 0.086168118 -0.027716193
0.10886502 0.074156098 -0.030194804
-0.02611593 -0.059798401 0.050936799
-0.02611593 -0.059798401 0.050936799
-0.02611593 -0.059798401 0.050936799
-0.02611593 -0.059798401 0.050936799
0.099851869 0.075206332 -0.031007335
0.095838718 0.081255823 -0.03282338
0.083918825 0.077209145 -0.027671661
0.09583205 0.065204285 -0.030112691
-0.02611593 -0.059798401 0.050936799
-0.02611593 -0.059798401 0.050936799
-0.02611593 -0.059798401 0.050936799
-0.02611593 -0.059798401 0.050936799
0.083845116 0.063229606 -0.028923579
0.083820365 0.071282499 -0.03177841
0.070930235 0.065203562 -0.024644624
0.084783919 0.05726321 -0.031049807
-0.02611593 -0.059798401 0.050936799
-0.02611593 -0.059798401 0.050936799
-0.02611593 -0.059798401 0.050936799
-0.02611593 -0.059798401 0.050936799
0.072834432 0.055252358 -0.027861375
0.071820736 0.061291099 -0.029733792
0.063897088 0.061247453 -0.025584821
0.069829226 0.044228815 -0.026003882
-0.02611593 -0.059798401 0.050936799
-0.02611593 -0.059798401 0.050936799
-0.02611593 -0.059798401 0.050936799
-0.02611593 -0.059798401 0.050936799
0.060849588 0.04424303 -0.024835106
0.063806482 0.057320487 -0.029655538
0.056878731 0.056273431 -0.025543381
0.062781274 0.041290633 -0.027925726
-0.02611593 -0.059798401 0.050936799
-0.02611593 -0.059798401 0.050936799
-0.02611593 -0.059798401 0.050936799
-0.02611593 -0.059798401 0.050936799
0.054805387 0.042301085 -0.026757725
0.055784382 0.051350221 -0.029613327
0.048875343 0.050285071 -0.02450151
0.054763101 0.036320191 -0.027865496
-0.02611593 -0.059798401 0.050936799
-0.02611593 -0.059798401 0.050936799
-0.02611593 -0.059798401 0.050936799
-0.02611593 -0.059798401 0.050936799
0.04581698 0.035298392 -0.024715416
0.050758719 0.049386602 -0.030555081
0.041890506 0.044275038 -0.022478767
0.045755971 0.029335586 -0.02682285
-0.02611593 -0.059798401 0.050936799
-0.02611593 -0.059798401 0.050936799
-0.02611593 -0.059798401 0.050936799
-0.02611593 -0.059798401 0.050936799
0.04177241 0.033349264 -0.026675612
0.038826119 0.037323177 -0.024547841
0.038838819 0.045339901 -0.025403354
0.038741544 0.025361393 -0.026763391
-0.02611593 -0.059798401 0.050936799
-0.02611593 -0.059798401 0.050936799
-0.02611593 -0.059798401 0.050936799
-0.02611593 -0.059798401 0.050936799
0.033787761 0.027342821 -0.024634074
0.037725747 0.040434785 -0.030472968
0.029880008 0.036301378 -0.021397762
0.030775607 0.019336862 -0.023722194
-0.02611593 -0.059798401 0.050936799
-0.02611593 -0.059798401 0.050936799
-0.02611593 -0.059798401 0.050936799
-0.02611593 -0.059798401 0.050936799
0.027791867 0.023346944 -0.023593746
0.030730039 0.0364425 -0.029413842
0.023898913 0.031287588 -0.01937579
0.025749948 0.017373225 -0.024663936
-0.02611593 -0.059798401 0.050936799
-0.02611593 -0.059798401 0.050936799
-0.02611593 -0.059798401 0.050936799
-0.02611593 -0.059798401 0.050936799
0.01494521 0.0091970041 -0.012605462
-0.02611593 -0.059798401 0.050936799
0.012044216 0.015134392 -0.0084423274
0.01975798 0.014377185 -0.023605589
-0.02611593 -0.059798401 0.050936799
-0.02611593 -0.059798401 0.050936799
-0.02611593 -0.059798401 0.050936799
-0.02611593 -0.059798401 0.050936799
0.013848769 0.013308443 -0.018512558
0.016812606 0.023368333 -0.022387389
0.008051889 0.012131167 -0.0074215606
0.015717346 0.013427889 -0.025547761
-0.02611593 -0.059798401 0.050936799
-0.02611593 -0.059798401 0.050936799
-0.02611593 -0.059798401 0.050936799
-0.02611593 -0.059798401 0.050936799
0.0098416479 0.011323137 -0.018473435
-0.02611593 -0.059798401 0.050936799
-0.02611593 -0.059798401 0.050936799
0.012680447 0.013474833 -0.027490716
-0.02611593 -0.059798401 0.050936799
-0.02611593 -0.059798401 0.050936799
-0.02611593 -0.059798401 0.050936799
-0.02611593 -0.059798401 0.050936799
0.0097193597 0.018466664 -0.026344594
-0.02611593 -0.059798401 0.050936799
-0.02611593 -0.059798401 0.050936799
0.0086437343 0.013525368 -0.029414874
-0.02611593 -0.059798401 0.050936799
-0.02611593 -0.059798401 0.050936799
-0.02611593 -0.059798401 0.050936799
-0.02611593 -0.059798401 0.050936799
0.0057122344 0.016481359 -0.026305471
0.00091425562 0.01028325 -0.014323693
-0.02611593 -0.059798401 0.050936799
0.0036555179 0.011525561 -0.028357297
-0.02611593 -0.059798401 0.050936799
-0.02611593 -0.059798401 0.050936799
-0.02611593 -0.059798401 0.050936799
-0.02611593 -0.059798401 0.050936799
0.0017090373 0.015495884 -0.026248325
0.0017621922 0.019459028 -0.024176925
-0.02611593 -0.059798401 0.050936799
-0.00034767727 0.010540087 -0.028300155
-0.02611593 -0.059798401 0.050936799
-0.02611593 -0.059798401 0.050936799
-0.02611593 -0.059798401 0.050936799
-0.02611593 -0.059798401 0.050936799
-0.0032683113 0.011478327 -0.02422712
-0.0012520512 0.020487716 -0.025102194
-0.02611593 -0.059798401 0.050936799
-0.0043991874 0.01160854 -0.031205952
-0.02611593 -0.059798401 0.050936799
-0.02611593 -0.059798401 0.050936799
-0.02611593 -0.059798401 0.050936799
-0.02611593 -0.059798401 0.050936799
-0.0062825587 0.012507014 -0.025152389
-0.0062294016 0.016470158 -0.023080997
-0.02611593 -0.059798401 0.050936799
-0.0074173613 0.011637396 -0.032149248
-0.02611593 -0.059798401 0.050936799
-0.02611593 -0.059798401 0.050936799
-0.02611593 -0.059798401 0.050936799
-0.02611593 -0.059798401 0.050936799
-0.010300548 0.012539458 -0.026076894
-0.008336531 0.022602936 -0.029932935
-0.02611593 -0.059798401 0.050936799
-0.012338543 0.0075655798 -0.027129065
-0.02611593 -0.059798401 0.050936799
-0.02611593 -0.059798401 0.050936799
-0.02611593 -0.059798401 0.050936799
-0.02611593 -0.059798401 0.050936799
-0.0133 0.012550225 -0.026020523
-0.01133598 0.022613702 -0.029876564
-0.02611593 -0.059798401 0.050936799
-0.016419642 0.010669866 -0.031998154
-0.02611593 -0.059798401 0.050936799
-0.02611593 -0.059798401 0.050936799
-0.02611593 -0.059798401 0.050936799
-0.02611593 -0.059798401 0.050936799
-0.017317992 0.01258267 -0.026945017
-0.015383562 0.024681989 -0.032764353
-0.02611593 -0.059798401 0.050936799
-0.0204485 0.012720061 -0.033886276
-0.02611593 -0.059798401 0.050936799
-0.02611593 -0.059798401 0.050936799
-0.02611593 -0.059798401 0.050936799
-0.02611593 -0.059798401 0.050936799
-0.021317258 0.012597026 -0.026869856
-0.019308854 0.019606752 -0.027780969
-0.02611593 -0.059798401 0.050936799
-0.024418177 0.010698576 -0.031847827
-0.02611593 -0.059798401 0.050936799
-0.02611593 -0.059798401 0.050936799
-0.02611593 -0.059798401 0.050936799
-0.02611593 -0.059798401 0.050936799
-0.024316709 0.012607792 -0.026813485
-0.022323102 0.020635437 -0.028706238
-0.02611593 -0.059798401 0.050936799
-0.027373243 0.0076555917 -0.028846525
-0.02611593 -0.059798401 0.050936799
-0.02611593 -0.059798401 0.050936799
-0.02611593 -0.059798401 0.050936799
-0.02611593 -0.059798401 0.050936799
-0.027334884 0.012636648 -0.027756773
-0.02634109 0.020667883 -0.029630743
-0.02611593 -0.059798401 0.050936799
-0.030353973 0.0076482692 -0.027790494
-0.02611593 -0.059798401 0.050936799
-0.02611593 -0.059798401 0.050936799
-0.02611593 -0.059798401 0.050936799
-0.02611593 -0.059798401 0.050936799
-0.030315612 0.012629326 -0.026700743
-0.029384926 0.023732401 -0.0325193
-0.02611593 -0.059798401 0.050936799
-0.034353241 0.0076626251 -0.027715333
-0.02611593 -0.059798401 0.050936799
-0.02611593 -0.059798401 0.050936799
-0.02611593 -0.059798401 0.050936799
-0.02611593 -0.059798401 0.050936799
-0.034314878 0.012643682 -0.026625581
-0.032321271 0.020671327 -0.028518334
-0.02611593 -0.059798401 0.050936799
-0.038392965 0.011730563 -0.030567072
-0.02611593 -0.059798401 0.050936799
-0.02611593 -0.059798401 0.050936799
-0.02611593 -0.059798401 0.050936799
-0.02611593 -0.059798401 0.050936799
-0.038295425 0.012639948 -0.025550757
-0.035291132 0.018646255 -0.026498679
-0.02611593 -0.059798401 0.050936799
-0.042362645 0.0097090872 -0.028528631
-0.02611593 -0.059798401 0.050936799
-0.02611593 -0.059798401 0.050936799
-0.02611593 -0.059798401 0.050936799
-0.02611593 -0.059798401 0.050936799
-0.041294876 0.012650715 -0.025494386
-0.039275602 0.017642682 -0.025441874
-0.035193592 0.019555639 -0.02148236
-0.046387572 0.012759105 -0.03039873
-0.02611593 -0.059798401 0.050936799
-0.02611593 -0.059798401 0.050936799
-0.02611593 -0.059798401 0.050936799
-0.02611593 -0.059798401 0.050936799
-0.04527542 0.012646982 -0.024419557
-0.043344919 0.023746468 -0.030256897
-0.02611593 -0.059798401 0.050936799
-0.051397528 0.0147948 -0.03126841
-0.02611593 -0.059798401 0.050936799
-0.02611593 -0.059798401 0.050936799
-0.02611593 -0.059798401 0.050936799
-0.02611593 -0.059798401 0.050936799
-0.05035935 0.019772276 -0.030197442
-0.047344185 0.023760825 -0.030181736
-0.02611593 -0.059798401 0.050936799
-0.055378072 0.014791067 -0.030193582
-0.02611593 -0.059798401 0.050936799
-0.02611593 -0.059798401 0.050936799
-0.02611593 -0.059798401 0.050936799
-0.02611593 -0.059798401 0.050936799
-0.053299621 0.015711363 -0.026214506
-0.049261991 0.020678071 -0.025199916
-0.02611593 -0.059798401 0.050936799
-0.058358803 0.014783745 -0.029137559
-0.02611593 -0.059798401 0.050936799
-0.02611593 -0.059798401 0.050936799
-0.02611593 -0.059798401 0.050936799
-0.02611593 -0.059798401 0.050936799
-0.058339164 0.019782897 -0.029047467
-0.052198336 0.017616984 -0.021198954
-0.02611593 -0.059798401 0.050936799
-0.065408841 0.020880207 -0.032896556
-0.02611593 -0.059798401 0.050936799
-0.02611593 -0.059798401 0.050936799
-0.02611593 -0.059798401 0.050936799
-0.02611593 -0.059798401 0.050936799
-0.061282448 0.019739399 -0.025992107
-0.05518299 0.016609838 -0.020160936
-0.02611593 -0.059798401 0.050936799
-0.068356059 0.019836877 -0.029859211
-0.02611593 -0.059798401 0.050936799
-0.02611593 -0.059798401 0.050936799
-0.02611593 -0.059798401 0.050936799
-0.02611593 -0.059798401 0.050936799
-0.061160162 0.01259587 -0.018120944
-0.02611593 -0.059798401 0.050936799
-0.02611593 -0.059798401 0.050936799
-0.071303271 0.018793544 -0.026821878
-0.02611593 -0.059798401 0.050936799
-0.02611593 -0.059798401 0.050936799
-0.02611593 -0.059798401 0.050936799
-0.02611593 -0.059798401 0.050936799
-0.063092753 0.01053103 -0.014120758
-0.02611593 -0.059798401 0.050936799
-0.02611593 -0.059798401 0.050936799
-0.073202342 0.015692696 -0.020840392
-0.02611593 -0.059798401 0.050936799
-0.02611593 -0.059798401 0.050936799
-0.02611593 -0.059798401 0.050936799
-0.02611593 -0.059798401 0.050936799
-0.02611593 -0.059798401 0.050936799
-0.077417783 0.042010151 -0.037290987
-0.02611593 -0.059798401 0.050936799
-0.083311029 0.025871597 -0.028469589
-0.02611593 -0.059798401 0.050936799
-0.02611593 -0.059798401 0.050936799
-0.02611593 -0.059798401 0.050936799
-0.02611593 -0.059798401 0.050936799
-0.073104806 0.016602082 -0.015824061
-0.066024251 0.013487022 -0.011011351
-0.02611593 -0.059798401 0.050936799
-0.088298328 0.028889026 -0.028321579
-0.02611593 -0.059798401 0.050936799
-0.02611593 -0.059798401 0.050936799
-0.02611593 -0.059798401 0.050936799
-0.02611593 -0.059798401 0.050936799
-0.087278873 0.033884592 -0.028250277
-0.077188 0.028741013 -0.022530306
-0.068059504 0.023564855 -0.01479223
-0.094281517 0.032909881 -0.028136764
-0.02611593 -0.059798401 0.050936799
-0.02611593 -0.059798401 0.050936799
-0.02611593 -0.059798401 0.050936799
-0.02611593 -0.059798401 0.050936799
-0.090222158 0.033841092 -0.025194921
-0.088284716 0.041923001 -0.030086659
-0.079208456 0.037800934 -0.025329545
-0.10024992 0.035912819 -0.026970297
-0.02611593 -0.059798401 0.050936799
-0.02611593 -0.059798401 0.050936799
-0.02611593 -0.059798401 0.050936799
-0.02611593 -0.059798401 0.050936799
-0.098234572 0.039904956 -0.026935808
-0.092227817 0.041883089 -0.027012512
-0.085210368 0.041839883 -0.026144385
-0.10824361 0.041958604 -0.027711529
-0.02611593 -0.059798401 0.050936799
-0.02611593 -0.059798401 0.050936799
-0.02611593 -0.059798401 0.050936799
-0.02611593 -0.059798401 0.050936799
-0.10318835 0.041886393 -0.024806496
-0.10024416 0.046947122 -0.028771415
-0.090182878 0.043839391 -0.025014736
-0.114212 0.044961531 -0.026545066
-0.02611593 -0.059798401 0.050936799
-0.02611593 -0.059798401 0.050936799
-0.02611593 -0.059798401 0.050936799
-0.02611593 -0.059798401 0.050936799
-0.11016744 0.046910655 -0.024584871
-0.10723803 0.052989319 -0.029531434
-0.096169993 0.046860408 -0.02484794
-0.12117235 0.049967721 -0.025323778
-0.02611593 -0.059798401 0.050936799
-0.02611593 -0.059798401 0.050936799
-0.02611593 -0.059798401 0.050936799
-0.02611593 -0.059798401 0.050936799
-0.11816113 0.052956447 -0.025326096
-0.11217702 0.053952828 -0.026420478
-0.10213839 0.04986335 -0.02368148
-0.13116176 0.057020504 -0.026009403
-0.02611593 -0.059798401 0.050936799
-0.02611593 -0.059798401 0.050936799
-0.02611593 -0.059798401 0.050936799
-0.02611593 -0.059798401 0.050936799
-0.12914641 0.061012648 -0.025974911
-0.12216642 0.061005615 -0.02710611
-0.10913619 0.054905709 -0.024459515
-0.14011389 0.064033523 -0.0247145
-0.02611593 -0.059798401 0.050936799
-0.02611593 -0.059798401 0.050936799
-0.02611593 -0.059798401 0.050936799
-0.02611593 -0.059798401 0.050936799
-0.13811728 0.068043754 -0.025679667
-0.12811609 0.063990459 -0.024939984
-0.11608569 0.057894137 -0.022274598
-0.15510146 0.076121502 -0.026215747
-0.02611593 -0.059798401 0.050936799
-0.02611593 -0.059798401 0.050936799
-0.02611593 -0.059798401 0.050936799
-0.02611593 -0.059798401 0.050936799
-0.14908385 0.076081879 -0.025328822
-0.13810156 0.072043061 -0.025607593
-0.125094 0.064961433 -0.02397868
-0.1680411 0.086148359 -0.024791617
-0.02611593 -0.059798401 0.050936799
-0.02611593 -0.059798401 0.050936799
-0.02611593 -0.059798401 0.050936799
-0.02611593 -0.059798401 0.050936799
-0.15903579 0.083098486 -0.024015129
-0.15107863 0.082106113 -0.026182797
-0.13405007 0.070974611 -0.022701796
-0.18500172 0.10022509 -0.025219586
-0.02611593 -0.059798401 0.050936799
-0.02611593 -0.059798401 0.050936799
-0.02611593 -0.059798401 0.050936799
-0.02611593 -0.059798401 0.050936799
-0.17499661 0.097171612 -0.02446188
-0.16606227 0.095193915 -0.027666017
-0.14804173 0.082059167 -0.024239842
-0.20094378 0.11428013 -0.024666678
-0.02611593 -0.059798401 0.050936799
-0.02611593 -0.059798401 0.050936799
-0.02611593 -0.059798401 0.050936799
-0.02611593 -0.059798401 0.050936799
-0.19395293 0.11225534 -0.024834249
-0.18099761 0.10622779 -0.026186291
-0.16201469 0.093125634 -0.024778232
-0.22587547 0.13538437 -0.024818178
-0.02611593 -0.059798401 0.050936799
-0.02611593 -0.059798401 0.050936799
-0.02611593 -0.059798401 0.050936799
-0.02611593 -0.059798401 0.050936799
-0.215893 0.13134915 -0.025078159
-0.19491832 0.11624015 -0.023743719
-0.17595413 0.1031561 -0.023335319
-0.24574886 0.15239897 -0.021137074
-0.02611593 -0.059798401 0.050936799
-0.02611593 -0.059798401 0.050936799
-0.02611593 -0.059798401 0.050936799
-0.02611593 -0.059798401 0.050936799
-0.24180186 0.15343872 -0.024193197
-0.21584378 0.13431247 -0.023024783
-0.19590636 0.11924324 -0.023670871
-0.76362091 0.64495718 -0.15657714
-0.02611593 -0.059798401 0.050936799
-0.02611593 -0.059798401 0.050936799
-0.02611593 -0.059798401 0.050936799
-0.77233356 0.65073514 -0.14230466
-0.02611593 -0.059798401 0.050936799
-0.24476293 0.15843056 -0.023047082
-0.22083803 0.14034748 -0.02382239
-0.77501869 0.64943862 -0.12527207
-0.76050425 0.65085489 -0.15152712
-0.02611593 -0.059798401 0.050936799
-0.02611593 -0.059798401 0.050936799
-0.77769977 0.64914185 -0.10822148
-0.76420391 0.65057981 -0.13545737
-0.74364722 0.64390367 -0.15797064
-0.24173389 0.15638395 -0.021140166
-0.77939987 0.64885962 -0.092189319
-0.76388657 0.64525509 -0.11755355
-0.75737375 0.6507175 -0.14458585
-0.02611593 -0.059798401 0.050936799
-0.77908945 0.64655244 -0.075231105
-0.77158862 0.64901179 -0.10233625
-0.76406497 0.65245289 -0.12842371
-0.74955547 0.64785212 -0.1537872
-0.78377724 0.64928043 -0.059088521
-0.77427375 0.64771527 -0.085303664
-0.76675802 0.64915663 -0.11142714
-0.7582652 0.64961278 -0.13858712
-0.78147107 0.64596623 -0.042185917
-0.77598166 0.64543331 -0.069307536
-0.77446789 0.65091372 -0.09624587
-0.76295775 0.64632368 -0.12155297
-0.78416312 0.64768726 -0.026098937
-0.78166521 0.64916468 -0.053128146
-0.7781527 0.64962065 -0.079194494
-0.7696569 0.64605945 -0.10542686
-0.78384483 0.64737976 -0.0091046989
-0.78036284 0.64485431 -0.03622476
-0.77984589 0.64632088 -0.062216729
-0.7773332 0.64678037 -0.088264272
-0.78255332 0.64508706 0.0068350509
-0.78304404 0.6445576 -0.019174159
-0.78252709 0.64602411 -0.04516612
-0.78402847 0.64751601 -0.07212016
-0.77725554 0.63976246 0.023645245
-0.78573996 0.64527869 -0.0031051859
-0.78820378 0.64673799 -0.028041117
-0.7886945 0.64620847 -0.054050326
-0.78095829 0.6435048 0.038787398
-0.78742135 0.6449784 0.013926625
-0.78889316 0.64443439 -0.011064127
-0.794379 0.64492267 -0.036961362
-0.78063613 0.64419711 0.055799656
-0.78212357 0.6396538 0.030736826
-0.79456586 0.64614809 0.0060788915
-0.80304337 0.64864671 -0.019725926
-0.77634907 0.64089394 0.071665019
-0.79179078 0.64739889 0.047063462
-0.79425544 0.64384091 0.023037098
-0.80471772 0.64532882 -0.0017485023
-0.77706015 0.64262581 0.086714759
-0.78848875 0.64308131 0.063929252
-0.79791772 0.64352965 0.041106157
-0.80838001 0.64501756 0.01632056
-0.77775252 0.64433962 0.10276416
-0.78818917 0.64279187 0.079923823
-0.80358255 0.64724296 0.058285214
-0.81702954 0.64772373 0.034537625
-0.77148461 0.6410473 0.11759228
-0.79087728 0.6455127 0.096028835
-0.80028456 0.64192557 0.075132988
-0.81369412 0.64237016 0.053384721
-0.76520181 0.63673699 0.13340205
-0.78557569 0.64118797 0.11285704
-0.80295777 0.64362842 0.092219636
-0.8193481 0.64406574 0.071527399
-0.76987392 0.64346433 0.14961669
-0.78624934 0.64288366 0.1299061
-0.80362457 0.64230669 0.11021432
-0.82300645 0.64475441 0.089614481
-0.7586264 0.63515484 0.16426077
-0.78692687 0.6435796 0.14693715
-0.80529803 0.64400595 0.12728216
-0.82764196 0.64642823 0.10873803
-0.75933355 0.63788658 0.17932853
-0.78164005 0.64027274 0.16278373
-0.80396515 0.64267695 0.14523926
-0.82729405 0.64408493 0.12769555
-0.754035 0.6375792 0.19522916
-0.7823137 0.64196843 0.17983279
-0.80263227 0.64134794 0.16319636
-0.82794207 0.64274496 0.14668989
-0.75075471 0.63729715 0.21016771
-0.77702296 0.63966143 0.19569737
-0.8012954 0.64101869 0.18117146
-0.82858616 0.64240485 0.16570224
-0.7504434 0.6400072 0.22621635
-0.77570093 0.64035016 0.21269086
-0.80494195 0.64470673 0.1993126
-0.82723457 0.64105779 0.18465899
-0.74418622 0.63873255 0.24008083
-0.77041018 0.63804317 0.22855544
-0.79565281 0.63736814 0.21601157
-0.82686406 0.63969618 0.20463419
-0.73891032 0.63744348 0.25496379
-0.76908815 0.6387319 0.2455489
-0.79530799 0.6390422 0.23404153
-0.8245126 0.63834548 0.22357215
-0.7356261 0.63816124 0.26992035
-0.76379341 0.63742471 0.26143152
-0.78998363 0.63569915 0.25188741
-0.82413816 0.63798368 0.24356538
-0.73034614 0.63787192 0.2848213
-0.75652552 0.63412869 0.27624083
-0.79063475 0.63837665 0.26995414
-0.82078683 0.6366294 0.26248455
-0.71814722 0.63161284 0.29648364
-0.75222671 0.63382488 0.29216027
-0.78630239 0.63703692 0.28785488
-0.81743556 0.63527507 0.28140372
-0.71583623 0.63431567 0.3124947
-0.74593616 0.63151431 0.30800605
-0.78099287 0.63471174 0.30471912
-0.82102203 0.63990873 0.30256185
-0.70859808 0.63305551 0.32534075
-0.74360645 0.63419908 0.32501674
-0.77665657 0.63437176 0.32263786
-0.81962514 0.6405251 0.32355398
-0.70331419 0.63376606 0.34025973
-0.73633474 0.63190299 0.33984411
-0.77431208 0.63603872 0.34063023
-0.81427425 0.63916361 0.34243557
-0.69804901 0.63449472 0.35417902
-0.73202801 0.6335988 0.35579956
-0.77195281 0.6366877 0.35960421
-0.80890864 0.63678432 0.36229879
-0.68881911 0.63122779 0.36695147
-0.72770649 0.63427687 0.37273666
-0.76661283 0.63734394 0.37752217
-0.80058479 0.63343042 0.3800883
-0.68255413 0.63195282 0.38085201
-0.7194351 0.63197708 0.3875452
-0.76127672 0.63700038 0.39542213
-0.79918003 0.63604653 0.40111649
-0.67431617 0.63068914 0.39367923
-0.71315527 0.63168424 0.40242741
-0.75495946 0.6366713 0.41230363
-0.79282939 0.63468146 0.41997927
-0.66805118 0.63141418 0.40757975
-0.70487988 0.63038439 0.41725394
-0.74862361 0.63632417 0.43018478
-0.78745192 0.63530153 0.43989652
-0.6608091 0.63115394 0.42044383
-0.69760025 0.63008791 0.43211734
-0.74131054 0.63499177 0.44702947
-0.78010529 0.63293308 0.45872253
-0.65354037 0.6328752 0.43434358
-0.69426686 0.63376898 0.44912726
-0.73202044 0.63267034 0.46281889
-0.77372801 0.63354963 0.47862104
-0.64629829 0.63261497 0.44720766
-0.68301851 0.63047671 0.46286178
-0.7246995 0.63333756 0.47969961
-0.76340461 0.63018858 0.49637297
-0.63903356 0.63333642 0.46108937
-0.67278481 0.62820601 0.47563344
-0.71538675 0.63199788 0.49650672
-0.75110418 0.6258387 0.51306963
-0.63078773 0.63407236 0.47395268
-0.67040586 0.63385415 0.49469751
-0.70804715 0.63264704 0.51438713
-0.74472302 0.62745506 0.53298616
-0.62059534 0.63083798 0.48470697
-0.6581952 0.63059443 0.50641394
-0.69775331 0.63132185 0.53017575
-0.73539162 0.62609732 0.55079293
-0.61039513 0.62960327 0.49549735
-0.64696562 0.62732041 0.51914877
-0.69043243 0.63198906 0.5470565
-0.72503769 0.6257177 0.56959862
-0.59625274 0.62339127 0.50412309
-0.63868231 0.62802017 0.53401136
-0.6771884 0.62768984 0.5607354
-0.71765667 0.62733048 0.58949631
-0.59194911 0.62910455 0.51915097
-0.62942183 0.6277346 0.5478375
-0.66981828 0.63132036 0.57966948
-0.70632553 0.6259656 0.60726553
-0.58074903 0.62786627 0.52992249
-0.61816168 0.62744188 0.56162608
-0.65952444 0.62999517 0.59545809
-0.69303626 0.62362981 0.62297976
-0.56955302 0.62562817 0.54067606
-0.60987449 0.62914145 0.57650667
-0.64726841 0.628699 0.6092099
-0.68268234 0.62325025 0.64178538
-0.56035268 0.6243971 0.55148518
-0.59668666 0.62489659 0.58718663
-0.63499361 0.62738478 0.62396133
-0.67034358 0.62388134 0.65957183
-0.55014849 0.6241622 0.56229359
-0.58839548 0.62759596 0.60208529
-0.62467325 0.62804121 0.64078563
-0.65803146 0.622531 0.67632258
-0.53894454 0.62392372 0.57308316
-0.57320803 0.62334388 0.61272758
-0.61239469 0.62772679 0.65555501
-0.64569271 0.62316209 0.69410902
-0.53069091 0.62665939 0.5859825
-0.56198537 0.62308729 0.62451684
-0.60109317 0.62839776 0.67136097
-0.62946796 0.61887026 0.70673192
-0.51853633 0.62345397 0.59469992
-0.54976678 0.62182736 0.63626933
-0.58490199 0.62514186 0.68200254
-0.61612946 0.61949778 0.72449946
-0.50928283 0.62618601 0.60758042
-0.54143029 0.62649024 0.65320325
-0.57262331 0.62482744 0.69677204
-0.60085523 0.61817282 0.73919457
-0.4980976 0.62596565 0.61737037
-0.52530313 0.62128896 0.66080987
-0.56032205 0.62549478 0.7125591
-0.58947098 0.62077105 0.75903511
-0.48593915 0.6237601 0.62610579
-0.51696271 0.62695169 0.67776185
-0.54412687 0.62323874 0.72321868
-0.56932974 0.61453754 0.7675482
-0.47668168 0.62749195 0.63900429
-0.50181264 0.6227358 0.68640488
-0.53182167 0.62490588 0.7390238
-0.5589149 0.6201207 0.78846127
-0.46549648 0.62727159 0.64879423
-0.48960888 0.62249374 0.69717562
-0.51660365 0.62363517 0.75071985
-0.54454988 0.62272626 0.80724579
-0.45135713 0.62507701 0.65649241
-0.47540551 0.62224448 0.70790887
-0.50138563 0.62236446 0.76241595
-0.52540445 0.61749607 0.8157956
-0.44114512 0.62684178 0.66733682
-0.46315646 0.62396598 0.72071499
-0.48712218 0.62306076 0.77616608
-0.50909996 0.61914897 0.83152556
-0.42896011 0.62661779 0.67710793
-0.44897574 0.62273502 0.73043048
-0.47285473 0.62475687 0.78993434
-0.48990929 0.61588228 0.84211081
-0.4148621 0.62345958 0.68278879
-0.43572685 0.62445283 0.74321789
-0.456633 0.62448245 0.80162966
-0.47458199 0.61852044 0.85887724
-0.40364638 0.62622052 0.69363248
-0.41963318 0.6202876 0.74884307
-0.43850222 0.62027383 0.80921662
-0.45636451 0.61723888 0.87051696
-0.38855252 0.62205893 0.69927651
-0.40638036 0.62300527 0.76164848
-0.42325372 0.62198454 0.82196641
-0.43814316 0.61695719 0.88217461
-0.37735942 0.62383825 0.70910239
-0.38928685 0.61883634 0.76725501
-0.40509638 0.61975741 0.83058906
-0.4189446 0.61569023 0.89279586
-0.36421201 0.62364686 0.71685541
-0.3760567 0.62057233 0.77904266
-0.38982916 0.62145001 0.84433848
-0.39874622 0.6144197 0.90339833
-0.35102326 0.62441909 0.72662574
-0.35995516 0.61840665 0.78470391
-0.3716639 0.62122262 0.85299724
-0.37858924 0.61218542 0.91198337
-0.33789849 0.62324601 0.73336107
-0.34283504 0.61621946 0.79134607
-0.35450244 0.61999899 0.86165673
-0.35845098 0.60996932 0.9195689
-0.32186487 0.61813515 0.73596931
-0.32768801 0.61602086 0.79906154
-0.33538273 0.61780447 0.86826134
-0.3382487 0.60969853 0.93018931
-0.30964541 0.62189245 0.74681216
-0.31249961 0.61678594 0.80879426
-0.31628564 0.61462826 0.8738482
-0.32001552 0.61241627 0.94190109
-0.29460773 0.61778498 0.74945724
-0.29539827 0.61461675 0.81443673
-0.30002946 0.61833501 0.88661522
-0.29887351 0.61119646 0.94948572
-0.28236562 0.62252408 0.76131785
-0.28113386 0.62033039 0.82727742
-0.28092849 0.6161586 0.89222014
-0.27960309 0.6138745 0.96317804
-0.26632807 0.61841297 0.76394403
-0.26311934 0.61523044 0.82884836
-0.26182353 0.61498207 0.89784306
-0.25663087 0.60779297 0.96263772
-0.25219959 0.61823612 0.77067864
-0.24697249 0.61502826 0.83654499
-0.24174143 0.61282021 0.90242946
-0.23546228 0.60855466 0.9712581
-0.23713136 0.61711013 0.77437741
-0.22988591 0.61387694 0.84120589
-0.22357231 0.61359268 0.91110623
-0.21435772 0.60737091 0.97684348
-0.22300285 0.61693323 0.7811119
-0.21279933 0.61272568 0.84586674
-0.20541796 0.61538297 0.91880137
-0.19227205 0.60620159 0.98141032
-0.20882514 0.61971968 0.78989989
-0.19658059 0.61646861 0.85663444
-0.18533193 0.61422092 0.92340577
-0.17114092 0.60699952 0.98803139
-0.19371162 0.62055719 0.79563397
-0.18044463 0.61828417 0.86336744
-0.16530994 0.61111343 0.92497528
-0.14907399 0.60584831 0.99159861
-0.17860204 0.62039483 0.80135012
-0.16237694 0.61714745 0.86700988
-0.14613312 0.61388195 0.93366921
-0.12792018 0.60762799 0.99923736
-0.16351117 0.62025058 0.80606657
-0.14437723 0.61306542 0.86759919
-0.12606582 0.61273801 0.93727404
-0.10569862 0.61234915 1.0099103
-0.1474392 0.62012076 0.80976462
-0.12628691 0.61291033 0.87225926
-0.10608127 0.60966676 0.93684417
-0.083714426 0.60927075 1.0094429
-0.13239363 0.61801296 0.81244564
-0.10827933 0.61082804 0.87288475
-0.086010031 0.60952264 0.940467
-0.060771786 0.60522503 1.0069393
-0.11629902 0.61886495 0.81716126
-0.091120876 0.61362183 0.88061655
-0.065870851 0.61232376 0.9471429
-0.03876102 0.60412812 1.0075076
-0.10024971 0.61775345 0.81984162
-0.07309065 0.61252117 0.88225967
-0.045905013 0.60927051 0.9457134
-0.01564111 0.60693657 1.0131273
-0.084087148 0.62155062 0.82761037
-0.055037774 0.61240232 0.88492042
-0.025807202 0.61110795 0.95037198
0.0053511197 0.60586137 1.0127147
-0.068056554 0.62045723 0.82929099
-0.035962436 0.61326164 0.88858002
-0.0057960693 0.61001825 0.95097774
0.028388288 0.6067425 1.0143
-0.05207127 0.61740029 0.82893628
-0.017950935 0.61217904 0.8892234
0.01420027 0.60994649 0.95060194
0.050384261 0.60666353 1.0138866
-0.035059586 0.61632133 0.82959849
-0.00096189976 0.61011845 0.88886797
0.034106009 0.60594767 0.94615543
0.073357403 0.60559922 1.0124366
-0.019051645 0.61424619 0.83026153
0.018098647 0.61199558 0.89154595
0.055207565 0.60878146 0.95081317
0.095334649 0.60553837 1.0110236
-0.0029491754 0.6170978 0.83501315
0.036091425 0.61093122 0.89118969
0.076139696 0.60676062 0.94738352
0.11827428 0.60551012 1.0075924
0.013104064 0.6169861 0.83771145
0.055151977 0.61280841 0.89386773
0.096181333 0.60865235 0.9490431
0.14022887 0.60446745 1.0051618
0.030055653 0.61496162 0.83535671
0.074167222 0.61272216 0.89451039
0.1171627 0.60959494 0.94766688
