# .PCD v0.7 - Point Cloud Data file format
VERSION 0.7
FIELDS x y z
SIZE 4 4 4
TYPE F F F
COUNT 1 1 1
WIDTH 1386
HEIGHT 1
VIEWPOINT 0 0 0 1 0 0 0
POINTS 1386
DATA ascii
-0.02611593 -0.059798401 0.050936799
-0.072556809 -0.017088214 -0.033449724
-0.067486763 -0.018178346 -0.029563051
-0.02611593 -0.059798401 0.050936799
-0.075459637 -0.021185299 -0.027467456
-0.02611593 -0.059798401 0.050936799
-0.02611593 -0.059798401 0.050936799
-0.082473151 -0.020142261 -0.028317563
-0.02611593 -0.059798401 0.050936799
-0.02611593 -0.059798401 0.050936799
-0.072515443 -0.016124561 -0.031432379
-0.02611593 -0.059798401 0.050936799
-0.08045087 -0.019167693 -0.027337465
-0.02611593 -0.059798401 0.050936799
-0.02611593 -0.059798401 0.050936799
-0.086434975 -0.020164084 -0.026243083
-0.02611593 -0.059798401 0.050936799
-0.080480464 -0.017131858 -0.029300753
-0.077514529 -0.016106617 -0.031338427
-0.02611593 -0.059798401 0.050936799
-0.08443141 -0.019171426 -0.026262645
-0.02611593 -0.059798401 0.050936799
-0.02611593 -0.059798401 0.050936799
-0.093444563 -0.018121211 -0.027075171
-0.02611593 -0.059798401 0.050936799
-0.085456893 -0.016132172 -0.028189115
-0.082490958 -0.01510693 -0.030226789
-0.02611593 -0.059798401 0.050936799
-0.089389123 -0.018189833 -0.024151348
-0.02611593 -0.059798401 0.050936799
-0.02611593 -0.059798401 0.050936799
-0.099435605 -0.016100017 -0.026926391
-0.02611593 -0.059798401 0.050936799
-0.092485204 -0.014071214 -0.030020867
-0.086471505 -0.015110664 -0.029151976
-0.02611593 -0.059798401 0.050936799
-0.098431863 -0.015103774 -0.026927166
-0.02611593 -0.059798401 0.050936799
-0.02611593 -0.059798401 0.050936799
-0.10439332 -0.01511842 -0.024815101
-0.02611593 -0.059798401 0.050936799
-0.099494793 -0.012028341 -0.030852962
-0.094495706 -0.012046286 -0.030946914
-0.02611593 -0.059798401 0.050936799
-0.10340829 -0.014104092 -0.025815532
-0.02611593 -0.059798401 0.050936799
-0.02611593 -0.059798401 0.050936799
-0.11339862 -0.012068542 -0.02559159
-0.02611593 -0.059798401 0.050936799
-0.10445643 -0.012046575 -0.028759688
-0.097424194 -0.013107702 -0.026909918
-0.02611593 -0.059798401 0.050936799
-0.11342821 -0.010032702 -0.027554873
-0.02611593 -0.059798401 0.050936799
-0.02611593 -0.059798401 0.050936799
-0.12543687 -0.0079718847 -0.028293014
-0.02611593 -0.059798401 0.050936799
-0.1114473 -0.010021791 -0.028592121
-0.10341523 -0.011086511 -0.026761133
-0.02611593 -0.059798401 0.050936799
-0.12141888 -0.0080043301 -0.027368508
-0.02611593 -0.059798401 0.050936799
-0.02611593 -0.059798401 0.050936799
-0.13543807 -0.0039185877 -0.029032689
-0.02611593 -0.059798401 0.050936799
-0.11740483 -0.009036609 -0.026462033
-0.11041003 -0.010061558 -0.026611585
-0.02611593 -0.059798401 0.050936799
-0.1283723 -0.0060157278 -0.025201619
-0.02611593 -0.059798401 0.050936799
-0.02611593 -0.059798401 0.050936799
-0.14135814 -0.0029695835 -0.02490329
-0.02611593 -0.059798401 0.050936799
-0.127406 -0.0049833078 -0.027201712
-0.12142975 -0.005986583 -0.028332137
-0.02611593 -0.059798401 0.050936799
-0.13937722 -0.0029586726 -0.02594053
-0.02611593 -0.059798401 0.050936799
-0.02611593 -0.059798401 0.050936799
-0.15838762 0.0031446754 -0.027474724
-0.02611593 -0.059798401 0.050936799
-0.13942555 -0.00090474403 -0.028903469
-0.13043897 -0.0039365324 -0.02912664
-0.02611593 -0.059798401 0.050936799
-0.15237394 0.0021052221 -0.026605818
-0.02611593 -0.059798401 0.050936799
-0.02611593 -0.059798401 0.050936799
-0.16330399 0.0050899251 -0.023346089
-0.02611593 -0.059798401 0.050936799
-0.14636415 6.593822e-05 -0.02575494
-0.13939203 -0.0019407491 -0.02692217
-0.02611593 -0.059798401 0.050936799
-0.1633375 0.006125934 -0.025327388
-0.02611593 -0.059798401 0.050936799
-0.02611593 -0.059798401 0.050936799
-0.18331026 0.012196689 -0.024843469
-0.02611593 -0.059798401 0.050936799
-0.16337495 0.0061621121 -0.027326714
-0.14937842 0.0010946284 -0.026680209
-0.02611593 -0.059798401 0.050936799
-0.18334378 0.013232698 -0.026824772
-0.02611593 -0.059798401 0.050936799
-0.02611593 -0.059798401 0.050936799
-0.20429371 0.020288792 -0.025304377
-0.02611593 -0.059798401 0.050936799
-0.17230925 0.0081398068 -0.024122577
-0.16840361 0.0082158959 -0.029196043
-0.02611593 -0.059798401 0.050936799
-0.20131691 0.019296281 -0.026378434
-0.02611593 -0.059798401 0.050936799
-0.02611593 -0.059798401 0.050936799
-0.23126429 0.03140191 -0.025598496
-0.02611593 -0.059798401 0.050936799
-0.19331145 0.016249988 -0.025583148
-0.17935236 0.01121868 -0.026935976
-0.02611593 -0.059798401 0.050936799
-0.22831015 0.029427653 -0.027690221
-0.02611593 -0.059798401 0.050936799
-0.02611593 -0.059798401 0.050936799
-0.25720155 0.041475423 -0.023930091
-0.02611593 -0.059798401 0.050936799
-0.21930879 0.025377948 -0.026931748
-0.19832532 0.017285854 -0.026470844
-0.02611593 -0.059798401 0.050936799
-0.2542474 0.039501183 -0.026021816
-0.02611593 -0.059798401 0.050936799
-0.02611593 -0.059798401 0.050936799
-0.96370697 0.3446236 -0.20828126
-0.02611593 -0.059798401 0.050936799
-0.24526475 0.035469558 -0.026263006
-0.22432266 0.026413811 -0.027819443
-0.98035103 0.34835833 -0.18989585
-0.95993328 0.33980909 -0.21944277
-0.02611593 -0.059798401 0.050936799
-0.02611593 -0.059798401 0.050936799
-0.98495305 0.34899622 -0.168791
-0.97458172 0.34253681 -0.20111299
-0.02611593 -0.059798401 0.050936799
-0.25026777 0.034487672 -0.02618707
-0.99956024 0.35268763 -0.14844385
-0.97717321 0.34114981 -0.17908207
-0.96378762 0.33366165 -0.21047881
-0.02611593 -0.059798401 0.050936799
-1.0031663 0.35232207 -0.12737578
-0.99379861 0.34486642 -0.159697
-0.98242748 0.33840337 -0.19203778
-0.96004444 0.32586572 -0.22269404
-1.0247751 0.36005598 -0.1078247
-1.00641 0.34755081 -0.13940546
-0.98903692 0.3370488 -0.17093137
-0.97368222 0.32657209 -0.20341939
-1.0303768 0.36069751 -0.086701058
-1.0130117 0.34819588 -0.11826301
-1.0016522 0.33873338 -0.15065783
-0.98730129 0.3272604 -0.18314509
-1.0419657 0.36436 -0.065410621
-1.0316141 0.3529014 -0.097822681
-1.0122532 0.33939275 -0.12944025
-0.99089652 0.32487714 -0.16111341
-1.0585459 0.37004015 -0.043990172
-1.038197 0.35352844 -0.075680576
-1.0288411 0.34307322 -0.10805584
-1.003497 0.32554373 -0.13985823
-1.0681206 0.37267756 -0.021755673
-1.0577766 0.35921928 -0.054203786
-1.0294181 0.34066114 -0.085080884
-1.0231031 0.32925308 -0.11941712
-1.0816863 0.37732902 0.00059003383
-1.067351 0.3618567 -0.031969272
-1.0550115 0.34739146 -0.064472981
-1.0326855 0.32989082 -0.097218663
-1.1022166 0.3859868 0.024139009
-1.0769295 0.36349434 -0.0097527876
-1.0585802 0.34698978 -0.041405618
-1.0382578 0.32849649 -0.07413172
-1.1087768 0.3875955 0.047298774
-1.0964638 0.37114868 0.013759382
-1.0761492 0.35065573 -0.01900278
-1.0578264 0.33216962 -0.051691286
-1.1322837 0.39724582 0.071921811
-1.0990138 0.3707253 0.037807614
-1.0857049 0.35327506 0.0042313933
-1.0663903 0.33278573 -0.028511956
-1.1448272 0.40287536 0.095266402
-1.1215476 0.37839043 0.061376147
-1.1012369 0.35689765 0.028595984
-1.0799493 0.33441955 -0.0052206442
-1.1653012 0.41147891 0.12181436
-0.02611593 -0.059798401 0.050936799
-1.1067826 0.35748488 0.05271861
-1.0954813 0.3380422 0.019143939
-0.02611593 -0.059798401 0.050936799
-1.1655364 0.39464462 0.11251109
-1.1272873 0.36310703 0.078212857
-1.1089988 0.34063968 0.044452589
-1.1992437 0.42564327 0.17572433
-1.1850185 0.40124491 0.13900422
-1.1537788 0.37175018 0.10387389
-1.118525 0.34122321 0.069650047
-1.2176992 0.43422154 0.20323437
-0.02611593 -0.059798401 0.050936799
-0.02611593 -0.059798401 0.050936799
-1.1310428 0.34381711 0.094939902
-1.2490541 0.44877312 0.23509544
-1.2229 0.41636914 0.19600636
-1.183723 0.38088289 0.15861827
-0.02611593 -0.059798401 0.050936799
-1.2246406 0.44025415 0.25849217
-1.2373308 0.42189738 0.22538652
-0.02611593 -0.059798401 0.050936799
-1.1909084 0.36201978 0.15240949
-0.02611593 -0.059798401 0.050936799
-1.2557155 0.42940345 0.25687718
-1.2265472 0.39597082 0.21871336
-0.02611593 -0.059798401 0.050936799
-0.02611593 -0.059798401 0.050936799
-1.2790687 0.43990889 0.2895155
-1.2489274 0.4044911 0.25029719
-1.2257392 0.37106192 0.21324581
-1.2986652 0.475766 0.35755408
-1.2904626 0.44539014 0.3208386
-1.2732697 0.41298234 0.28391796
-1.217247 0.36754534 0.24003229
-1.3597162 0.50418764 0.40322673
-1.2928926 0.44685796 0.35092083
-1.260782 0.40845156 0.31061125
-1.2824144 0.39007282 0.28067365
-1.4107847 0.52857405 0.44863939
-1.3370569 0.46629241 0.39211324
-1.3079684 0.42691514 0.35084233
-1.2728702 0.38549852 0.3104223
-1.6732773 0.64356983 0.56267273
-1.3593167 0.47670379 0.42973107
-1.3143375 0.42934281 0.38401672
-0.02611593 -0.059798401 0.050936799
-1.666563 0.64386076 0.60056514
-1.7678066 0.64447653 0.58846772
-1.3534809 0.44472384 0.42704242
-1.3025293 0.39535978 0.38017964
-1.652914 0.64218116 0.63529098
-1.7630172 0.64470226 0.63039637
-1.8742026 0.64529961 0.62148583
-1.3486302 0.41172963 0.42535418
-1.6422379 0.64249396 0.6711089
-1.750293 0.64295387 0.66913962
-1.8624076 0.64248258 0.66422856
-2.0044405 0.64706385 0.66297019
-1.624631 0.63983631 0.70374227
-1.7365731 0.64020211 0.70784611
-1.8575617 0.64265406 0.70915616
-2.0005052 0.64614868 0.71289688
-1.6109821 0.63815665 0.73846811
-1.722864 0.63946801 0.7455889
-1.8516936 0.64380366 0.75508261
-1.9925702 0.64521909 0.76274842
-1.5963292 0.63747329 0.77319318
-1.712117 0.63870859 0.78538752
-1.8358991 0.64097238 0.79775017
-1.9796629 0.64229006 0.81147027
-1.5846534 0.63778245 0.80899233
-1.6954124 0.6369639 0.82305598
-1.8211234 0.63816273 0.83943683
-1.9707283 0.64135689 0.86130297
-1.5650656 0.63513577 0.84058839
-1.6816658 0.63619369 0.86279809
-1.8122369 0.63928348 0.88630658
-1.9587981 0.63941312 0.91106135
-1.550409 0.63545221 0.87533146
-1.669915 0.6364305 0.90259594
-1.802392 0.63943702 0.93114024
-1.9448643 0.63846201 0.96080011
-1.5377331 0.6357578 0.91111177
-1.6551834 0.63667458 0.94133759
-1.7845941 0.6375984 0.97378814
-1.9329302 0.63751811 1.0105765
-1.5142024 0.63315099 0.93963373
-1.6365019 0.63394105 0.97795081
-1.7687918 0.63676673 1.0164918
-1.9179966 0.63656342 1.0602965
-1.4995457 0.6334675 0.97437686
-1.6158355 0.63221824 1.0135448
-1.7499938 0.63492441 1.0591209
-1.9030443 0.63559061 1.1110162
-1.4779768 0.63083172 1.0049356
-1.5941691 0.63049185 1.0491199
-1.7321733 0.63406748 1.1027865
-1.8880881 0.63561767 1.1617538
-1.457404 0.62919933 1.0355314
-1.575461 0.62973988 1.0867689
-1.7123942 0.6322397 1.1443974
-1.858304 0.63073635 1.2041222
-1.4387856 0.62953764 1.0681999
-1.5488783 0.62606823 1.1182154
-1.6906157 0.63040477 1.1859704
-1.8423293 0.63074178 1.2558408
-1.417213 0.62790167 1.0987767
-1.5311474 0.62630159 1.1569008
-1.6648792 0.62759191 1.2254512
-1.8213968 0.62976551 1.3054481
-1.3975986 0.62723655 1.1314087
-1.5055459 0.62261546 1.1893657
-1.6401572 0.62580037 1.2639689
-1.7935672 0.62685496 1.3498894
-1.3740638 0.6256296 1.1599486
-1.4868299 0.6238631 1.2270507
-1.6163751 0.6249581 1.3055224
-1.7706724 0.62590772 1.3974597
-1.3485519 0.6230337 1.1874334
-1.4572664 0.62019873 1.2574412
-1.585737 0.62121785 1.3398929
-1.7467405 0.62492073 1.4470105
-1.3240361 0.62144125 1.2149549
-1.4345965 0.61946857 1.2930156
-1.5678484 0.62330616 1.3866116
-1.7139678 0.62204647 1.4883591
-1.3005012 0.61983418 1.2434947
-1.4079875 0.61777848 1.3254977
-1.537173 0.61952972 1.4229813
-1.697865 0.62594265 1.5461476
-1.2749856 0.61823821 1.2709975
-1.3843364 0.61706287 1.3600539
-1.5104476 0.61873096 1.4614794
-1.6886182 0.63273674 1.6111194
-1.2504469 0.6176275 1.2995367
-1.3528069 0.61442739 1.3884254
-1.4738708 0.61402351 1.49272
-1.6341993 0.62209243 1.6349161
-1.222973 0.61506063 1.3249846
-1.3232584 0.61178094 1.4178344
-1.4461229 0.61420286 1.5322173
-1.5886545 0.61437136 1.6649339
-1.1974533 0.61446446 1.3525052
-1.2995807 0.61304688 1.4534259
-1.4173979 0.61339688 1.5706779
-1.5568137 0.61444598 1.709354
-1.1729147 0.61385375 1.3810444
-1.2641348 0.60846972 1.4776877
-1.3857107 0.61261636 1.6070828
-1.5161215 0.61061549 1.7465355
-1.1473912 0.61425734 1.4085833
-1.2413969 0.61068475 1.5163152
-1.3481489 0.60892332 1.637323
-1.4842392 0.61165375 1.7929732
-1.1218528 0.61364299 1.4371036
-1.2108446 0.6090346 1.5457233
-1.3154848 0.60715747 1.6726916
-1.4455053 0.60879409 1.8322095
-1.0914168 0.61110157 1.4604957
-1.1802696 0.60836613 1.5761491
-1.2837522 0.60834044 1.7111318
-1.4077067 0.60788351 1.8744996
-1.0658892 0.61250502 1.4880526
-1.1477551 0.60674495 1.6035203
-1.2462091 0.6046654 1.7403724
-1.3660668 0.60510361 1.9086814
-1.035472 0.6099816 1.510445
-1.1181575 0.60706186 1.6349826
-1.2154351 0.60681564 1.7808489
-1.3253254 0.60423648 1.9479162
-1.0079675 0.61039621 1.5369465
-1.0846392 0.60643697 1.6623529
-1.1768657 0.60511863 1.8111062
-1.2865421 0.60434014 1.989206
-0.97656906 0.60788727 1.5583205
-1.050144 0.60482669 1.6886868
-1.138315 0.60343975 1.8403641
-1.2447966 0.6044693 2.02844
-0.947065 0.60829461 1.5847844
-1.0147088 0.60226732 1.711985
-1.1006851 0.60269201 1.8736572
-1.2001346 0.60266036 2.0635831
-0.91853797 0.60968733 1.6122849
-0.98404717 0.60452598 1.7464634
-1.0581951 0.60005319 1.8998228
-1.1496915 0.59802938 2.087563
-0.8861773 0.60721099 1.6316409
-0.94661248 0.60195941 1.7697241
-1.0177009 0.59842134 1.9260441
-1.1050029 0.59820199 2.1237416
-0.85473359 0.60666561 1.65505
-0.9063133 0.59850883 1.7859126
-0.97618419 0.59776771 1.9532641
-1.0574123 0.59745443 2.1548476
-0.82042938 0.60423636 1.6713696
-0.8717913 0.59888017 1.8132823
-0.93656957 0.59803063 1.9855381
-1.0088673 0.59473985 2.1838994
-0.78992146 0.60563999 1.6978326
-0.83337164 0.59732795 1.8355424
-0.88831711 0.59258795 1.9995409
-0.96031433 0.5940249 2.2129872
-0.75653833 0.60414189 1.7181875
-0.79688752 0.59772819 1.8608751
-0.84769475 0.5948469 2.0318322
-0.91074288 0.5932883 2.2430561
-0.71929473 0.60075635 1.7314334
-0.75846773 0.59617597 1.8831353
-0.80325741 0.59325498 2.0549793
-0.86116755 0.59355146 2.2731428
-0.68399066 0.59832358 1.747734
-0.71720225 0.59375787 1.8973238
-0.75500107 0.58881205 2.0690002
-0.80869424 0.59189475 2.2981389
-0.65153944 0.59977424 1.7711605
-0.67777884 0.59320188 1.9195832
-0.71243918 0.59011835 2.098237
-0.75527722 0.59028864 2.3201175
-0.61527294 0.59737402 1.7854429
-0.64123058 0.59554744 1.947951
-0.66703552 0.58955896 2.1193836
-0.69535708 0.58211082 2.3168461
-0.57990098 0.59788644 1.8047965
-0.59892792 0.59308964 1.9641199
-0.62251151 0.5908941 2.1465838
-0.61865294 0.55697495 2.2519336
-0.5445329 0.597399 1.8241321
-0.55755699 0.59358054 1.9833608
-0.57420594 0.58941454 2.1626577
-0.55060536 0.53756279 2.2042921
-0.50726283 0.59599513 1.8384137
-0.51435202 0.59020966 1.9944947
-0.52586293 0.58789879 2.1807313
-0.48555726 0.51816142 2.1567073
-0.46997392 0.59457314 1.8536949
-0.472004 0.58971524 2.0126991
-0.46845669 0.57319963 2.1513808
-0.42432421 0.50261092 2.1182663
-0.43263978 0.59511453 1.8710116
-0.42879504 0.58734417 2.0238509
-0.40926856 0.55569285 2.1109424
-0.36706775 0.48805657 2.0809188
-0.39347145 0.59179419 1.8802212
-0.38640168 0.58881325 2.0440905
-0.35313603 0.53825104 2.0675611
-0.31092736 0.47261441 2.0375733
-0.35707307 0.59428459 1.9005917
-0.34308732 0.58935124 2.0602951
-0.3008225 0.5236603 2.0333061
-0.26282769 0.4713338 2.0426514
-0.31788212 0.59194601 1.9108193
-0.29275861 0.57374972 2.0270591
-0.2555272 0.52420926 2.0484731
-0.22049925 0.48595393 2.1101463
-0.27866456 0.59158897 1.9220823
-0.25202307 0.58091736 2.0644388
-0.21419464 0.53983271 2.1160047
-0.17531024 0.49869016 2.1705508
-0.23845117 0.5902285 1.9333087
-0.20848706 0.58525574 2.0917113
-0.17083979 0.55643076 2.1845167
-0.13053271 0.53298259 2.3113809
-0.19825646 0.58888614 1.9435353
-0.1625299 0.58110946 2.0897753
-0.12442535 0.57396364 2.2559888
-0.079515882 0.57103568 2.4641657
-0.15715949 0.58663082 1.9487269
-0.117212 0.58264011 2.1059599
-0.073067158 0.57643634 2.2740781
-0.021372795 0.57168269 2.4710913
-0.11702095 0.58534271 1.9559546
-0.07203301 0.58229768 2.1151114
-0.021904059 0.57709038 2.282135
0.035747837 0.57135147 2.4770176
-0.075781137 0.58596021 1.9681977
-0.024974573 0.58005697 2.1181905
0.029138841 0.57585329 2.2841573
0.094774485 0.57110357 2.4779084
-0.034582686 0.58561409 1.9784235
0.020069426 0.57884139 2.120326
0.081260391 0.57554001 2.2901781
0.15158378 0.56806231 2.4677863
0.0075968523 0.58528244 1.9876308
0.067191884 0.57854605 2.1264405
0.13318686 0.57340807 2.286166
0.21065179 0.56877804 2.4706943
0.048660316 0.58406311 1.9908412
0.11419415 0.57635969 2.1265206
0.18621066 0.57218176 2.2871513
0.26965973 0.56854814 2.4705856
0.091742136 0.58281851 1.9950135
0.16236173 0.57802427 2.1346519
0.23806223 0.57012212 2.2791405
-0.02611593 -0.059798401 0.050936799
0.13368522 0.57970446 1.9921708
0.20930783 0.57589215 2.1317332
-0.02611593 -0.059798401 0.050936799
0.38427117 0.56547964 2.4493768
0.17692861 0.58131468 2.0043945
-0.02611593 -0.059798401 0.050936799
0.19540721 0.31830242 1.3880819
0.24297929 0.29850388 1.4218446
-0.02611593 -0.059798401 0.050936799
0.30542129 0.57542098 2.1369269
0.39595842 0.56962746 2.2721732
0.2803331 0.30404446 1.4392514
0.14265111 0.31207973 1.1898899
0.35225508 0.57339734 2.1280107
0.27263266 0.33690476 1.4489933
0.31535327 0.30590039 1.4396294
0.16308375 0.30251253 1.1613247
0.26396987 0.36973247 1.4607532
0.50180799 0.56937361 2.2631836
0.35353053 0.30960056 1.4479843
0.34187177 0.55862725 1.9508778
0.45139852 0.5758968 2.1342015
0.55144614 0.56552047 2.2441781
0.38311619 0.30587342 1.4263557
0.3044284 0.43746778 1.5782609
0.49705219 0.57104003 2.1162529
0.60222691 0.56453657 2.2322056
0.41914007 0.30872566 1.4267329
0.44305539 0.57717967 2.0093389
0.54596835 0.5709365 2.1113336
0.65509009 0.56547284 2.2242301
0.44453135 0.30319411 1.3951467
0.48804715 0.57701814 2.0084932
0.59272724 0.56898522 2.0984182
0.70787448 0.5654816 2.2122378
0.47523698 0.30135456 1.3795333
0.53292263 0.57596534 2.0016317
0.64054596 0.567976 2.0885017
0.7564792 0.56266803 2.1912696
-0.02611593 -0.059798401 0.050936799
0.57887673 0.57583642 1.998768
0.68732357 0.56600666 2.0765862
-0.02611593 -0.059798401 0.050936799
0.51682222 0.28750515 1.3064795
0.62268841 0.57284182 1.9888901
0.73724741 0.56789923 2.0716839
0.40116355 0.24023564 1.0687093
0.54027778 0.28392619 1.2779658
0.66962761 0.57372725 1.985026
-0.02611593 -0.059798401 0.050936799
0.52340478 0.30594727 1.2806811
1.0494742 0.56060708 2.2417638
0.71448439 0.57269251 1.9771649
0.41853553 0.26389924 1.0838171
0.96861738 0.56771678 2.1423728
1.0999556 0.55991256 2.2137969
-0.02611593 -0.059798401 0.050936799
0.54273206 0.33265746 1.2928065
1.0089123 0.56222177 2.1055064
1.1504179 0.55923623 2.18483
0.5073697 0.34417915 1.2716699
0.51516038 0.29408765 1.1635813
1.0605698 0.56336063 2.0865533
1.1998848 0.55956328 2.1558998
0.53833055 0.34510389 1.269106
0.98631471 0.57086974 2.0190566
1.1101861 0.56354296 2.0656207
1.2503511 0.55988669 2.1269512
-0.02611593 -0.059798401 0.050936799
1.026726 0.56626618 1.9882063
1.1556643 0.56186658 2.0377295
1.296698 0.55833346 2.0920432
0.95175201 0.57350755 1.9357233
1.073339 0.56545937 1.9673119
1.2083443 0.56398362 2.0197754
1.3441128 0.55972177 2.0601699
0.99541783 0.57165742 1.9178661
1.1220717 0.56653666 1.9524139
1.2527704 0.56336486 1.9889219
1.3935421 0.56008494 2.0292406
1.0442028 0.57168055 1.9059491
1.1696885 0.56672621 1.9315188
1.2972114 0.56172836 1.9590502
1.4368185 0.55961466 1.9904088
1.0888723 0.57082671 1.8880913
1.2162868 0.56693739 1.9096428
1.3416375 0.56110972 1.9281968
1.486293 0.56194133 1.9615148
1.1355829 0.57092935 1.8722131
1.2618439 0.56618845 1.8857682
1.3881046 0.5614475 1.899323
1.5254915 0.5605579 1.9187412
1.1812336 0.57009006 1.8533369
1.3063637 0.56547928 1.859913
1.4397364 0.56562197 1.8784248
1.5626529 0.55921775 1.874006
1.2278841 0.56924719 1.8344419
1.3549654 0.56668317 1.8380175
1.4831066 0.56506115 1.844591
1.6100715 0.56160593 1.8421506
1.277602 0.57133865 1.8185434
1.3974067 0.56505376 1.8081832
1.5264993 0.56548202 1.8117752
1.651315 0.56217873 1.801375
1.3190956 0.56865883 1.7917089
1.4449753 0.56729722 1.7843251
1.5668138 0.56498635 1.7749989
1.6915586 0.56275517 1.7606182
1.3667125 0.56884837 1.7708138
1.4925395 0.56854087 1.7604489
1.6081697 0.56545061 1.7402213
1.7348844 0.56524807 1.7238396
1.4122922 0.56908119 1.747957
1.5329065 0.56699097 1.7266537
1.647447 0.56499463 1.7014645
1.7619087 0.56207085 1.6722587
1.4598714 0.56930691 1.7250625
1.5763369 0.56737566 1.695837
1.6857245 0.56454223 1.6627265
1.8031974 0.56460714 1.6335185
1.5023316 0.56765938 1.6962279
1.6146479 0.56588733 1.6590804
1.7250243 0.56506801 1.6249875
1.8424076 0.5662232 1.590799
1.5570376 0.5717507 1.6792719
1.6631825 0.5691632 1.6332222
1.7643056 0.56561178 1.5862488
1.8745592 0.56691873 1.5451941
1.5964233 0.57018644 1.6464951
1.7014748 0.56769282 1.595466
1.802587 0.56615925 1.5475287
1.9056731 0.56765407 1.4976088
1.6439317 0.57148427 1.6196201
1.7469125 0.57007009 1.5646477
1.8378128 0.56677169 1.5058663
1.9266613 0.56453454 1.4441414
1.685317 0.56991273 1.5868056
1.7841902 0.56962121 1.5259285
1.8770791 0.56833345 1.4661459
1.967939 0.56908858 1.4044374
1.728706 0.56933379 1.5539716
1.8235089 0.57012886 1.489189
1.9133276 0.569924 1.4254823
2.0020978 0.57177657 1.358831
1.7761806 0.57166773 1.5251153
1.8698901 0.57255685 1.4553531
1.9485158 0.57057261 1.3818202
2.030194 0.57254082 1.3103025
1.821573 0.57208151 1.4922618
1.9101938 0.57407886 1.4176133
1.9796674 0.57127172 1.3362342
2.0532494 0.57235932 1.2598503
1.8618877 0.57158571 1.4554855
1.947438 0.57466596 1.3769128
2.0108192 0.57197094 1.2906482
2.0803308 0.57414496 1.2103589
1.9072654 0.57301742 1.4216503
1.9887228 0.57620251 1.3381544
2.0399523 0.57269537 1.2441001
2.1074309 0.57591265 1.1618671
1.9556652 0.57542002 1.3887765
2.021889 0.57587653 1.2935126
2.0761671 0.57532197 1.2014551
2.1375573 0.579651 1.1143545
1.9949049 0.57500023 1.3480203
2.0560584 0.57654685 1.2488698
2.1022408 0.57511163 1.1519463
2.1555762 0.57952368 1.0619969
2.0351486 0.57557666 1.3072635
2.0963101 0.57912284 1.208149
2.1263149 0.57490838 1.1024753
2.1786397 0.5813418 1.0115811
2.0773919 0.57614583 1.2664691
2.1254022 0.57888371 1.1595836
2.1544147 0.57667243 1.0539645
2.2006657 0.58319968 0.95918459
2.1155984 0.57676566 1.2237505
2.1605756 0.58055019 1.11494
2.1865592 0.58038563 1.0074141
2.2106261 0.58215553 0.90396041
2.1588266 0.57834923 1.1819556
2.1866264 0.57935816 1.0644135
2.2126369 0.58117509 0.95792329
2.2296715 0.58400607 0.85261995
2.1949732 0.57803059 1.1362576
2.2207632 0.5810644 1.0177895
2.2326782 0.58202225 0.906546
2.2517204 0.58684576 0.80124104
2.2341275 0.57970089 1.0905393
2.2498441 0.58284295 0.96826041
2.2567229 0.58385491 0.85511154
2.2637258 0.58775783 0.74801475
2.270241 0.58041829 1.04286
2.2789209 0.58362162 0.91871327
2.2848077 0.5866369 0.8056193
2.2857783 0.59159726 0.6966539
2.3073578 0.58213192 0.99517983
2.2989168 0.5825054 0.86530066
2.3008125 0.58753455 0.75231779
2.2836998 0.58963245 0.63963795
2.3504965 0.58480573 0.94840467
2.3380454 0.58721125 0.81763703
2.3208163 0.58841795 0.69894117
2.2967086 0.59154075 0.58641082
2.3865576 0.58657724 0.89774436
2.360045 0.58708769 0.76420474
2.3348212 0.58932281 0.64567727
2.3026962 0.59249246 0.53229767
2.4085305 0.584472 0.84327644
2.3760083 0.58702171 0.70888591
2.3518109 0.59123486 0.59137535
2.3157094 0.59540057 0.47908857
2.43751 0.58434129 0.78871304
2.4060555 0.5898326 0.65735674
2.3617752 0.5911904 0.53616929
2.3156714 0.59439224 0.42405236
2.4674969 0.58620667 0.7341668
2.4250035 0.59077382 0.60099989
2.3707397 0.59114957 0.48098201
2.3226817 0.59632212 0.37093803
2.5065238 0.58900344 0.6814689
2.4419479 0.59072238 0.54466265
2.3867335 0.59406507 0.42671692
2.3316953 0.59924453 0.31780413
2.5344515 0.58993042 0.62394327
2.4709618 0.59457296 0.49117094
2.4037271 0.59697694 0.37243301
2.3276622 0.59925038 0.26286113
2.5654013 0.59182841 0.567379
2.4828696 0.59457564 0.43292832
2.410677 0.59796119 0.31630164
2.3336539 0.60120189 0.20876591
2.5862887 0.5918169 0.50796753
2.4987807 0.59556383 0.37462851
2.4186308 0.59994167 0.26016954
2.3266401 0.6012004 0.15487894
2.6121643 0.59380519 0.44749856
2.5167179 0.59852636 0.31732684
2.4346097 0.6038751 0.2049228
2.3396609 0.60610819 0.10170589
2.6330371 0.59481156 0.38710552
2.5336325 0.60051078 0.25902629
2.4235284 0.60094279 0.14805795
2.3366728 0.60807395 0.048779462
2.6508687 0.59486502 0.3247515
2.4964085 0.58878171 0.19648987
2.4474993 0.60786498 0.091715276
2.3406875 0.61101443 -0.0042604916
2.5985155 0.57829928 0.25640884
2.4492197 0.57605267 0.13612264
2.4504352 0.60988158 0.034677446
2.3296933 0.61100918 -0.057072636
2.6494327 0.58717859 0.19659589
2.4601357 0.5780586 0.077934846
2.4413764 0.60792369 -0.021207307
2.3037045 0.60704035 -0.10867535
2.7133257 0.60004663 0.1346114
2.4510353 0.57513714 0.020032756
2.3112886 0.57433331 -0.071396351
-0.02611593 -0.059798401 0.050936799
2.7281101 0.60216486 0.069350794
2.4309671 0.57021934 -0.035699356
2.2822931 0.56837559 -0.12297872
1.0549012 0.25321847 -0.07168214
2.7509151 0.60523611 0.0049575535
2.2878888 0.53365797 -0.084698521
-0.02611593 -0.059798401 0.050936799
1.0154947 0.24372192 -0.091122732
2.36356 0.51165074 -0.045500088
-0.02611593 -0.059798401 0.050936799
1.076648 0.24234031 -0.083290011
1.0110648 0.24415231 -0.11403976
1.2316644 0.23977482 -0.030220754
1.1478597 0.24186844 -0.072628208
2.3581977 0.59716284 -0.29393709
1.0714767 0.26456311 -0.14981377
1.2410902 0.24229938 -0.06136211
2.3387473 0.54953706 -0.25542134
2.3661447 0.60216093 -0.35101479
1.0241348 0.25202343 -0.16515943
2.3623013 0.50977379 -0.21856913
2.3866136 0.56449848 -0.31906849
-0.02611593 -0.059798401 0.050936799
0.97881907 0.24145809 -0.17950696
2.3891773 0.51677567 -0.2799665
2.4294355 0.57751429 -0.38465703
1.0687512 0.24720645 -0.18508865
0.96642017 0.23988138 -0.20031041
2.5148077 0.54672599 -0.35980392
-0.02611593 -0.059798401 0.050936799
2.2782557 0.59021801 -0.50163645
0.99986583 0.25333604 -0.23270421
2.259259 0.48699522 -0.37510502
2.2826583 0.54465055 -0.47153288
-0.02611593 -0.059798401 0.050936799
0.98845214 0.25277361 -0.25450805
2.2831173 0.49402598 -0.43744567
2.3035252 0.55369174 -0.53378105
1.0463656 0.24762057 -0.25868696
0.97207266 0.25119314 -0.27423668
2.3159292 0.50407827 -0.5029003
2.4279356 0.58987975 -0.62648726
1.0349332 0.24707629 -0.2814905
0.19372523 0.0087354798 -0.025965579
2.3705885 0.51921344 -0.57767528
2.4825358 0.60908669 -0.70518869
1.0274663 0.24755363 -0.30635047
0.2025708 0.012865296 -0.035059556
2.4460993 0.54043514 -0.66173363
2.4087226 0.59509283 -0.74507338
0.20955381 0.0088408589 -0.035263166
-0.02611593 -0.059798401 0.050936799
2.468797 0.54963195 -0.73301643
2.3588123 0.58612061 -0.79131693
0.1915601 0.004888047 -0.033997357
0.17454448 0.0049671475 -0.034677573
2.4019156 0.53768504 -0.77699518
-0.02611593 -0.059798401 0.050936799
-0.02611593 -0.059798401 0.050936799
-0.02611593 -0.059798401 0.050936799
-0.02611593 -0.059798401 0.050936799
0.18353407 -0.0020820522 -0.033973161
0.17347281 0.0010256812 -0.037729848
0.15549481 0.0010721926 -0.036391959
0.19250192 -0.005095752 -0.035195984
-0.02611593 -0.059798401 0.050936799
-0.02611593 -0.059798401 0.050936799
-0.02611593 -0.059798401 0.050936799
-0.02611593 -0.059798401 0.050936799
0.16148102 -0.0069660675 -0.03564918
0.14748751 -0.0059159924 -0.035368096
0.13549364 -0.0048730946 -0.035124592
0.16447955 -0.011994073 -0.034795977
-0.02611593 -0.059798401 0.050936799
-0.02611593 -0.059798401 0.050936799
-0.02611593 -0.059798401 0.050936799
-0.02611593 -0.059798401 0.050936799
0.13848038 -0.012900592 -0.034325443
0.12945637 -0.0098326253 -0.036101609
0.11749993 -0.0088259019 -0.033858769
0.14344896 -0.015899936 -0.035473119
-0.02611593 -0.059798401 0.050936799
-0.02611593 -0.059798401 0.050936799
-0.02611593 -0.059798401 0.050936799
-0.02611593 -0.059798401 0.050936799
0.11948688 -0.01684981 -0.033040844
0.11642824 -0.012767369 -0.036911044
0.10348678 -0.01277498 -0.033667773
0.12245189 -0.020841811 -0.034168944
-0.02611593 -0.059798401 0.050936799
-0.02611593 -0.059798401 0.050936799
-0.02611593 -0.059798401 0.050936799
-0.02611593 -0.059798401 0.050936799
0.10149317 -0.020802621 -0.031775024
0.099453084 -0.016741855 -0.034664351
0.089496285 -0.015742313 -0.032459114
0.10744286 -0.023787465 -0.033941142
-0.02611593 -0.059798401 0.050936799
-0.02611593 -0.059798401 0.050936799
-0.02611593 -0.059798401 0.050936799
-0.02611593 -0.059798401 0.050936799
0.089483589 -0.023759045 -0.031603593
0.087443501 -0.019698275 -0.034492925
0.081452452 -0.017677084 -0.03434414
0.094418652 -0.025722379 -0.034732569
-0.02611593 -0.059798401 0.050936799
-0.02611593 -0.059798401 0.050936799
-0.02611593 -0.059798401 0.050936799
-0.02611593 -0.059798401 0.050936799
0.076511636 -0.026748054 -0.02941405
0.076452456 -0.022676378 -0.033340614
0.07146515 -0.019658942 -0.033192609
0.080428161 -0.028689716 -0.033523887
-0.02611593 -0.059798401 0.050936799
-0.02611593 -0.059798401 0.050936799
-0.02611593 -0.059798401 0.050936799
-0.02611593 -0.059798401 0.050936799
0.072418749 -0.026643252 -0.034337193
0.068412542 -0.023611318 -0.035207644
0.058526713 -0.023683963 -0.029021766
0.069441043 -0.030667983 -0.03235358
-0.02611593 -0.059798401 0.050936799
-0.02611593 -0.059798401 0.050936799
-0.02611593 -0.059798401 0.050936799
-0.02611593 -0.059798401 0.050936799
0.060465336 -0.029653944 -0.031166777
0.060406152 -0.025582265 -0.035093356
0.054471273 -0.023615342 -0.03194559
0.060434826 -0.032635342 -0.032220498
-0.02611593 -0.059798401 0.050936799
-0.02611593 -0.059798401 0.050936799
-0.02611593 -0.059798401 0.050936799
-0.02611593 -0.059798401 0.050936799
0.050478026 -0.031635806 -0.030015249
0.056331992 -0.025495555 -0.039016839
0.048449717 -0.024575546 -0.032850519
0.053413462 -0.033591963 -0.033106636
-0.02611593 -0.059798401 0.050936799
-0.02611593 -0.059798401 0.050936799
-0.02611593 -0.059798401 0.050936799
-0.02611593 -0.059798401 0.050936799
0.044456474 -0.032596011 -0.030920181
0.047381956 -0.027517183 -0.035884775
0.044394284 -0.024506923 -0.035774346
0.048339475 -0.033501662 -0.037011337
-0.02611593 -0.059798401 0.050936799
-0.02611593 -0.059798401 0.050936799
-0.02611593 -0.059798401 0.050936799
-0.02611593 -0.059798401 0.050936799
0.039438665 -0.032559976 -0.031825896
0.043307796 -0.027430471 -0.039808255
0.033492923 -0.028575303 -0.029641755
0.040370543 -0.035508793 -0.03489773
-0.02611593 -0.059798401 0.050936799
-0.02611593 -0.059798401 0.050936799
-0.02611593 -0.059798401 0.050936799
-0.02611593 -0.059798401 0.050936799
0.030488629 -0.034581605 -0.028693836
0.036305152 -0.028405178 -0.039694741
0.029474933 -0.028542858 -0.030566253
0.032405518 -0.036516089 -0.032766089
-0.02611593 -0.059798401 0.050936799
-0.02611593 -0.059798401 0.050936799
-0.02611593 -0.059798401 0.050936799
-0.02611593 -0.059798401 0.050936799
0.025466895 -0.035545401 -0.029617563
0.030321037 -0.029401565 -0.038600359
0.026400594 -0.028459735 -0.034508534
0.028350081 -0.036447465 -0.03568992
-0.02611593 -0.059798401 0.050936799
-0.02611593 -0.059798401 0.050936799
-0.02611593 -0.059798401 0.050936799
-0.02611593 -0.059798401 0.050936799
0.022411276 -0.035480369 -0.032560166
0.025299307 -0.030365359 -0.039524086
-0.02611593 -0.059798401 0.050936799
0.021366157 -0.037440259 -0.034576744
-0.02611593 -0.059798401 0.050936799
-0.02611593 -0.059798401 0.050936799
-0.02611593 -0.059798401 0.050936799
-0.02611593 -0.059798401 0.050936799
-0.02611593 -0.059798401 0.050936799
0.019315194 -0.031361744 -0.038429696
-0.02611593 -0.059798401 0.050936799
0.017329449 -0.037389725 -0.036500901
-0.02611593 -0.059798401 0.050936799
-0.02611593 -0.059798401 0.050936799
-0.02611593 -0.059798401 0.050936799
-0.02611593 -0.059798401 0.050936799
-0.02611593 -0.059798401 0.050936799
0.015278487 -0.03131121 -0.040353853
-0.02611593 -0.059798401 0.050936799
-0.02611593 -0.059798401 0.050936799
-0.02611593 -0.059798401 0.050936799
-0.02611593 -0.059798401 0.050936799
-0.02611593 -0.059798401 0.050936799
-0.02611593 -0.059798401 0.050936799
-0.02611593 -0.059798401 0.050936799
-0.02611593 -0.059798401 0.050936799
-0.02611593 -0.059798401 0.050936799
-0.02611593 -0.059798401 0.050936799
-0.02611593 -0.059798401 0.050936799
-0.02611593 -0.059798401 0.050936799
-0.02611593 -0.059798401 0.050936799
-0.02611593 -0.059798401 0.050936799
-0.02611593 -0.059798401 0.050936799
-0.02611593 -0.059798401 0.050936799
-0.02611593 -0.059798401 0.050936799
-0.02611593 -0.059798401 0.050936799
-0.02611593 -0.059798401 0.050936799
-0.02611593 -0.059798401 0.050936799
-0.02611593 -0.059798401 0.050936799
-0.02611593 -0.059798401 0.050936799
-0.02611593 -0.059798401 0.050936799
-0.02611593 -0.059798401 0.050936799
-0.02611593 -0.059798401 0.050936799
-0.02611593 -0.059798401 0.050936799
-0.02611593 -0.059798401 0.050936799
-0.02611593 -0.059798401 0.050936799
-0.02611593 -0.059798401 0.050936799
-0.02611593 -0.059798401 0.050936799
-0.02611593 -0.059798401 0.050936799
-0.02611593 -0.059798401 0.050936799
-0.02611593 -0.059798401 0.050936799
-0.02611593 -0.059798401 0.050936799
-0.02611593 -0.059798401 0.050936799
-0.02611593 -0.059798401 0.050936799
-0.02611593 -0.059798401 0.050936799
-0.02611593 -0.059798401 0.050936799
-0.02611593 -0.059798401 0.050936799
-0.02611593 -0.059798401 0.050936799
-0.02611593 -0.059798401 0.050936799
-0.02611593 -0.059798401 0.050936799
-0.02611593 -0.059798401 0.050936799
-0.02611593 -0.059798401 0.050936799
-0.02611593 -0.059798401 0.050936799
-0.02611593 -0.059798401 0.050936799
-0.02611593 -0.059798401 0.050936799
-0.02611593 -0.059798401 0.050936799
-0.02611593 -0.059798401 0.050936799
-0.02611593 -0.059798401 0.050936799
-0.02611593 -0.059798401 0.050936799
-0.02611593 -0.059798401 0.050936799
-0.02611593 -0.059798401 0.050936799
-0.02611593 -0.059798401 0.050936799
-0.02611593 -0.059798401 0.050936799
-0.02611593 -0.059798401 0.050936799
-0.02611593 -0.059798401 0.050936799
-0.02611593 -0.059798401 0.050936799
-0.02611593 -0.059798401 0.050936799
-0.02611593 -0.059798401 0.050936799
-0.02611593 -0.059798401 0.050936799
-0.02611593 -0.059798401 0.050936799
-0.02611593 -0.059798401 0.050936799
-0.02611593 -0.059798401 0.050936799
-0.02611593 -0.059798401 0.050936799
-0.02611593 -0.059798401 0.050936799
-0.02611593 -0.059798401 0.050936799
-0.02611593 -0.059798401 0.050936799
-0.02611593 -0.059798401 0.050936799
-0.02611593 -0.059798401 0.050936799
-0.02611593 -0.059798401 0.050936799
-0.02611593 -0.059798401 0.050936799
-0.02611593 -0.059798401 0.050936799
-0.02611593 -0.059798401 0.050936799
-0.02611593 -0.059798401 0.050936799
-0.02611593 -0.059798401 0.050936799
-0.02611593 -0.059798401 0.050936799
-0.02611593 -0.059798401 0.050936799
-0.02611593 -0.059798401 0.050936799
-0.02611593 -0.059798401 0.050936799
-0.02611593 -0.059798401 0.050936799
-0.02611593 -0.059798401 0.050936799
-0.02611593 -0.059798401 0.050936799
-0.02611593 -0.059798401 0.050936799
-0.02611593 -0.059798401 0.050936799
-0.02611593 -0.059798401 0.050936799
-0.02611593 -0.059798401 0.050936799
-0.02611593 -0.059798401 0.050936799
-0.02611593 -0.059798401 0.050936799
-0.02611593 -0.059798401 0.050936799
-0.02611593 -0.059798401 0.050936799
-0.02611593 -0.059798401 0.050936799
-0.02611593 -0.059798401 0.050936799
-0.02611593 -0.059798401 0.050936799
-0.02611593 -0.059798401 0.050936799
-0.02611593 -0.059798401 0.050936799
-0.02611593 -0.059798401 0.050936799
-0.02611593 -0.059798401 0.050936799
-0.02611593 -0.059798401 0.050936799
-0.02611593 -0.059798401 0.050936799
-0.02611593 -0.059798401 0.050936799
-0.02611593 -0.059798401 0.050936799
-0.02611593 -0.059798401 0.050936799
-0.02611593 -0.059798401 0.050936799
-0.02611593 -0.059798401 0.050936799
-0.02611593 -0.059798401 0.050936799
-0.02611593 -0.059798401 0.050936799
-0.02611593 -0.059798401 0.050936799
-0.02611593 -0.059798401 0.050936799
-0.02611593 -0.059798401 0.050936799
-0.02611593 -0.059798401 0.050936799
-0.02611593 -0.059798401 0.050936799
-0.02611593 -0.059798401 0.050936799
-0.02611593 -0.059798401 0.050936799
-0.02611593 -0.059798401 0.050936799
-0.02611593 -0.059798401 0.050936799
-0.02611593 -0.059798401 0.050936799
-0.02611593 -0.059798401 0.050936799
-0.02611593 -0.059798401 0.050936799
-0.02611593 -0.059798401 0.050936799
-0.02611593 -0.059798401 0.050936799
-0.02611593 -0.059798401 0.050936799
-0.02611593 -0.059798401 0.050936799
-0.02611593 -0.059798401 0.050936799
-0.02611593 -0.059798401 0.050936799
-0.02611593 -0.059798401 0.050936799
-0.02611593 -0.059798401 0.050936799
-0.02611593 -0.059798401 0.050936799
-0.02611593 -0.059798401 0.050936799
-0.02611593 -0.059798401 0.050936799
-0.02611593 -0.059798401 0.050936799
-0.02611593 -0.059798401 0.050936799
-0.02611593 -0.059798401 0.050936799
-0.02611593 -0.059798401 0.050936799
-0.02611593 -0.059798401 0.050936799
-0.02611593 -0.059798401 0.050936799
-0.02611593 -0.059798401 0.050936799
-0.02611593 -0.059798401 0.050936799
-0.02611593 -0.059798401 0.050936799
-0.02611593 -0.059798401 0.050936799
-0.02611593 -0.059798401 0.050936799
-0.02611593 -0.059798401 0.050936799
-0.02611593 -0.059798401 0.050936799
-0.062729895 -0.032013018 -0.039905868
-0.02611593 -0.059798401 0.050936799
-0.02611593 -0.059798401 0.050936799
-0.02611593 -0.059798401 0.050936799
-0.02611593 -0.059798401 0.050936799
-0.02611593 -0.059798401 0.050936799
-0.02611593 -0.059798401 0.050936799
-0.02611593 -0.059798401 0.050936799
-0.066691712 -0.03203484 -0.037831388
-0.02611593 -0.059798401 0.050936799
-0.071631618 -0.036088575 -0.033810865
-0.02611593 -0.059798401 0.050936799
-0.02611593 -0.059798401 0.050936799
-0.02611593 -0.059798401 0.050936799
-0.02611593 -0.059798401 0.050936799
-0.02611593 -0.059798401 0.050936799
-0.070657462 -0.033056494 -0.03577492
-0.02611593 -0.059798401 0.050936799
-0.076608054 -0.035088889 -0.032699239
-0.02611593 -0.059798401 0.050936799
-0.02611593 -0.059798401 0.050936799
-0.02611593 -0.059798401 0.050936799
-0.02611593 -0.059798401 0.050936799
-0.075566866 -0.034128822 -0.030700676
-0.074619278 -0.033078317 -0.03370044
-0.071630701 -0.031071333 -0.034720432
-0.082606956 -0.035067353 -0.032586493
-0.02611593 -0.059798401 0.050936799
-0.02611593 -0.059798401 0.050936799
-0.02611593 -0.059798401 0.050936799
-0.02611593 -0.059798401 0.050936799
-0.080565952 -0.034110878 -0.030606721
-0.082699649 -0.029959666 -0.038494363
-0.075596459 -0.032092985 -0.032663971
-0.086564854 -0.034089345 -0.030493978
-0.02611593 -0.059798401 0.050936799
-0.02611593 -0.059798401 0.050936799
-0.02611593 -0.059798401 0.050936799
-0.02611593 -0.059798401 0.050936799
-0.085561112 -0.033093102 -0.03049475
-0.086665407 -0.030981321 -0.036437899
-0.079558283 -0.032114808 -0.030589476
-0.093578368 -0.033046305 -0.031344093
-0.02611593 -0.059798401 0.050936799
-0.02611593 -0.059798401 0.050936799
-0.02611593 -0.059798401 0.050936799
-0.02611593 -0.059798401 0.050936799
-0.089504205 -0.033133015 -0.02742061
-0.090608507 -0.03102123 -0.033363752
-0.084553435 -0.031097032 -0.030477501
-0.099554621 -0.032043029 -0.030213665
-0.02611593 -0.059798401 0.050936799
-0.02611593 -0.059798401 0.050936799
-0.02611593 -0.059798401 0.050936799
-0.02611593 -0.059798401 0.050936799
-0.098550878 -0.031046785 -0.030214436
-0.097603291 -0.02999628 -0.033214204
-0.095651977 -0.027949532 -0.036214732
-0.10654942 -0.031018075 -0.03006411
-0.02611593 -0.059798401 0.050936799
-0.02611593 -0.059798401 0.050936799
-0.02611593 -0.059798401 0.050936799
-0.02611593 -0.059798401 0.050936799
-0.10453106 -0.031043343 -0.029102039
-0.10054658 -0.030039776 -0.03015884
-0.097561926 -0.029032629 -0.031196859
-0.11354421 -0.029993121 -0.029914562
-0.02611593 -0.059798401 0.050936799
-0.02611593 -0.059798401 0.050936799
-0.02611593 -0.059798401 0.050936799
-0.02611593 -0.059798401 0.050936799
-0.10745561 -0.031104933 -0.025047023
-0.11059306 -0.027949965 -0.032933887
-0.10252357 -0.029050862 -0.029103585
-0.12456786 -0.026917979 -0.03165314
-0.02611593 -0.059798401 0.050936799
-0.02611593 -0.059798401 0.050936799
-0.02611593 -0.059798401 0.050936799
-0.02611593 -0.059798401 0.050936799
-0.11951652 -0.027990021 -0.028766129
-0.11655059 -0.026964778 -0.0308038
-0.11358859 -0.026939368 -0.032859497
-0.13760985 -0.023817563 -0.034353789
-0.02611593 -0.059798401 0.050936799
-0.02611593 -0.059798401 0.050936799
-0.02611593 -0.059798401 0.050936799
-0.02611593 -0.059798401 0.050936799
-0.12850702 -0.025958059 -0.028560974
-0.13264821 -0.02379933 -0.036447067
-0.11751297 -0.026997367 -0.028785691
-0.14151551 -0.023893654 -0.029280312
-0.02611593 -0.059798401 0.050936799
-0.02611593 -0.059798401 0.050936799
-0.02611593 -0.059798401 0.050936799
-0.02611593 -0.059798401 0.050936799
-0.13849734 -0.023922509 -0.028337035
-0.13858703 -0.022832237 -0.03331732
-0.12855926 -0.024903961 -0.031541944
-0.15350154 -0.020851098 -0.02900077
-0.02611593 -0.059798401 0.050936799
-0.02611593 -0.059798401 0.050936799
-0.02611593 -0.059798401 0.050936799
-0.02611593 -0.059798401 0.050936799
-0.14745431 -0.02292656 -0.026150573
-0.14552565 -0.021861549 -0.030168779
-0.13551661 -0.023915187 -0.029393058
-0.16748719 -0.017801363 -0.028683648
-0.02611593 -0.059798401 0.050936799
-0.02611593 -0.059798401 0.050936799
-0.02611593 -0.059798401 0.050936799
-0.02611593 -0.059798401 0.050936799
-0.16044015 -0.019880416 -0.025852244
-0.15448262 -0.020865597 -0.027982328
-0.14549212 -0.022897558 -0.02818748
-0.18347248 -0.01474445 -0.028328948
-0.02611593 -0.059798401 0.050936799
-0.02611593 -0.059798401 0.050936799
-0.02611593 -0.059798401 0.050936799
-0.02611593 -0.059798401 0.050936799
-0.17945839 -0.015776725 -0.027422473
-0.16745368 -0.01883737 -0.026702348
-0.14233203 -0.025070785 -0.019282937
-0.19740196 -0.011748984 -0.025012843
-0.02611593 -0.059798401 0.050936799
-0.02611593 -0.059798401 0.050936799
-0.02611593 -0.059798401 0.050936799
-0.02611593 -0.059798401 0.050936799
-0.20248681 -0.009640933 -0.029881168
-0.17940223 -0.015830992 -0.024423487
-0.15833604 -0.021995785 -0.019927897
-0.22943957 -0.0035631405 -0.028266042
-0.02611593 -0.059798401 0.050936799
-0.02611593 -0.059798401 0.050936799
-0.02611593 -0.059798401 0.050936799
-0.02611593 -0.059798401 0.050936799
-0.22344851 -0.0055843354 -0.028414823
-0.21249977 -0.0085871276 -0.030674901
-0.18240564 -0.016820055 -0.024385136
-0.25640714 0.0035325671 -0.027632568
-0.02611593 -0.059798401 0.050936799
-0.02611593 -0.059798401 0.050936799
-0.02611593 -0.059798401 0.050936799
-0.02611593 -0.059798401 0.050936799
-0.24942021 0.00050795276 -0.027818158
-0.23547593 -0.0035054293 -0.030152626
-0.21346608 -0.0096195433 -0.028674804
-0.9604919 0.19281597 -0.22109187
-0.02611593 -0.059798401 0.050936799
-0.02611593 -0.059798401 0.050936799
-0.02611593 -0.059798401 0.050936799
-0.97714001 0.19555086 -0.20272443
-0.95768058 0.18796887 -0.23023525
-0.26342851 0.0025759479 -0.028518721
-0.24046022 -0.0045054043 -0.029077034
-0.98875546 0.19723181 -0.18246973
-0.97632825 0.19071093 -0.21183029
-0.02611593 -0.059798401 0.050936799
-0.02611593 -0.059798401 0.050936799
-0.9963569 0.19788049 -0.16130847
-0.98393363 0.19035977 -0.19068708
-0.96849614 0.18181036 -0.21914038
-0.27143097 0.0016048324 -0.028386414
-1.0129863 0.20059727 -0.14194143
-0.99856728 0.19206958 -0.17137563
-0.98011953 0.18149167 -0.19892171
-0.02611593 -0.059798401 0.050936799
-1.0115597 0.19917785 -0.11898603
-1.0131823 0.1937613 -0.1510645
-0.99173898 0.18217279 -0.17868496
-0.97834641 0.17166708 -0.20913607
-1.0181427 0.19980481 -0.096843943
-1.020769 0.19339205 -0.12892163
-1.0083722 0.18388976 -0.15933593
-0.98094177 0.16928022 -0.18712318
-1.0167122 0.19938518 -0.073870525
-1.0243562 0.19300845 -0.10685392
-1.0159589 0.18352051 -0.13719305
-1.0015744 0.17101157 -0.16769899
-1.028309 0.20104805 -0.052616119
-1.0239109 0.19157448 -0.08288008
-1.0245453 0.18315487 -0.11503139
-1.0101836 0.16966417 -0.14655501
-1.0549021 0.20778197 -0.031989418
-1.0395256 0.19326976 -0.062550165
-1.032136 0.18178576 -0.09290655
-1.0107604 0.16725203 -0.12358005
-0.02611593 -0.059798401 0.050936799
-1.0460898 0.19387868 -0.039408416
-1.028695 0.17934121 -0.069007106
-1.0193509 0.16588655 -0.10143641
-1.0940357 0.2161281 0.012909465
-1.0806775 0.20164116 -0.018613376
-1.0493048 0.1820543 -0.048565224
-1.0309368 0.16553167 -0.07921838
-1.1085678 0.21974711 0.037255254
-1.1052414 0.20633207 0.0039390251
-1.0718731 0.18573819 -0.026068427
-1.0525279 0.16823025 -0.057758056
-1.1211004 0.22335894 0.061563473
-1.1127867 0.20692647 0.028099228
-1.0814366 0.18635787 -0.0028702915
-1.0741228 0.169929 -0.036315747
-1.1316561 0.22598188 0.084816433
-1.127304 0.20952757 0.053426672
-1.1149949 0.19208089 0.019869242
-1.081672 0.16952357 -0.012173556
-1.156141 0.23160024 0.11138549
-1.134868 0.21014005 0.076587223
-1.1085211 0.18858956 0.045693636
-1.0912209 0.16912532 0.012006223
-0.02611593 -0.059798401 0.050936799
-1.1413721 0.21169454 0.10274597
-1.1330476 0.19324431 0.070245363
-1.1047649 0.16974124 0.036279175
-1.1871076 0.23975483 0.165131
-1.1638615 0.2163059 0.12925944
-1.1325834 0.19179225 0.095218867
-1.1202861 0.1713461 0.061607387
-1.1985842 0.2433088 0.19241941
-1.1683699 0.21685337 0.15536261
-1.1451051 0.19338635 0.1204907
-1.1298162 0.17092976 0.086786821
-0.02611593 -0.059798401 0.050936799
-1.1908218 0.22142857 0.18387538
-1.1685607 0.19696532 0.14900425
-0.02611593 -0.059798401 0.050936799
-1.2404206 0.25539371 0.25244164
-1.2022835 0.22396465 0.21214545
-1.1790454 0.19851603 0.17623785
-1.1717738 0.17610624 0.14168462
-1.2538366 0.25990045 0.28278464
-0.02611593 -0.059798401 0.050936799
-0.02611593 -0.059798401 0.050936799
-0.02611593 -0.059798401 0.050936799
-1.278183 0.26739183 0.31638736
-1.2480671 0.23500974 0.27522379
-1.2149252 0.20459847 0.23503958
-1.2066656 0.17918561 0.2004135
-1.266706 0.26488239 0.34213585
-1.272421 0.24050152 0.3087905
-0.02611593 -0.059798401 0.050936799
-0.02611593 -0.059798401 0.050936799
-0.02611593 -0.059798401 0.050936799
-1.293757 0.24596442 0.34330049
-1.2656368 0.21458934 0.30219251
-0.02611593 -0.059798401 0.050936799
-1.322258 0.2817634 0.41650647
-1.2931913 0.24642159 0.37330833
-1.2969294 0.2210518 0.33890775
-0.02611593 -0.059798401 0.050936799
-2.7443702 0.66098714 0.88415051
-1.333373 0.25682521 0.41526306
-1.3271887 0.22647463 0.37758547
-1.2543299 0.18313909 0.32441944
-2.7262685 0.65985882 0.94281107
-3.0190229 0.66674656 0.95742178
-1.3116789 0.22291481 0.40524006
-0.02611593 -0.059798401 0.050936799
-2.7001989 0.65572041 1.0002675
-3.0086913 0.66642982 1.0282466
-3.1277037 0.62369287 0.98368669
-0.02611593 -0.059798401 0.050936799
-2.6612294 0.65062606 1.0524635
-2.9854298 0.6631211 1.0957742
-3.0904834 0.61535281 1.0498614
-3.1270957 0.54779255 0.97730017
-2.6381514 0.648498 1.1100124
-2.9671452 0.66081202 1.1644132
-3.1515555 0.62978536 1.1502999
-3.0858655 0.53742051 1.0443633
-2.6170506 0.64735901 1.1686167
-2.9488564 0.65950292 1.2330704
-3.2075801 0.64214617 1.2536074
-3.1628263 0.55080211 1.1510825
-2.6018844 0.64818692 1.2303687
-2.9087639 0.65227866 1.2922091
-3.2724791 0.65743005 1.3631362
-3.2227979 0.56212312 1.2574461
-2.5758445 0.64608443 1.2858618
-2.8686633 0.64705402 1.3513839
-3.2985811 0.66573799 1.462809
-3.2876339 0.57433516 1.3709195
-2.5379121 0.64102972 1.3360772
-2.8453979 0.64474523 1.4189295
-3.2592452 0.65828222 1.5349619
-3.3741877 0.59037226 1.4988735
-2.5276959 0.64483887 1.3999765
-2.8231473 0.64345783 1.4855121
-3.2060502 0.64890301 1.5998183
-3.4655645 0.60826427 1.6359544
-2.4956796 0.64173305 1.4543393
-2.7969017 0.64115632 1.5520016
-3.1637294 0.64245433 1.6709335
-3.6805844 0.65040666 1.8418121
-2.4547851 0.63670385 1.5024991
-2.7666938 0.63887668 1.6164168
-3.1451745 0.64189178 1.7536039
-3.6637146 0.64854389 1.9414964
-2.4257607 0.63560843 1.5569541
-2.7315283 0.63561529 1.6787205
-3.1493521 0.64617574 1.8497922
-3.6329346 0.64370388 2.0368648
-2.403652 0.63646549 1.6155757
-2.7072554 0.63530254 1.7462832
-3.0941875 0.63882524 1.9126477
-3.544822 0.62925422 2.0979745
-2.3726275 0.63536286 1.6699934
-2.6750481 0.63301569 1.8106606
-3.0636804 0.6362561 1.9930574
