# .PCD v0.7 - Point Cloud Data file format
VERSION 0.7
FIELDS x y z
SIZE 4 4 4
TYPE F F F
COUNT 1 1 1
WIDTH 1363
HEIGHT 1
VIEWPOINT 0 0 0 1 0 0 0
POINTS 1363
DATA ascii
-0.02611593 -0.059798401 0.050936799
-0.064264089 0.014714832 -0.024026502
-0.02611593 -0.059798401 0.050936799
-0.02611593 -0.059798401 0.050936799
-0.069256231 0.011715196 -0.022986945
-0.02611593 -0.059798401 0.050936799
-0.061171029 0.01461362 -0.019084569
-0.02611593 -0.059798401 0.050936799
-0.02611593 -0.059798401 0.050936799
-0.070299529 0.019789787 -0.026822653
-0.02611593 -0.059798401 0.050936799
-0.02611593 -0.059798401 0.050936799
-0.075262077 0.01475431 -0.023819808
-0.02611593 -0.059798401 0.050936799
-0.064166553 0.015624218 -0.019010179
-0.02611593 -0.059798401 0.050936799
-0.02611593 -0.059798401 0.050936799
-0.07120271 0.015685519 -0.020877972
-0.02611593 -0.059798401 0.050936799
-0.02611593 -0.059798401 0.050936799
-0.081297509 0.019829264 -0.026615955
-0.02611593 -0.059798401 0.050936799
-0.064059056 0.0094986176 -0.01212066
-0.02611593 -0.059798401 0.050936799
-0.02611593 -0.059798401 0.050936799
-0.076208733 0.018721044 -0.021729622
-0.02611593 -0.059798401 0.050936799
-0.02611593 -0.059798401 0.050936799
-0.086270019 0.021828774 -0.025486305
-0.02611593 -0.059798401 0.050936799
-0.02611593 -0.059798401 0.050936799
-0.078369282 0.039959799 -0.034309249
-0.02611593 -0.059798401 0.050936799
-0.08526928 0.026842427 -0.026414663
-0.02611593 -0.059798401 0.050936799
-0.02611593 -0.059798401 0.050936799
-0.093267821 0.026871139 -0.02626434
-0.02611593 -0.059798401 0.050936799
-0.084268555 0.031856082 -0.02734302
-0.02611593 -0.059798401 0.050936799
-0.02611593 -0.059798401 0.050936799
-0.091252476 0.030863283 -0.026229847
-0.02611593 -0.059798401 0.050936799
-0.02611593 -0.059798401 0.050936799
-0.098240331 0.02887065 -0.02513469
-0.02611593 -0.059798401 0.050936799
-0.088245176 0.032852173 -0.02625018
-0.083253026 0.035851806 -0.027289737
-0.02611593 -0.059798401 0.050936799
-0.097239599 0.033884302 -0.026063047
-0.02611593 -0.059798401 0.050936799
-0.02611593 -0.059798401 0.050936799
-0.10521941 0.033894926 -0.024913061
-0.02611593 -0.059798401 0.050936799
-0.093217671 0.034851689 -0.025120534
-0.090250835 0.040894166 -0.028067779
-0.02611593 -0.059798401 0.050936799
-0.1042226 0.037908748 -0.025859438
-0.02611593 -0.059798401 0.050936799
-0.02611593 -0.059798401 0.050936799
-0.111173 0.03587994 -0.022764958
-0.02611593 -0.059798401 0.050936799
-0.1012301 0.040915553 -0.026861414
-0.094216578 0.039872512 -0.026011311
-0.02611593 -0.059798401 0.050936799
-0.11221629 0.043954521 -0.026600663
-0.02611593 -0.059798401 0.050936799
-0.02611593 -0.059798401 0.050936799
-0.1211772 0.043950647 -0.024432227
-0.02611593 -0.059798401 0.050936799
-0.10517319 0.040875643 -0.023787275
-0.10222507 0.046936207 -0.027734179
-0.02611593 -0.059798401 0.050936799
-0.11615547 0.044914443 -0.023508508
-0.02611593 -0.059798401 0.050936799
-0.02611593 -0.059798401 0.050936799
-0.12915218 0.049978342 -0.024173796
-0.02611593 -0.059798401 0.050936799
-0.116192 0.049967863 -0.026417393
-0.10819739 0.048939321 -0.026585732
-0.02611593 -0.059798401 0.050936799
-0.12614487 0.05196723 -0.024194129
-0.02611593 -0.059798401 0.050936799
-0.02611593 -0.059798401 0.050936799
-0.14012267 0.057016626 -0.023840971
-0.02611593 -0.059798401 0.050936799
-0.12214167 0.052952711 -0.024251271
-0.11414706 0.051924162 -0.024419617
-0.02611593 -0.059798401 0.050936799
-0.14015527 0.063069873 -0.026731845
-0.02611593 -0.059798401 0.050936799
-0.02611593 -0.059798401 0.050936799
-0.15007463 0.064033233 -0.022527274
-0.02611593 -0.059798401 0.050936799
-0.13314569 0.061027005 -0.025899749
-0.1241404 0.057977118 -0.025123257
-0.02611593 -0.059798401 0.050936799
-0.15112184 0.071107984 -0.026381001
-0.02611593 -0.059798401 0.050936799
-0.02611593 -0.059798401 0.050936799
-0.16908319 0.080171056 -0.025880605
-0.02611593 -0.059798401 0.050936799
-0.14208303 0.067022108 -0.023623206
-0.13210449 0.061987061 -0.023901202
-0.02611593 -0.059798401 0.050936799
-0.16408411 0.080153108 -0.025974557
-0.02611593 -0.059798401 0.050936799
-0.02611593 -0.059798401 0.050936799
-0.1810082 0.089176409 -0.023493625
-0.02611593 -0.059798401 0.050936799
-0.1560747 0.078106664 -0.025161251
-0.14107536 0.069018178 -0.023605958
-0.02611593 -0.059798401 0.050936799
-0.17702374 0.09017998 -0.02455043
-0.02611593 -0.059798401 0.050936799
-0.02611593 -0.059798401 0.050936799
-0.19894993 0.10323864 -0.022903137
-0.02611593 -0.059798401 0.050936799
-0.17204729 0.089180291 -0.025662065
-0.15403762 0.078063302 -0.023199514
-0.02611593 -0.059798401 0.050936799
-0.19498417 0.10426029 -0.024959605
-0.02611593 -0.059798401 0.050936799
-0.02611593 -0.059798401 0.050936799
-0.2228857 0.12333944 -0.023091454
-0.02611593 -0.059798401 0.050936799
-0.18899313 0.10223909 -0.025108386
-0.1720355 0.09217979 -0.025608011
-0.02611593 -0.059798401 0.050936799
-0.21390307 0.11930784 -0.023332641
-0.02611593 -0.059798401 0.050936799
-0.02611593 -0.059798401 0.050936799
-0.25680697 0.15149291 -0.023947377
-0.02611593 -0.059798401 0.050936799
-0.20994124 0.11932965 -0.025407121
-0.18797067 0.10321725 -0.02410949
-0.02611593 -0.059798401 0.050936799
-0.24483272 0.14545085 -0.024280973
-0.02611593 -0.059798401 0.050936799
-0.02611593 -0.059798401 0.050936799
-0.80581135 0.64730656 -0.1667482
-0.02611593 -0.059798401 0.050936799
-0.23085582 0.13538422 -0.023724575
-0.20790808 0.11828647 -0.023463402
-0.80949229 0.64701337 -0.14967877
-0.78597355 0.64036262 -0.17424774
-0.02611593 -0.059798401 0.050936799
-0.02611593 -0.059798401 0.050936799
-0.81516111 0.64972687 -0.13251774
-0.80268377 0.65118653 -0.1607345
-0.26075608 0.1594878 -0.022728413
-0.2388604 0.14344776 -0.02542942
-0.81784624 0.64843035 -0.11548517
-0.80435824 0.64786863 -0.14275709
-0.02611593 -0.059798401 0.050936799
-0.02611593 -0.059798401 0.050936799
-0.81652123 0.64510161 -0.097564101
-0.81104946 0.64960396 -0.12659493
-0.79955721 0.65004933 -0.15381126
-0.25870812 0.1574267 -0.019803047
-0.81718796 0.64377981 -0.079569429
-0.81272 0.64728594 -0.10859951
-0.80523789 0.64976335 -0.1367043
-0.02611593 -0.059798401 0.050936799
-0.81687748 0.64147258 -0.06261123
-0.81739688 0.64799619 -0.091493301
-0.81492466 0.65250927 -0.12046776
-0.80645442 0.65198368 -0.1486454
-0.82353824 0.64618933 -0.045395359
-0.81806755 0.64567453 -0.07351663
-0.81459254 0.64616662 -0.10158231
-0.80513036 0.64363778 -0.12981477
-0.8252157 0.64688891 -0.028345533
-0.82474011 0.64739174 -0.056354843
-0.82325685 0.64989072 -0.08434689
-0.81779402 0.64737618 -0.11250419
-0.82390547 0.6445781 -0.011406116
-0.82642144 0.64709145 -0.03932301
-0.82694179 0.64859778 -0.067295492
-0.82447439 0.64709377 -0.095378421
-0.82458305 0.64527398 0.005624935
-0.82709211 0.64476973 -0.021346353
-0.83060408 0.64828652 -0.049226448
-0.83312792 0.64880019 -0.077179372
-0.82325017 0.64394498 0.023582026
-0.82576317 0.64244097 -0.0034072846
-0.83327436 0.64597195 -0.031212196
-0.83878982 0.64849609 -0.059072711
-0.82492757 0.64464444 0.04063186
-0.83043611 0.64415097 0.013716951
-0.84191597 0.65067786 -0.012959093
-0.84343714 0.64717054 -0.040003233
-0.82061785 0.64232296 0.057514898
-0.83309066 0.64583588 0.031803258
-0.83957636 0.64632767 0.0059248134
-0.8480804 0.64684474 -0.020915717
-0.82029957 0.64201546 0.074509136
-0.83576787 0.64653891 0.048871882
-0.83925116 0.64300263 0.023864649
-0.85372359 0.64652264 -0.0018094108
-0.81800044 0.64171886 0.090466134
-0.8374266 0.64722031 0.066921376
-0.84689695 0.64670497 0.042080954
-0.85437948 0.64318305 0.017148886
-0.81670105 0.64142579 0.10644192
-0.83710831 0.64691281 0.083915614
-0.85053658 0.64737546 0.061167695
-0.86201048 0.64586759 0.036346819
-0.81239134 0.63910425 0.12332496
-0.83081079 0.64158458 0.10070702
-0.85319507 0.6480605 0.079235986
-0.86663514 0.64552373 0.056433994
-0.81206524 0.64079642 0.14035523
-0.83246553 0.64326584 0.11877455
-0.85385787 0.64773846 0.097248673
-0.86726439 0.64416564 0.076427989
-0.80976599 0.64049983 0.15631223
-0.83212459 0.64394009 0.13678646
-0.85350609 0.64639491 0.11622421
-0.87090796 0.64383632 0.095496714
-0.80545235 0.63917816 0.1732133
-0.83178759 0.64361447 0.15478036
-0.8491708 0.64103776 0.13505252
-0.87153727 0.64247835 0.1154907
-0.80314529 0.64088118 0.18920633
-0.82847381 0.64229631 0.17170021
-0.85180265 0.64370435 0.15415651
-0.8711707 0.64011693 0.13544789
-0.79885048 0.63957763 0.20510773
-0.82812893 0.64397037 0.18973014
-0.85044712 0.6433571 0.17313127
-0.8698042 0.63775182 0.15538628
-0.79455554 0.63827401 0.22100914
-0.8238005 0.64163077 0.20761284
-0.84612656 0.63901782 0.19097795
-0.87042958 0.63739365 0.17539829
-0.78926075 0.63696676 0.23689172
-0.81849098 0.63930565 0.22447708
-0.84377122 0.63866693 0.20993394
-0.87203211 0.63802075 0.19644678
-0.78099316 0.63366723 0.25168225
-0.81616914 0.63999081 0.24145177
-0.84439266 0.63930857 0.22996396
-0.87463051 0.63965136 0.21753207
-0.77669436 0.63336343 0.26760167
-0.81482446 0.64166129 0.25946289
-0.84006035 0.63796878 0.24786466
-0.86927271 0.63527232 0.23735927
-0.77536052 0.6370517 0.28464919
-0.80552745 0.63632232 0.27619794
-0.8406778 0.63961023 0.26791272
-0.87384021 0.63989145 0.25953585
-0.77008063 0.63676244 0.29955018
-0.80220968 0.63600403 0.29313582
-0.83435363 0.63626361 0.28573984
-0.86650544 0.63452351 0.2783078
-0.76083189 0.63347733 0.31332225
-0.79589653 0.63467515 0.30999929
-0.83199441 0.63691258 0.30471382
-0.86610836 0.63514346 0.29931867
-0.75652516 0.6351732 0.32927769
-0.79057914 0.63434964 0.32689959
-0.82861656 0.63753986 0.32466871
-0.86369288 0.63573813 0.32129169
-0.74925357 0.63287711 0.34410506
-0.78526175 0.6340242 0.34379986
-0.82328445 0.63619649 0.34255064
-0.85932308 0.6343621 0.34119171
-0.7400009 0.63059193 0.35789514
-0.78389049 0.63767624 0.3628467
-0.81693369 0.63483137 0.36141342
-0.85592651 0.63497138 0.36214626
-0.73766732 0.63427657 0.37492388
-0.77561903 0.63537663 0.37765527
-0.8125748 0.63547325 0.38034981
-0.84954232 0.63257027 0.38299036
-0.72841465 0.63199133 0.38871399
-0.76930177 0.63504755 0.39453676
-0.80524689 0.63312274 0.39817616
-0.84811884 0.63516825 0.40501818
-0.72115386 0.63171291 0.40257773
-0.76298851 0.63371861 0.41140023
-0.80086529 0.63474631 0.41813028
-0.8427304 0.63377059 0.42589909
-0.713893 0.63143456 0.41644144
-0.75174022 0.63042647 0.42513475
-0.79156041 0.63140696 0.4349013
-0.83338422 0.63139492 0.44468749
-0.7016902 0.62617528 0.42812178
-0.74739212 0.63308597 0.44310755
-0.78817868 0.63303417 0.45487422
-0.82896918 0.63198239 0.46662289
-0.70130306 0.63383025 0.44725949
-0.7420482 0.63474208 0.46104351
-0.77984315 0.63267982 0.47271779
-0.82651925 0.63655835 0.48966759
-0.6910693 0.63155949 0.46003115
-0.73177707 0.6324352 0.47581449
-0.77051562 0.63032222 0.49050653
-0.81518126 0.63217592 0.50838238
-0.67887735 0.62831807 0.47074789
-0.72150588 0.63012832 0.49058548
-0.76317602 0.63097131 0.50838691
-0.81075829 0.63476306 0.53035384
-0.67061663 0.62803608 0.48459283
-0.70925772 0.62683249 0.50430119
-0.74989456 0.62663597 0.52406514
-0.79941249 0.63238025 0.54910463
-0.66530234 0.63172799 0.50056553
-0.7019555 0.62751782 0.52018225
-0.74352807 0.6292702 0.54300004
-0.78512031 0.62602347 0.56572771
-0.65408748 0.62947172 0.51231867
-0.69365352 0.62819946 0.53604454
-0.73419279 0.62891233 0.56082481
-0.77474767 0.62562579 0.58553308
-0.64387256 0.6272192 0.52409071
-0.68632472 0.63086629 0.55296129
-0.72485739 0.6285544 0.57864958
-0.76634812 0.62721694 0.60641158
-0.63657719 0.63092202 0.53902614
-0.67604965 0.62955922 0.56775028
-0.7145409 0.62821102 0.59545594
-0.75499833 0.62583393 0.62518042
-0.62241614 0.62469196 0.54865158
-0.66477078 0.62924844 0.58253849
-0.70125163 0.62587529 0.61117023
-0.74264872 0.62444735 0.64393049
-0.61022031 0.62245017 0.55938637
-0.65156424 0.6249854 0.59421808
-0.68993533 0.62552834 0.6279577
-0.73129499 0.62406409 0.6627174
-0.60587525 0.62912714 0.57643151
-0.64028537 0.62467462 0.60900629
-0.68156928 0.62815535 0.646855
-0.72089577 0.62564802 0.6835584
-0.59270215 0.62590015 0.58612984
-0.62999851 0.62636703 0.62384933
-0.66927582 0.62682301 0.66260612
-0.70461488 0.62130183 0.69918031
-0.5824793 0.62564719 0.59793788
-0.61776525 0.62408912 0.63658333
-0.65697449 0.62749034 0.67839319
-0.69028044 0.62092602 0.71691108
-0.57321101 0.6273613 0.61180001
-0.60648239 0.62477821 0.65138966
-0.6407311 0.62318033 0.69201571
-0.67791903 0.62253892 0.73571521
-0.56198442 0.62810451 0.62360728
-0.59422255 0.62448186 0.66515946
-0.62745261 0.6228624 0.70676637
-0.66261137 0.62017787 0.75239158
-0.54978454 0.62686265 0.63436002
-0.5849089 0.6281594 0.68105698
-0.61220109 0.62055558 0.72044379
-0.65120834 0.62275809 0.7732318
-0.53858459 0.62562442 0.64513165
-0.56774443 0.62291837 0.69064403
-0.6018315 0.62417537 0.73932147
-0.63491178 0.62241125 0.78892571
-0.52540368 0.62439704 0.65486592
-0.55257177 0.61968422 0.70030469
-0.58462173 0.62089783 0.7509439
-0.61960018 0.62105 0.80562013
-0.51222277 0.6231696 0.66460025
-0.54223961 0.62334013 0.71718311
-0.57034343 0.62057626 0.76567572
-0.60232633 0.6197179 0.82027751
-0.50002289 0.62192774 0.67535293
-0.5270856 0.62012392 0.72584414
-0.55508411 0.62026918 0.77938914
-0.58792001 0.62328708 0.84107947
-0.48588356 0.6197331 0.68305117
-0.51381803 0.62182373 0.73963118
-0.537893 0.6170097 0.79001194
-0.56773347 0.619017 0.85162783
-0.47756186 0.62541401 0.69900352
-0.49766421 0.618604 0.74827343
-0.52456528 0.61965501 0.80681592
-0.54945987 0.61768121 0.86626649
-0.46244535 0.62223405 0.70566523
-0.48344207 0.61833668 0.76000631
-0.50637048 0.61739171 0.81743795
-0.53411382 0.62030131 0.88403261
-0.45023769 0.62299186 0.71645409
-0.47017452 0.62003648 0.77379328
-0.49013004 0.61709917 0.8301329
-0.51488179 0.61799824 0.89663512
-0.43898451 0.62571669 0.72929704
-0.45303959 0.61683124 0.78141707
-0.47582129 0.61975896 0.84591842
-0.49562308 0.61767679 0.91027331
-0.42581838 0.62550718 0.73804963
-0.43979076 0.61854905 0.79420447
-0.45664534 0.61751026 0.85552198
-0.47442883 0.61540282 0.92083895
-0.41067919 0.62330902 0.74572909
-0.42456487 0.61927801 0.80593657
-0.43944645 0.6162504 0.86618084
-0.45517018 0.61508137 0.93447721
-0.39653984 0.62111437 0.75342727
-0.41031224 0.62199211 0.81872314
-0.42217961 0.61793584 0.87989271
-0.43686217 0.61772686 0.95018762
-0.38334712 0.62288654 0.76321566
-0.39221498 0.61881948 0.82432884
-0.4039996 0.61669052 0.88953304
-0.41475475 0.61252207 0.95668173
-0.36820403 0.62168819 0.770913
-0.37509882 0.61563241 0.83095294
-0.38386127 0.61447442 0.89711851
-0.39452982 0.61323309 0.96831989
-0.35403416 0.62247491 0.77966493
-0.35988778 0.61737913 0.84170341
-0.36567739 0.6142289 0.90677691
-0.37330902 0.61294073 0.97992128
-0.34179989 0.62521428 0.79148948
-0.34083599 0.61223948 0.84525496
-0.3484292 0.61593235 0.91948909
-0.35304263 0.61461532 0.99357677
-0.32472116 0.62206334 0.79611427
-0.32560229 0.61496812 0.857023
-0.32926422 0.61570132 0.92812902
-0.3299877 0.61046112 0.99707103
-0.30868363 0.61795229 0.79874051
-0.30750111 0.61279529 0.86264676
-0.30723172 0.61056906 0.93062449
-0.30874029 0.61215025 1.009708
-0.29448718 0.62072068 0.80852813
-0.29033574 0.61257148 0.87132424
-0.28804404 0.61131978 0.94028211
-0.28564003 0.60995948 1.0152379
-0.27838564 0.61855507 0.81418937
-0.2731851 0.61336553 0.87902015
-0.26885635 0.6120705 0.94993973
-0.26534322 0.6146155 1.029947
-0.26418918 0.62132341 0.82397693
-0.25410283 0.61120731 0.88362539
-0.24871022 0.61185396 0.95756114
-0.24132586 0.61049384 1.0314233
-0.24808371 0.62015766 0.8296563
-0.23693353 0.61198336 0.89232087
-0.22951865 0.61360455 0.96723682
-0.21826695 0.6073395 1.0349357
-0.23293276 0.62095886 0.83738971
-0.22071478 0.61572617 0.90308869
-0.20851552 0.61051166 0.96778786
-0.19515882 0.60714847 1.0405016
-0.216846 0.61981124 0.84206933
-0.20258307 0.61653483 0.90976602
-0.1874336 0.60834622 0.97235548
-0.1719453 0.60986632 1.0511197
-0.19980472 0.61669636 0.84469485
-0.18258373 0.61244565 0.91031778
-0.16627981 0.61012578 0.97999418
-0.14885983 0.6086936 1.0556678
-0.18366873 0.61851203 0.85142791
-0.1635389 0.61032355 0.91292375
-0.14618987 0.60996354 0.98461676
-0.1248307 0.60757142 1.057198
-0.16755931 0.6183461 0.85712516
-0.1454072 0.61113214 0.91960108
-0.12418696 0.60686702 0.98514891
-0.10161325 0.61128926 1.0678343
-0.15044226 0.6201762 0.86283976
-0.12635843 0.61000985 0.92222506
-0.10305189 0.60866469 0.99178797
-0.078625314 0.60920703 1.067366
-0.13346501 0.61511606 0.86243021
-0.10822282 0.61181825 0.92892051
-0.081916802 0.61046231 0.99842703
-0.054596189 0.60808492 1.0688964
-0.11637057 0.61596441 0.86712712
-0.089170128 0.61169577 0.93156242
-0.060887132 0.60935098 1.0000137
-0.030567063 0.6069628 1.0704267
-0.099280059 0.6158129 0.87180597
-0.069080181 0.61153358 0.93618494
-0.039789513 0.61118484 1.0046535
-0.0065340083 0.60684043 1.071975
-0.082230933 0.61469787 0.87446749
-0.050050139 0.61042941 0.93780923
-0.017801391 0.60910624 1.004204
0.016480505 0.60673982 1.0725425
-0.065177873 0.61458254 0.87714708
-0.030020274 0.60932165 0.93941474
0.0032134876 0.60901272 1.0048091
0.040434744 0.60569 1.0700742
-0.04803814 0.61739439 0.88387924
-0.011027683 0.60825366 0.93903971
0.025205536 0.60793394 1.0043777
0.064471722 0.6065675 1.0716406
-0.030026643 0.61631197 0.88452274
0.008047659 0.60911292 0.94269931
0.046220418 0.60784054 1.0049828
0.088384584 0.60455406 1.067155
-0.011996419 0.61521131 0.8861658
0.027085558 0.61000836 0.94435972
0.068171091 0.60579807 1.0025339
0.11127498 0.6015625 1.0616704
0.0050605666 0.61609584 0.88886333
0.047059249 0.60895491 0.94296622
0.090170987 0.60671902 1.0021386
0.13527453 0.60247612 1.0612375
0.0220496 0.61403519 0.88850784
0.067074314 0.60886496 0.94359004
0.11112185 0.60468006 0.99970871
0.15923661 0.60342598 1.0588052
0.041064844 0.61394894 0.88915056
0.086980045 0.60486621 0.93914354
0.13197516 0.6017319 0.99226236
0.18423989 0.60533601 1.0583715
0.059053697 0.61188465 0.8887763
0.10700297 0.60677606 0.93980342
0.1561707 0.60948157 1.0009525
0.20713814 0.60434407 1.052923
0.077137075 0.61474717 0.89249068
0.12704067 0.60766798 0.94144493
0.17706539 0.60749698 0.99552357
0.23003639 0.60335207 1.0474745
0.095111132 0.61370081 0.8911348
0.14697692 0.60665053 0.93805218
0.19791871 0.60454869 0.98807734
0.25289717 0.60239637 1.0400265
0.11406236 0.61166912 0.88874245
0.16587198 0.60467309 0.93266076
0.21989988 0.6054877 0.98668218
0.27578065 0.60242236 1.0335964
0.13314556 0.61452806 0.89243811
0.18694001 0.60854286 0.93533719
0.24286607 0.60744101 0.98428679
0.2996639 0.60244477 1.0271475
0.14997303 0.6096127 0.8840313
0.20681225 0.60558009 0.92890936
0.26374599 0.6064744 0.97787625
0.32254738 0.6024707 1.0207174
0.16792443 0.6075846 0.88165772
0.22677505 0.60654432 0.92655224
0.28462586 0.60550767 0.97146559
0.34543476 0.60349655 1.0143052
0.18688349 0.60755259 0.87930131
0.24671522 0.60652679 0.92317748
0.30653214 0.60651904 0.9660719
0.36621714 0.60162055 1.0028783
0.20695172 0.61142582 0.88199657
0.26768181 0.60848731 0.92081958
0.32632947 0.60362858 0.95564544
0.38802195 0.60072267 0.9924503
0.22484696 0.60945207 0.87662405
0.28551695 0.60556787 0.91242999
0.3472133 0.60366178 0.94925284
0.41091716 0.60374808 0.98607421
0.24378733 0.60943818 0.87326801
0.30748332 0.60752481 0.91005331
0.36914223 0.60565484 0.94487691
0.43169954 0.60187209 0.97464734
0.26272768 0.60942423 0.86991203
0.32740873 0.60852522 0.90569687
0.38686115 0.60184419 0.93047136
0.45348957 0.60199207 0.96323758
0.28170937 0.61037391 0.86857337
0.34520638 0.60564196 0.89530796
0.40773016 0.60289526 0.92309713
0.47429851 0.60209763 0.95284641
0.3006084 0.60939634 0.86320001
0.36617693 0.60860234 0.89296818
0.4296177 0.60392463 0.91670376
0.49404749 0.6012612 0.939457
0.31951132 0.60941857 0.85784471
0.38291076 0.60377729 0.87956303
0.44738191 0.60207754 0.90433359
0.51484162 0.60238457 0.92808419
0.33841026 0.60844105 0.85247135
0.40279868 0.60481387 0.87320727
0.4682135 0.60316473 0.89496005
0.53563571 0.60350806 0.91671133
0.35524952 0.60652506 0.84411854
0.42264134 0.60388702 0.86481613
0.48804525 0.60425556 0.88560534
0.55332118 0.6007334 0.9003244
0.37622002 0.60948539 0.84177876
0.44151068 0.60494524 0.85747945
0.50579071 0.60242653 0.87223542
0.57307792 0.60189664 0.886971
0.39301792 0.60660571 0.83140868
0.46031609 0.60405815 0.84710783
0.52249503 0.59963727 0.85686702
0.59285361 0.60304177 0.87461734
0.4119021 0.60664606 0.82505363
0.47916675 0.60513449 0.83877158
0.5443716 0.6026845 0.84951007
0.60954696 0.60227031 0.85828525
0.43183535 0.6096462 0.82073325
0.49799481 0.60522908 0.82941765
0.56212491 0.60285509 0.83617622
0.62930387 0.60343355 0.8449319
0.449633 0.60676295 0.81034428
0.51473647 0.60240376 0.81604856
0.5798744 0.60202575 0.82282442
0.64499742 0.60266566 0.82861865
0.46643484 0.60488319 0.7999922
0.53357232 0.60449803 0.80673057
0.59765035 0.60317808 0.81050825
0.66164953 0.60093063 0.8102693
0.4873718 0.60887957 0.79567105
0.55338544 0.60560697 0.79637623
0.61538488 0.60336673 0.79617476
0.67939192 0.60311896 0.79597181
0.50413221 0.60603607 0.78330165
0.57015359 0.60476321 0.78404278
0.6341607 0.60451537 0.78383982
0.69504809 0.60238731 0.7776593
0.52091926 0.60517418 0.77196789
0.58690321 0.60393751 0.77070969
0.64885056 0.60275131 0.76752734
0.70667839 0.59968841 0.75838619
0.54283726 0.60918504 0.76662827
0.60265297 0.60311538 0.75739545
0.66558921 0.60394347 0.75323069
0.72642434 0.60286939 0.74406916
0.55962038 0.60732329 0.75527656
0.61733896 0.60035151 0.74106497
0.68232399 0.60413569 0.73891598
0.74006212 0.60216302 0.72479451
0.57534754 0.60551953 0.74094462
0.638201 0.60442019 0.73274511
0.69597661 0.60241133 0.72062302
0.75269622 0.60046035 0.70552063
0.5952059 0.60859191 0.73262554
0.65289086 0.60265613 0.71643269
0.71167409 0.60264337 0.70432776
0.77044642 0.60464835 0.69125926
0.61092895 0.60578823 0.71827555
0.66964823 0.6038301 0.70313567
0.72739428 0.60385704 0.6890502
0.78508794 0.60493821 0.67198384
0.62872368 0.60692239 0.70695913
0.68945038 0.60695672 0.6918177
0.74309176 0.60408908 0.672755
0.79265898 0.60130811 0.64976889
0.64445078 0.60511863 0.69262719
0.70109946 0.60423982 0.67354423
0.75575238 0.60436803 0.65451682
0.80530083 0.60160518 0.63053101
0.66324925 0.60724908 0.68130988
0.71681565 0.60445368 0.65824866
0.77045006 0.60460359 0.63824034
0.81794661 0.602902 0.6113112
0.67796171 0.60646677 0.66601509
0.73253196 0.60466766 0.6429531
0.78411049 0.60487896 0.61998343
0.83161497 0.60517704 0.59309024
0.6967414 0.60861528 0.65369821
0.74823332 0.60589951 0.62667584
0.79372638 0.6032052 0.59976619
0.84223455 0.60449952 0.57287234
0.71347618 0.60880744 0.63938349
0.76193118 0.60613871 0.61041814
0.80840927 0.60445875 0.58250821
0.85185826 0.60482538 0.55269122
0.72614372 0.60606891 0.62209094
0.77256173 0.60344332 0.59116393
0.82005137 0.60475934 0.56328911
0.86045951 0.60417306 0.53151125
0.74288243 0.60726094 0.60779428
0.7892856 0.60565335 0.57588559
0.83068973 0.60406369 0.54407084
0.87108696 0.60549527 0.51132929
0.75655377 0.60551858 0.59050089
0.80094248 0.60493606 0.55764818
0.84335423 0.60534251 0.52585071
0.87565839 0.60187596 0.48917073
0.77327764 0.60772854 0.57522261
0.81765157 0.60816401 0.54138821
0.85600388 0.60763919 0.5066489
0.88931584 0.60616875 0.46998614
0.78997892 0.60895681 0.55892658
0.82929361 0.6084646 0.52216917
0.8615979 0.60499805 0.48548922
0.89794368 0.60749799 0.44984189
0.80163574 0.60823947 0.54068923
0.83892822 0.60677272 0.50295168
0.87527007 0.60827291 0.46728629
0.90352684 0.60687464 0.42771855
0.81428856 0.60651875 0.52241498
0.85157013 0.60706973 0.48371381
0.89094985 0.61354029 0.44908184
0.9131583 0.60920024 0.40757343
0.830975 0.60876495 0.50513738
0.86726463 0.61131918 0.46649101
0.89754748 0.61189526 0.42792138
0.92078632 0.61053306 0.38744795
0.84363562 0.6090439 0.48689917
0.87790686 0.61162335 0.44729075
0.90414912 0.61125022 0.40677896
0.92737705 0.61190575 0.36534187
0.85932225 0.61129355 0.46964034
0.88750792 0.61096752 0.42609197
0.91073197 0.61062324 0.38463685
0.93196034 0.61128598 0.34323737
0.87396771 0.61258328 0.45038295
0.89915395 0.61226797 0.40689093
0.92035961 0.61194897 0.36447373
0.93656623 0.6116479 0.32215053
0.88356876 0.61192745 0.42918411
0.9057368 0.61164099 0.38474882
0.92899144 0.61427808 0.34434745
0.94317967 0.61400223 0.30106217
0.89519209 0.61224616 0.40896541
0.91536057 0.61196691 0.3645677
0.93660069 0.61562914 0.32322228
0.94576323 0.61338961 0.27899522
0.90883774 0.61353946 0.38972682
0.92496949 0.61331069 0.34340492
0.93915772 0.6130349 0.30011961
0.9503544 0.6147694 0.25692672
0.92044634 0.61487615 0.36852646
0.93457448 0.61365467 0.32222414
0.94173747 0.61142242 0.27803469
0.94993466 0.61316776 0.23489815
0.93106991 0.61519843 0.3483265
0.94218379 0.61500567 0.30109897
0.94632459 0.61180246 0.25594819
0.6246379 0.38777676 0.15888572
0.93865258 0.61456782 0.32616562
0.94877058 0.61537856 0.27897489
0.95193428 0.61316061 0.23486057
0.59823495 0.37019873 0.14105603
0.9502424 0.61592263 0.30396563
0.95940584 0.61870027 0.25882903
0.65680808 0.40856788 0.16366111
0.59193558 0.36549243 0.12608376
0.95580286 0.61431736 0.28082463
0.96296668 0.61710244 0.23572561
0.58613777 0.35929793 0.13808434
0.56655115 0.34789276 0.10923496
0.96641552 0.6166575 0.25966111
0.67185158 0.41549477 0.16450503
0.56275296 0.34169105 0.12119795
0.57835573 0.35606539 0.097157687
0.97195721 0.6150704 0.23552045
0.59915495 0.36425042 0.13793015
0.57255006 0.34787121 0.10912222
0.55804223 0.34239277 0.083285987
0.67481661 0.41150278 0.16337693
0.57978129 0.34962863 0.12102266
0.56123978 0.34018338 0.094189852
0.55378789 0.33964282 0.070311502
0.59608674 0.35629871 0.13584305
0.57450044 0.3449007 0.10703126
0.54994833 0.33247748 0.080257148
0.55956292 0.34485558 0.057293259
-0.02611593 -0.059798401 0.050936799
0.56117874 0.33422059 0.092082426
-0.02611593 -0.059798401 0.050936799
0.55936092 0.34605438 0.046314999
0.57844269 0.33992338 0.10486668
0.56694615 0.3374337 0.079028137
0.56150949 0.34088525 0.055184279
0.55912143 0.34728938 0.033337425
-0.02611593 -0.059798401 0.050936799
0.56066543 0.33270934 0.065055534
0.55626994 0.33712095 0.043210223
0.55988181 0.34852079 0.020341061
0.57084692 0.33149272 0.074846216
0.5583958 0.33097011 0.05106182
0.5590378 0.34034482 0.030212315
0.56866813 0.3567223 0.0073205046
0.57258445 0.33173877 0.060813382
0.56117851 0.33317608 0.039045554
0.56579405 0.34557211 0.016175618
0.59044617 0.37291193 -0.0077995136
-0.02611593 -0.059798401 0.050936799
0.56091243 0.33242947 0.02503228
0.55953604 0.34182948 0.0032206923
0.58020371 0.36816573 -0.019697633
0.56805998 0.3272424 0.033807606
0.56167281 0.33366087 0.012035914
0.55929661 0.34306449 -0.0097568817
0.57595712 0.36741543 -0.032636084
-0.02611593 -0.059798401 0.050936799
0.56642151 0.33689564 -0.0019992404
0.56206441 0.34628838 -0.022754792
-0.02611593 -0.059798401 0.050936799
0.56352079 0.32376391 0.0058201812
0.57215923 0.34214458 -0.017016813
0.58082032 0.36150703 -0.038836118
0.59845495 0.38889006 -0.063679375
0.57825387 0.33299798 -0.010294087
0.57789689 0.34739354 -0.032034375
0.58555812 0.3667596 -0.053834897
-0.02611593 -0.059798401 0.050936799
0.58398759 0.3372471 -0.025329672
0.59063029 0.3566348 -0.048111059
0.5872888 0.37002322 -0.068813324
0.62691516 0.4153966 -0.097744286
0.58869892 0.34051806 -0.041364148
0.60934478 0.37088981 -0.066209719
0.63697559 0.40727162 -0.093078047
0.91110432 0.62787521 -0.18425088
0.61641663 0.36075789 -0.060523476
0.71792674 0.44615513 -0.10389397
0.79339838 0.52064759 -0.1469741
0.90074259 0.62625521 -0.20309256
0.74595904 0.44601846 -0.10242078
0.75753176 0.47649494 -0.13109589
0.88883978 0.59308684 -0.19146577
0.89438784 0.62662041 -0.22197337
0.75858408 0.45636812 -0.12447742
0.76117617 0.48184153 -0.15107417
0.9333216 0.63055211 -0.2266328
0.88900739 0.6300177 -0.24281824
0.76519436 0.46273997 -0.14649338
0.75882471 0.48319221 -0.17001215
0.92692947 0.63095349 -0.24751294
0.21303451 0.12177468 -0.031284131
0.76482385 0.46410155 -0.16646858
0.76046562 0.48754609 -0.18997085
0.21902163 0.11875368 -0.031450931
0.20197159 0.11485153 -0.033202883
0.76843083 0.46948433 -0.18844619
0.22001661 0.11273301 -0.03057817
0.19999669 0.10680581 -0.030310471
-0.02611593 -0.059798401 0.050936799
0.7650609 0.47085667 -0.20836505
0.20496134 0.10280664 -0.031476155
-0.02611593 -0.059798401 0.050936799
0.16397004 0.088901892 -0.027959026
0.21191476 0.10081802 -0.033643045
0.19589114 0.098893888 -0.034378104
0.17193113 0.088909358 -0.030108672
-0.02611593 -0.059798401 0.050936799
0.18791643 0.085852437 -0.030463371
-0.02611593 -0.059798401 0.050936799
-0.02611593 -0.059798401 0.050936799
0.14888519 0.081011355 -0.030820291
-0.02611593 -0.059798401 0.050936799
0.15987836 0.074954815 -0.030135442
0.15582383 0.080040671 -0.033968832
-0.02611593 -0.059798401 0.050936799
0.15786994 0.067945093 -0.029224329
-0.02611593 -0.059798401 0.050936799
-0.02611593 -0.059798401 0.050936799
0.12985635 0.068063676 -0.029697854
-0.02611593 -0.059798401 0.050936799
0.14081989 0.064042963 -0.030976284
0.13678017 0.068110906 -0.033828031
-0.02611593 -0.059798401 0.050936799
0.1407776 0.058062069 -0.032084059
-0.02611593 -0.059798401 0.050936799
-0.02611593 -0.059798401 0.050936799
0.11183514 0.057112046 -0.028558169
-0.02611593 -0.059798401 0.050936799
0.123765 0.054123759 -0.031836696
0.119744 0.058173612 -0.033688776
-0.02611593 -0.059798401 0.050936799
0.12173787 0.047132131 -0.031925242
-0.02611593 -0.059798401 0.050936799
-0.02611593 -0.059798401 0.050936799
0.099809848 0.050156303 -0.028458811
-0.02611593 -0.059798401 0.050936799
0.10574382 0.04317214 -0.030696999
0.10473011 0.049210891 -0.03256942
-0.02611593 -0.059798401 0.050936799
0.10275432 0.036147922 -0.02876744
-0.02611593 -0.059798401 0.050936799
-0.02611593 -0.059798401 0.050936799
0.084810764 0.040175658 -0.026357811
-0.02611593 -0.059798401 0.050936799
0.094707467 0.038230561 -0.031580064
0.092704818 0.042255152 -0.032470062
-0.02611593 -0.059798401 0.050936799
0.089725271 0.028195933 -0.028667312
-0.02611593 -0.059798401 0.050936799
-0.02611593 -0.059798401 0.050936799
0.079751581 0.039248042 -0.029280864
-0.02611593 -0.059798401 0.050936799
0.084670931 0.033285387 -0.032481901
0.083668105 0.037306383 -0.033390705
-0.02611593 -0.059798401 0.050936799
0.080673769 0.024265096 -0.030569591
-0.02611593 -0.059798401 0.050936799
-0.02611593 -0.059798401 0.050936799
0.070733584 0.034281194 -0.029201843
-0.02611593 -0.059798401 0.050936799
0.071679339 0.025297225 -0.030382458
0.074635312 0.033357453 -0.034293331
-0.02611593 -0.059798401 0.050936799
0.068671115 0.018291097 -0.029452555
-0.02611593 -0.059798401 0.050936799
-0.02611593 -0.059798401 0.050936799
0.060749304 0.028281922 -0.027122725
-0.02611593 -0.059798401 0.050936799
0.061676323 0.019316049 -0.029303003
0.065617323 0.028390601 -0.034214307
-0.02611593 -0.059798401 0.050936799
0.061623164 0.015352905 -0.031374402
-0.02611593 -0.059798401 0.050936799
-0.02611593 -0.059798401 0.050936799
0.054719895 0.025322061 -0.0280637
-0.02611593 -0.059798401 0.050936799
0.05267705 0.014331108 -0.028224323
0.058606829 0.02541624 -0.034136832
-0.02611593 -0.059798401 0.050936799
0.048687734 0.007310478 -0.026275963
-0.02611593 -0.059798401 0.050936799
-0.02611593 -0.059798401 0.050936799
0.046724375 0.021333359 -0.026985791
-0.02611593 -0.059798401 0.050936799
0.046670303 0.01235298 -0.028147615
0.05256262 0.023474287 -0.036059443
-0.02611593 -0.059798401 0.050936799
0.044632301 0.0073791007 -0.029199783
-0.02611593 -0.059798401 0.050936799
-0.02611593 -0.059798401 0.050936799
0.039728664 0.01734107 -0.025926661
-0.02611593 -0.059798401 0.050936799
0.039659794 0.0093786176 -0.028070137
0.041630752 0.016424514 -0.030980572
-0.02611593 -0.059798401 0.050936799
0.035666555 0.0013581499 -0.026139796
-0.02611593 -0.059798401 0.050936799
-0.02611593 -0.059798401 0.050936799
0.034703001 0.01537745 -0.026868414
-0.02611593 -0.059798401 0.050936799
0.036604177 0.0094436519 -0.031012751
0.037590116 0.015475217 -0.032922748
-0.02611593 -0.059798401 0.050936799
0.029645 0.00039794552 -0.02704474
-0.02611593 -0.059798401 0.050936799
-0.02611593 -0.059798401 0.050936799
0.028725835 0.011363482 -0.024828419
-0.02611593 -0.059798401 0.050936799
0.030578697 0.0074836127 -0.031935696
0.029613314 0.011468428 -0.03084518
-0.02611593 -0.059798401 0.050936799
0.027574401 0.0014773066 -0.030987784
-0.02611593 -0.059798401 0.050936799
-0.02611593 -0.059798401 0.050936799
0.024689121 0.011414016 -0.026752584
-0.02611593 -0.059798401 0.050936799
0.022635415 0.0024408146 -0.027876824
0.025591396 0.010501042 -0.03178769
-0.02611593 -0.059798401 0.050936799
0.022552669 0.00051351322 -0.0319115
-0.02611593 -0.059798401 0.050936799
-0.02611593 -0.059798401 0.050936799
0.021667017 0.010443041 -0.027713887
-0.02611593 -0.059798401 0.050936799
0.018613493 0.0014734286 -0.028819341
0.021535957 0.010569665 -0.034711517
-0.02611593 -0.059798401 0.050936799
0.014609385 -0.0045292815 -0.027852632
-0.02611593 -0.059798401 0.050936799
-0.02611593 -0.059798401 0.050936799
0.016664006 0.0094611626 -0.027637955
-0.02611593 -0.059798401 0.050936799
0.012640256 -0.0015407043 -0.026761334
0.015577517 0.0065376083 -0.031671856
-0.02611593 -0.059798401 0.050936799
0.0096063744 -0.0055111675 -0.0277767
-0.02611593 -0.059798401 0.050936799
-0.02611593 -0.059798401 0.050936799
0.01070163 0.0044292756 -0.02461632
-0.02611593 -0.059798401 0.050936799
0.008603543 -0.0014901706 -0.028685492
0.011559525 0.0065700533 -0.032596361
-0.02611593 -0.059798401 0.050936799
0.0065694777 -0.0054642227 -0.029719647
-0.02611593 -0.059798401 0.050936799
-0.02611593 -0.059798401 0.050936799
0.0076647373 0.0044762203 -0.026559275
-0.02611593 -0.059798401 0.050936799
0.0036153249 -0.0034899763 -0.027627915
0.0075376071 0.0056026746 -0.033538885
-0.02611593 -0.059798401 0.050936799
-0.02611593 -0.059798401 0.050936799
-0.02611593 -0.059798401 0.050936799
-0.02611593 -0.059798401 0.050936799
0.0046504918 0.0055049071 -0.027484544
-0.02611593 -0.059798401 0.050936799
-0.02611593 -0.059798401 0.050936799
0.0025493884 0.0036028689 -0.032481298
-0.02611593 -0.059798401 0.050936799
-0.02611593 -0.059798401 0.050936799
-0.02611593 -0.059798401 0.050936799
-0.02611593 -0.059798401 0.050936799
0.00063250063 0.0055373516 -0.028409038
-0.02611593 -0.059798401 0.050936799
-0.02611593 -0.059798401 0.050936799
-0.00048750592 0.0036498138 -0.034424253
-0.02611593 -0.059798401 0.050936799
-0.02611593 -0.059798401 0.050936799
-0.02611593 -0.059798401 0.050936799
-0.02611593 -0.059798401 0.050936799
-0.0023896014 0.004566377 -0.029370345
-0.02611593 -0.059798401 0.050936799
-0.0074536256 -0.0023783075 -0.031401839
-0.0054570036 0.0016319188 -0.032367013
-0.02611593 -0.059798401 0.050936799
-0.02611593 -0.059798401 0.050936799
-0.02611593 -0.059798401 0.050936799
-0.02611593 -0.059798401 0.050936799
-0.02611593 -0.059798401 0.050936799
-0.02611593 -0.059798401 0.050936799
-0.02611593 -0.059798401 0.050936799
-0.0094562722 0.0016462745 -0.032291852
-0.02611593 -0.059798401 0.050936799
-0.02611593 -0.059798401 0.050936799
-0.02611593 -0.059798401 0.050936799
-0.02611593 -0.059798401 0.050936799
-0.0094070435 0.0046095885 -0.030238479
-0.02611593 -0.059798401 0.050936799
-0.02611593 -0.059798401 0.050936799
-0.013474262 0.0016787192 -0.033216357
-0.02611593 -0.059798401 0.050936799
-0.02611593 -0.059798401 0.050936799
-0.02611593 -0.059798401 0.050936799
-0.02611593 -0.059798401 0.050936799
-0.02611593 -0.059798401 0.050936799
-0.02611593 -0.059798401 0.050936799
-0.02611593 -0.059798401 0.050936799
-0.016492436 0.0017075751 -0.034159645
-0.02611593 -0.059798401 0.050936799
-0.02611593 -0.059798401 0.050936799
-0.02611593 -0.059798401 0.050936799
-0.02611593 -0.059798401 0.050936799
-0.02611593 -0.059798401 0.050936799
-0.02611593 -0.059798401 0.050936799
-0.02611593 -0.059798401 0.050936799
-0.020491704 0.0017219307 -0.03408448
-0.02611593 -0.059798401 0.050936799
-0.02611593 -0.059798401 0.050936799
-0.02611593 -0.059798401 0.050936799
-0.02611593 -0.059798401 0.050936799
-0.02611593 -0.059798401 0.050936799
-0.02611593 -0.059798401 0.050936799
-0.02611593 -0.059798401 0.050936799
-0.024490973 0.0017362863 -0.034009319
-0.02611593 -0.059798401 0.050936799
-0.02611593 -0.059798401 0.050936799
-0.02611593 -0.059798401 0.050936799
-0.02611593 -0.059798401 0.050936799
-0.02611593 -0.059798401 0.050936799
-0.02611593 -0.059798401 0.050936799
-0.02611593 -0.059798401 0.050936799
-0.02752394 0.0027830619 -0.035934247
-0.02611593 -0.059798401 0.050936799
-0.02611593 -0.059798401 0.050936799
-0.02611593 -0.059798401 0.050936799
-0.02611593 -0.059798401 0.050936799
-0.02611593 -0.059798401 0.050936799
-0.02611593 -0.059798401 0.050936799
-0.02611593 -0.059798401 0.050936799
-0.031523209 0.0027974173 -0.035859086
-0.02611593 -0.059798401 0.050936799
-0.02611593 -0.059798401 0.050936799
-0.02611593 -0.059798401 0.050936799
-0.02611593 -0.059798401 0.050936799
-0.02611593 -0.059798401 0.050936799
-0.02611593 -0.059798401 0.050936799
-0.02611593 -0.059798401 0.050936799
-0.034489144 0.0017721755 -0.033821415
-0.02611593 -0.059798401 0.050936799
-0.02611593 -0.059798401 0.050936799
-0.02611593 -0.059798401 0.050936799
-0.02611593 -0.059798401 0.050936799
-0.033462744 0.0037501589 -0.032804508
-0.02611593 -0.059798401 0.050936799
-0.02611593 -0.059798401 0.050936799
-0.038503207 0.0028044507 -0.03472789
-0.02611593 -0.059798401 0.050936799
-0.02611593 -0.059798401 0.050936799
-0.02611593 -0.059798401 0.050936799
-0.02611593 -0.059798401 0.050936799
-0.02611593 -0.059798401 0.050936799
-0.02611593 -0.059798401 0.050936799
-0.045484114 -0.0022057507 -0.032687131
-0.042468954 0.0017827977 -0.032671429
-0.02611593 -0.059798401 0.050936799
-0.02611593 -0.059798401 0.050936799
-0.02611593 -0.059798401 0.050936799
-0.02611593 -0.059798401 0.050936799
-0.02611593 -0.059798401 0.050936799
-0.02611593 -0.059798401 0.050936799
-0.048464846 -0.002213073 -0.031631093
-0.046483018 0.0028150731 -0.033577908
-0.02611593 -0.059798401 0.050936799
-0.02611593 -0.059798401 0.050936799
-0.02611593 -0.059798401 0.050936799
-0.02611593 -0.059798401 0.050936799
-0.02611593 -0.059798401 0.050936799
-0.02611593 -0.059798401 0.050936799
-0.02611593 -0.059798401 0.050936799
-0.02611593 -0.059798401 0.050936799
-0.02611593 -0.059798401 0.050936799
-0.02611593 -0.059798401 0.050936799
-0.02611593 -0.059798401 0.050936799
-0.02611593 -0.059798401 0.050936799
-0.02611593 -0.059798401 0.050936799
-0.02611593 -0.059798401 0.050936799
-0.02611593 -0.059798401 0.050936799
-0.053429496 0.0017860977 -0.030465402
-0.02611593 -0.059798401 0.050936799
-0.062443558 -0.0021809172 -0.030368358
-0.02611593 -0.059798401 0.050936799
-0.02611593 -0.059798401 0.050936799
-0.051388491 0.0027425722 -0.028485645
-0.02611593 -0.059798401 0.050936799
-0.059369221 -0.0022640401 -0.026426092
-0.058458172 0.0038398816 -0.032334745
-0.02611593 -0.059798401 0.050936799
-0.066424109 -0.0021846504 -0.029293545
-0.02611593 -0.059798401 0.050936799
-0.02611593 -0.059798401 0.050936799
-0.055383831 0.0037567588 -0.028392464
-0.02611593 -0.059798401 0.050936799
-0.064397901 -0.00021026377 -0.028295424
-0.064501457 0.006915167 -0.035166923
-0.02611593 -0.059798401 0.050936799
-0.070385933 -0.0022064731 -0.027219057
-0.02611593 -0.059798401 0.050936799
-0.02611593 -0.059798401 0.050936799
-0.059364378 0.0037530253 -0.027317639
-0.02611593 -0.059798401 0.050936799
-0.068359718 -0.00023208617 -0.026220944
-0.069492683 0.0089327805 -0.035036933
-0.02611593 -0.059798401 0.050936799
-0.073347934 -0.0022318847 -0.025163367
-0.02611593 -0.059798401 0.050936799
-0.02611593 -0.059798401 0.050936799
-0.063374512 0.0057851314 -0.028206103
-0.02611593 -0.059798401 0.050936799
-0.07438428 0.0028251174 -0.028053463
-0.072458625 0.0079075377 -0.032999262
-0.02611593 -0.059798401 0.050936799
-0.07935378 0.00080722634 -0.025996231
-0.02611593 -0.059798401 0.050936799
-0.02611593 -0.059798401 0.050936799
-0.066306926 0.0037238807 -0.024187122
-0.02611593 -0.059798401 0.050936799
-0.078379624 0.0038393037 -0.027960282
-0.076416515 0.0088855466 -0.030906755
-0.02611593 -0.059798401 0.050936799
-0.085359618 0.0038463371 -0.026829086
-0.02611593 -0.059798401 0.050936799
-0.02611593 -0.059798401 0.050936799
-0.070320994 0.0047561559 -0.025093611
-0.02611593 -0.059798401 0.050936799
-0.082303993 0.0037813033 -0.023886472
-0.080363549 0.0078458041 -0.027850624
-0.02611593 -0.059798401 0.050936799
-0.088302903 0.0038028369 -0.02377373
-0.02611593 -0.059798401 0.050936799
-0.02611593 -0.059798401 0.050936799
-0.075330943 0.0067918436 -0.02596328
-0.02611593 -0.059798401 0.050936799
-0.090376519 0.0088996133 -0.028644368
-0.088436052 0.012964107 -0.03260852
-0.02611593 -0.059798401 0.050936799
-0.09733779 0.0088885576 -0.026513509
-0.02611593 -0.059798401 0.050936799
-0.02611593 -0.059798401 0.050936799
-0.080322176 0.0088094566 -0.025833286
-0.02611593 -0.059798401 0.050936799
-0.094319612 0.0088597015 -0.025570221
-0.095437787 0.017006641 -0.033404574
-0.02611593 -0.059798401 0.050936799
-0.10635788 0.012956351 -0.028271645
-0.02611593 -0.059798401 0.050936799
-0.02611593 -0.059798401 0.050936799
-0.084265269 0.0087695457 -0.02275914
-0.02611593 -0.059798401 0.050936799
-0.10132135 0.012902228 -0.026366271
-0.10041422 0.018006319 -0.03229294
-0.02611593 -0.059798401 0.050936799
-0.11029705 0.01391627 -0.025179479
-0.02611593 -0.059798401 0.050936799
-0.02611593 -0.059798401 0.050936799
-0.087231204 0.007744303 -0.020721469
-0.02611593 -0.059798401 0.050936799
-0.10930417 0.016930263 -0.026143875
-0.10638656 0.020009432 -0.031144504
-0.02611593 -0.059798401 0.050936799
-0.11827987 0.017944297 -0.024957083
-0.02611593 -0.059798401 0.050936799
-0.02611593 -0.059798401 0.050936799
-0.097276777 0.014851356 -0.024406083
-0.02611593 -0.059798401 0.050936799
-0.11527649 0.018933369 -0.024995435
-0.11333998 0.021998029 -0.028977599
-0.02611593 -0.059798401 0.050936799
-0.12624398 0.021954242 -0.023735024
-0.02611593 -0.059798401 0.050936799
-0.02611593 -0.059798401 0.050936799
-0.10631166 0.019937076 -0.027145851
-0.02611593 -0.059798401 0.050936799
-0.12325932 0.022961395 -0.024773035
-0.12134151 0.026044155 -0.02975487
-0.02611593 -0.059798401 0.050936799
-0.1352227 0.026985696 -0.023475818
-0.02611593 -0.059798401 0.050936799
-0.02611593 -0.059798401 0.050936799
-0.11226526 0.021922087 -0.024997752
-0.02611593 -0.059798401 0.050936799
-0.13829613 0.032086059 -0.028327651
-0.12930562 0.030054092 -0.028532803
-0.02611593 -0.059798401 0.050936799
-0.14721172 0.034045659 -0.024123859
-0.02611593 -0.059798401 0.050936799
-0.02611593 -0.059798401 0.050936799
-0.12025201 0.02495029 -0.024793375
-0.02611593 -0.059798401 0.050936799
-0.14825591 0.037103005 -0.02705
-0.1352405 0.032021027 -0.025385045
-0.02611593 -0.059798401 0.050936799
-0.16119646 0.042112641 -0.024716306
-0.02611593 -0.059798401 0.050936799
-0.02611593 -0.059798401 0.050936799
-0.12822005 0.027960403 -0.023589332
-0.02611593 -0.059798401 0.050936799
-0.16022624 0.04414488 -0.026698384
-0.152273 0.042152695 -0.028884064
-0.02611593 -0.059798401 0.050936799
-0.17514376 0.050143432 -0.023309432
-0.02611593 -0.059798401 0.050936799
-0.02611593 -0.059798401 0.050936799
-0.13921319 0.034016948 -0.024274185
-0.02611593 -0.059798401 0.050936799
-0.17620668 0.053218868 -0.027235221
-0.16221802 0.04615172 -0.026624769
-0.02611593 -0.059798401 0.050936799
-0.20015123 0.066302776 -0.02655001
-0.02611593 -0.059798401 0.050936799
-0.02611593 -0.059798401 0.050936799
-0.1511835 0.041058823 -0.02392257
-0.02611593 -0.059798401 0.050936799
-0.19013526 0.061231572 -0.024828687
-0.18221948 0.059275556 -0.029013701
-0.02611593 -0.059798401 0.050936799
-0.21406502 0.073297568 -0.023161832
-0.02611593 -0.059798401 0.050936799
-0.02611593 -0.059798401 0.050936799
-0.1691971 0.051175989 -0.02640314
-0.02611593 -0.059798401 0.050936799
-0.21010318 0.07331939 -0.02523632
-0.19816639 0.06731353 -0.027569238
-0.02611593 -0.059798401 0.050936799
-0.23899759 0.089384571 -0.022403773
-0.02611593 -0.059798401 0.050936799
-0.02611593 -0.059798401 0.050936799
-0.18414421 0.059210379 -0.024977464
-0.02611593 -0.059798401 0.050936799
-0.2360395 0.088410154 -0.024477489
-0.21509047 0.076336838 -0.025088314
-0.02611593 -0.059798401 0.050936799
-1.0564804 0.65186405 -0.25400215
-0.02611593 -0.059798401 0.050936799
-0.02611593 -0.059798401 0.050936799
-0.20511588 0.070301965 -0.025384329
-1.0660548 0.65450144 -0.23176762
-0.26596332 0.10651476 -0.023589443
-0.24303733 0.093452506 -0.025255516
-0.02611593 -0.059798401 0.050936799
-1.0676169 0.65107501 -0.20779225
-1.0543162 0.65069419 -0.24506079
-0.02611593 -0.059798401 0.050936799
-0.231067 0.086410634 -0.025607131
-1.0781833 0.6557157 -0.18550289
-1.066905 0.65436035 -0.22375154
-0.02611593 -0.059798401 0.050936799
-0.02611593 -0.059798401 0.050936799
-1.07675 0.65127861 -0.1616019
-1.0784789 0.65700495 -0.20147945
-1.0732212 0.65970653 -0.24154258
-0.26399028 0.10452601 -0.024662711
-1.0873203 0.65491951 -0.1393306
-1.0830514 0.65560704 -0.17841133
-1.0747724 0.65426242 -0.21660358
-0.02611593 -0.059798401 0.050936799
-1.0828874 0.65047163 -0.11548595
-1.0876051 0.65419096 -0.15434352
-1.0863317 0.65588909 -0.19334987
-1.0840999 0.65662003 -0.23439234
-1.0844415 0.64904487 -0.091474526
-1.0951651 0.65580326 -0.13116495
-1.0948955 0.65650517 -0.17017055
-1.0956632 0.65724683 -0.21115661
-1.0920166 0.65167511 -0.069277585
-1.0987377 0.65440178 -0.1081156
-1.1054549 0.65812826 -0.14693558
-1.1092182 0.65988058 -0.18784732
-1.0895754 0.64923412 -0.045359343
-1.1022877 0.65398198 -0.084048569
-1.1089941 0.65569073 -0.12190493
-1.1127465 0.65542525 -0.16185303
-1.0951507 0.6518572 -0.023200005
-1.1058415 0.65256238 -0.059999555
-1.1085457 0.65023935 -0.097003482
-1.119285 0.65299851 -0.136766
-1.0917137 0.64841276 0.000681445
-1.106396 0.65113199 -0.036006913
-1.1130806 0.64880526 -0.071936041
-1.1368313 0.65764612 -0.11334547
-1.0922828 0.6480003 0.023692429
-1.1059544 0.64869815 -0.012051091
-1.1216366 0.65142095 -0.048720658
-1.1413515 0.6551941 -0.087296367
-1.0928481 0.6485877 0.046721444
-1.1065127 0.64626795 0.011923529
-1.1241758 0.64897984 -0.023708798
-1.1428612 0.65071356 -0.060340002
-1.0944132 0.64917868 0.069769256
-1.1170527 0.65289026 0.035248559
-1.1277071 0.64854199 0.0013579056
-1.1473776 0.64926142 -0.034272887
-1.0880141 0.6457597 0.091594994
-1.1165924 0.65043837 0.060204044
-1.1352296 0.65011817 0.026535783
-1.1588954 0.65185165 -0.0090018138
-1.0875983 0.64636153 0.11360556
-1.1121556 0.64699036 0.084066696
-1.1347694 0.64766628 0.051491275
-1.1594017 0.6483674 0.017953768
-1.0831761 0.64393145 0.13648656
-1.111725 0.64657432 0.1070589
-1.1342903 0.64519626 0.077446416
-1.1638951 0.64789695 0.04503857
-1.0797461 0.64350462 0.1594224
-1.1092837 0.64413327 0.13097715
-1.1388324 0.64677978 0.10156828
-1.1704031 0.64845157 0.071179308
-1.0753388 0.64209253 0.18132176
-1.1088344 0.64369917 0.15496901
-1.1383684 0.64532775 0.12654179
-1.1719199 0.64698863 0.097190067
-1.0699358 0.63967699 0.20318431
-1.1083813 0.64426488 0.17897889
-1.1348938 0.64184713 0.15242255
-1.1743991 0.64549309 0.12521893
-1.0704931 0.64226401 0.22624937
-1.1019447 0.64080971 0.20280397
-1.1374025 0.64238745 0.17848814
-1.1768929 0.64501548 0.15226614
-1.066082 0.64185166 0.24816674
-1.1034871 0.64238244 0.22686946
-1.1389114 0.64292407 0.20453492
-1.1763726 0.64350909 0.18023863
-1.0656396 0.64443511 0.271213
-1.0990424 0.64093411 0.25076813
-1.1374434 0.64246827 0.22950765
-1.1818396 0.64502376 0.20837793
-1.057241 0.64100891 0.29300117
-1.0945939 0.64048564 0.27468485
-1.1369528 0.6429978 0.25551686
-1.1773276 0.64150345 0.23623922
-1.0488571 0.63860071 0.3138077
-1.0881722 0.63804841 0.29752827
-1.1334743 0.64051706 0.28141564
-1.1768261 0.64001524 0.26321205
-1.0404693 0.63719237 0.33463222
-1.0867151 0.63961029 0.32153738
-1.1289883 0.64003235 0.30733168
