# .PCD v0.7 - Point Cloud Data file format
VERSION 0.7
FIELDS x y z
SIZE 4 4 4
TYPE F F F
COUNT 1 1 1
WIDTH 1399
HEIGHT 1
VIEWPOINT 0 0 0 1 0 0 0
POINTS 1399
DATA ascii
0.13443233 0.60433477 1.0692894
0.18651979 0.60108477 1.1272752
0.057289947 0.6107015 0.95481026
0.10725364 0.60456777 1.0067815
0.15728529 0.60137933 1.0618056
0.21258691 0.60493654 1.1298577
0.076305188 0.61061519 0.95545292
0.12820843 0.6035288 1.0043695
0.18135278 0.60523832 1.0644258
0.23846589 0.60395199 1.1233532
0.09626016 0.6095798 0.95305973
0.14914449 0.60250789 1.0009578
0.20531093 0.60518831 1.0619755
0.26337162 0.60495245 1.117903
0.11622992 0.60752654 0.95164824
0.17109908 0.60146528 0.99852723
0.22714534 0.60225451 1.0535108
0.28610045 0.59910613 1.1043673
0.13518506 0.60649467 0.94927388
0.19310291 0.60338598 0.99814987
0.25108871 0.60322249 1.0500787
0.31101012 0.60110646 1.0989354
0.15622652 0.60838276 0.95091462
0.21406162 0.60334671 0.99575585
0.27292311 0.60028881 1.0416142
0.33587056 0.60014355 1.0914497
0.17515902 0.60636914 0.94752264
0.23493761 0.60138029 0.98932725
0.2958706 0.60226011 1.038219
0.35969767 0.6002202 1.0820019
0.19614038 0.60731179 0.94614637
0.25690004 0.6023373 0.98693264
0.31766757 0.59936261 1.0277549
0.3845847 0.60123885 1.0755521
0.21614066 0.60823983 0.94578862
0.28097147 0.60719609 0.98957074
0.34265995 0.6032902 1.0263577
0.40630281 0.59741384 1.0610715
0.2349904 0.60429889 0.93836182
0.30076486 0.60330588 0.97912621
0.36452097 0.60233814 1.0189285
0.4238562 0.58974856 1.0385965
0.25703955 0.60818309 0.94001985
0.32060355 0.60137922 0.97071707
0.38632578 0.60144025 1.0085005
0.45502874 0.60150856 1.0452279
0.27587053 0.60426027 0.93159342
0.34148344 0.60041249 0.96430647
0.41023564 0.60344416 1.0030873
0.47884104 0.60260314 1.0347983
0.29681447 0.60523897 0.92821783
0.36547607 0.60434371 0.96292794
0.43104064 0.60254985 0.99267805
0.49958599 0.60076332 1.0213721
0.31569085 0.60327971 0.9218269
0.38634115 0.60439497 0.95553571
0.45078179 0.59971374 0.97925258
0.52129328 0.59895605 1.0059277
0.33767593 0.60521847 0.92044985
0.40616503 0.60348618 0.94614494
0.47674051 0.60467392 0.97585511
0.54308718 0.60007596 0.99453604
0.35964233 0.60717541 0.91807318
0.42594367 0.60061389 0.93471879
0.49650437 0.6028195 0.96344739
0.56690341 0.60217035 0.98412454
0.38056755 0.60817224 0.9136979
0.44683141 0.60164696 0.92834425
0.5162307 0.60100132 0.94904023
0.58554727 0.59842843 0.96570152
0.39836517 0.60528898 0.90330905
0.47078657 0.60561436 0.92496634
0.5380621 0.60208499 0.93964797
0.60628128 0.59860629 0.95131171
0.41823047 0.60534382 0.89593565
0.49161422 0.6057018 0.91557479
0.55779237 0.60126662 0.92525882
0.62600076 0.59980571 0.93595898
0.44015944 0.60733694 0.8915596
0.50935972 0.60387266 0.90220493
0.577564 0.60141194 0.91288704
0.646716 0.60000163 0.92056948
0.45893821 0.60446817 0.88015223
0.53225493 0.60689825 0.89582884
0.59833556 0.60155368 0.90049654
0.66747272 0.6011613 0.9071973
0.47880349 0.60452306 0.87277883
0.54997778 0.60408735 0.8814413
0.61602485 0.59977883 0.88412774
0.68615091 0.60140061 0.88984603
0.4996725 0.60557407 0.86540461
0.5707866 0.60419285 0.87105012
0.63682288 0.60190207 0.87277287
0.70482528 0.60064012 0.87247676
0.51843649 0.60372335 0.8530156
0.59058094 0.60531986 0.85969609
0.65553856 0.6021052 0.85742086
0.7255711 0.6038174 0.85814095
0.53826433 0.60381436 0.84364283
0.60830772 0.60350889 0.84532654
0.67222804 0.60033399 0.84107083
0.74324942 0.60406041 0.84080851
0.55809605 0.60490525 0.83428818
0.62499726 0.60173762 0.82897645
0.69605607 0.60542786 0.83071339
0.75786442 0.60236865 0.82049733
0.57788259 0.60403264 0.82289803
0.64683253 0.60382116 0.81960213
0.71273071 0.60467452 0.81338167
0.7765466 0.60360783 0.80316412
0.59771436 0.6051234 0.81354326
0.66352588 0.60304976 0.8032701
0.72736049 0.60196489 0.79405224
0.78912061 0.60095966 0.78087324
0.61646348 0.60429054 0.80017263
0.68125659 0.60223854 0.78891861
0.74608004 0.60316795 0.77871829
0.80476189 0.60124588 0.76157904
0.63829887 0.60637408 0.79079831
0.7030623 0.60635787 0.77758104
0.76378113 0.60439253 0.76240349
0.81938076 0.60055399 0.74128592
0.65500706 0.60458475 0.77544796
0.72077817 0.60656458 0.76224786
0.7804637 0.60563886 0.74510789
0.83400363 0.60086197 0.72101092
0.67275643 0.60375547 0.76209617
0.73749036 0.60577506 0.74691552
0.79409754 0.60393268 0.72581518
0.84864908 0.60215169 0.70175344
0.68944591 0.60198426 0.74574608
0.75416887 0.60602158 0.7296018
0.8107574 0.60419732 0.70750183
0.86227202 0.60246325 0.68149716
0.70922548 0.6041292 0.73341036
0.76983982 0.60427207 0.71227086
0.82539892 0.60448718 0.6882264
0.87385398 0.6018182 0.65926105
0.72797859 0.60429615 0.72005773
0.78756356 0.60647845 0.6969738
0.8441264 0.60768974 0.67292857
0.89256662 0.60603881 0.64298159
0.74569446 0.60450292 0.70472461
0.80321968 0.60574681 0.67866123
0.85367829 0.60407054 0.64967632
0.90210766 0.60443741 0.61876583
0.76239175 0.60473132 0.68841058
0.81887972 0.60601497 0.66036665
0.86630142 0.60438573 0.62943888
0.91471595 0.60577047 0.59754664
0.7811113 0.60593426 0.67307663
0.83455855 0.60626507 0.64307177
0.88194662 0.60567182 0.61016268
0.92229474 0.60414004 0.57536769
0.79576379 0.60420638 0.65476489
0.84920007 0.60655493 0.6237964
0.89254767 0.60501236 0.58894509
0.92983615 0.6025458 0.55118948
0.81550586 0.6063875 0.64042979
0.86284178 0.60684836 0.60453975
0.90417099 0.60533106 0.56872636
0.94851923 0.6088022 0.53294671
0.82913971 0.60468125 0.62113714
0.87952822 0.6090945 0.58726209
0.92084265 0.60859519 0.55046707
0.9571017 0.60816801 0.51076704
0.84684473 0.60690582 0.6048404
0.89314729 0.60840625 0.56698787
0.92838007 0.60600108 0.52627087
0.96566939 0.6085518 0.48760569
0.86553079 0.60914475 0.58752519
0.90679294 0.60969949 0.54774916
0.94505954 0.61126482 0.50804758
0.97223359 0.60794294 0.46446395
0.8781274 0.60747832 0.56625193
0.91939741 0.61003268 0.52651203
0.95566434 0.61160523 0.48684803
0.98385394 0.612279 0.44331765
0.8968361 0.61069906 0.54995441
0.93200183 0.61036587 0.50527489
0.96322829 0.61099267 0.46368745
0.99244034 0.61264467 0.42115602
0.90741038 0.60805809 0.52770114
0.94260269 0.60970652 0.48405728
0.97381443 0.61135119 0.44148821
1.0000123 0.61403185 0.39803147
0.92405552 0.60934055 0.50840616
0.95723337 0.61201411 0.46381822
0.98340464 0.6127131 0.4193258
1.004558 0.61344814 0.37392765
0.94170833 0.61261916 0.48912841
0.96681565 0.61137635 0.44161975
0.99096864 0.6121006 0.39616525
1.0061005 0.61187547 0.34986216
0.95733875 0.61492318 0.46887058
0.97942799 0.61370927 0.42041862
0.99551439 0.61151695 0.37206143
1.0126725 0.61326617 0.32675645
0.96689451 0.61230385 0.44563642
0.98696929 0.61211497 0.39624041
1.0071268 0.61385345 0.3508791
1.0212708 0.61663145 0.30464885
0.9784804 0.61265874 0.4234184
0.99958163 0.61444789 0.37503928
1.0177248 0.6172114 0.32873389
1.0197872 0.61308789 0.27960402
0.99711835 0.61695158 0.40314019
1.0091531 0.61582786 0.35187718
1.0212708 0.61663145 0.30464885
1.0243596 0.6144858 0.25653589
1.0036598 0.61536103 0.37898079
1.0177208 0.61621159 0.32871586
1.0228134 0.61505866 0.28058338
1.0309582 0.61785817 0.23446587
1.0142231 0.61473775 0.35576385
1.0252887 0.61659896 0.30557334
1.0323925 0.6184383 0.25745732
1.0294822 0.61631429 0.20945708
1.023772 0.61513603 0.3315841
1.0278085 0.61404085 0.28047138
1.0349348 0.61686206 0.23337303
0.62606645 0.357209 0.1342977
1.0353431 0.61650884 0.30838439
1.0363839 0.61642432 0.25734609
1.0224109 0.60737717 0.20742714
0.63081509 0.36044377 0.12026255
1.0478992 0.61889589 0.28418431
1.0429332 0.61683339 0.23322271
0.63607633 0.3601726 0.13416384
0.59639406 0.3378953 0.10249309
1.0534221 0.61732697 0.25904399
1.0474603 0.6162678 0.20811921
0.59662569 0.33466065 0.11543463
0.60417277 0.34410074 0.089455292
1.0649786 0.61971766 0.23486269
0.71841443 0.40670747 0.14246684
0.59736335 0.33491033 0.10142058
0.5828408 0.33044985 0.074602716
1.0624498 0.61421424 0.20780131
0.62469035 0.34753987 0.11614241
0.5950712 0.33218935 0.086409196
0.60667455 0.34657803 0.062444106
0.95947117 0.54729736 0.16950589
0.61235756 0.33887389 0.10021114
-0.02611593 -0.059798401 0.050936799
0.57935059 0.32993105 0.048649877
0.63263571 0.34354803 0.11392069
0.59801733 0.32821542 0.08428143
0.57650697 0.32176229 0.058558714
-0.02611593 -0.059798401 0.050936799
0.61928052 0.33390391 0.096990533
0.5937255 0.32550165 0.069307625
0.57627839 0.32097954 0.04654476
0.56886464 0.32542002 0.023756165
0.64406878 0.34806505 0.082777776
0.59045219 0.32276613 0.055314682
0.58704561 0.32919198 0.03248696
0.57562494 0.33164716 0.0097374842
0.60866266 0.32450226 0.066008762
0.58719754 0.3200126 0.042321406
0.57377321 0.32147512 0.019591492
0.60542107 0.35280722 -0.0054427572
0.61038542 0.32576624 0.050994284
0.58793521 0.32026222 0.028307362
0.57651842 0.32371727 0.0055759028
0.5811606 0.33809489 -0.016258333
0.61111909 0.32501605 0.036962219
0.59066564 0.3235223 0.013310127
0.58527821 0.32993719 -0.0084803514
0.59690523 0.35032487 -0.032337338
0.59680152 0.31533933 0.022050185
0.59940279 0.32876047 -0.0017638132
0.58803129 0.33417901 -0.022459902
0.60765773 0.35955516 -0.047376782
0.61253834 0.32556963 0.0059351437
0.60313302 0.33201697 -0.016779836
0.59677625 0.34141684 -0.037497807
0.5934121 0.35382354 -0.059217758
0.60924637 0.32285225 -0.0090574548
0.60987043 0.33726233 -0.031816199
0.60949087 0.35067618 -0.054574162
0.63011819 0.38106602 -0.080419406
0.63095635 0.3360967 -0.027230501
0.63356936 0.35251731 -0.050990459
0.69213402 0.40691143 -0.085114576
0.75765795 0.47035122 -0.1232067
0.70365173 0.38127926 -0.052782912
0.75018722 0.4277178 -0.086825699
0.75773704 0.45220959 -0.11553374
0.76032132 0.47568336 -0.14216654
0.75127 0.41057235 -0.079153508
0.7518428 0.43105379 -0.10580277
0.76039642 0.45654181 -0.13451162
0.76100373 0.48100445 -0.16008915
0.74492234 0.40792003 -0.097088724
0.75548339 0.43540058 -0.12579909
0.76504457 0.46288469 -0.15449066
0.76565582 0.48834708 -0.18005019
0.75653958 0.41627359 -0.11916261
0.75912392 0.4397473 -0.1457954
0.7667082 0.46822029 -0.17343171
0.76731938 0.49368274 -0.19899124
0.76416856 0.42262369 -0.14019769
0.76276839 0.44509387 -0.16577369
0.76734924 0.47257781 -0.19337165
0.21003231 0.10673374 -0.028499056
0.76679057 0.42699212 -0.16117489
0.76738298 0.45247266 -0.18773407
0.76502442 0.47591004 -0.21127391
0.20394675 0.10382815 -0.032439016
0.76938987 0.43037882 -0.18316974
0.77100879 0.45783734 -0.20871204
-0.02611593 -0.059798401 0.050936799
-0.02611593 -0.059798401 0.050936799
0.76802737 0.43374369 -0.2030901
0.21191385 0.095800795 -0.032733485
0.19289769 0.090869837 -0.032466561
0.17688884 0.087927759 -0.032219965
0.21589349 0.090787292 -0.032898743
0.19986983 0.088863134 -0.033633783
-0.02611593 -0.059798401 0.050936799
-0.02611593 -0.059798401 0.050936799
0.18989548 0.07582888 -0.029681478
-0.02611593 -0.059798401 0.050936799
0.16385496 0.07395871 -0.031228282
0.15383805 0.074012689 -0.032040045
-0.02611593 -0.059798401 0.050936799
0.1638314 0.067959741 -0.031336389
-0.02611593 -0.059798401 0.050936799
-0.02611593 -0.059798401 0.050936799
0.16581139 0.062953405 -0.031464063
-0.02611593 -0.059798401 0.050936799
0.14281166 0.062036116 -0.0310499
0.13578334 0.064097084 -0.032881651
-0.02611593 -0.059798401 0.050936799
0.14377312 0.057051465 -0.032158449
-0.02611593 -0.059798401 0.050936799
-0.02611593 -0.059798401 0.050936799
0.14276452 0.050038155 -0.031266123
-0.02611593 -0.059798401 0.050936799
0.12676053 0.05311317 -0.031911083
0.12075076 0.055152446 -0.032761957
-0.02611593 -0.059798401 0.050936799
0.12573715 0.047117773 -0.032000404
-0.02611593 -0.059798401 0.050936799
-0.02611593 -0.059798401 0.050936799
0.12471374 0.041122384 -0.032089725
-0.02611593 -0.059798401 0.050936799
0.10874327 0.043161374 -0.030753374
0.10375202 0.04517898 -0.030623384
-0.02611593 -0.059798401 0.050936799
0.11168955 0.039187465 -0.032881141
-0.02611593 -0.059798401 0.050936799
-0.02611593 -0.059798401 0.050936799
0.10471166 0.030159857 -0.029912792
-0.02611593 -0.059798401 0.050936799
0.097702987 0.037219964 -0.031654455
0.093715496 0.040233806 -0.031525239
-0.02611593 -0.059798401 0.050936799
0.098664448 0.032235309 -0.032762989
-0.02611593 -0.059798401 0.050936799
-0.02611593 -0.059798401 0.050936799
0.091686547 0.023207698 -0.029794645
-0.02611593 -0.059798401 0.050936799
0.086681433 0.031260468 -0.031555869
0.082712665 0.034256216 -0.030426987
-0.02611593 -0.059798401 0.050936799
0.085661978 0.0262649 -0.031627171
-0.02611593 -0.059798401 0.050936799
-0.02611593 -0.059798401 0.050936799
0.082653753 0.019258771 -0.030697264
-0.02611593 -0.059798401 0.050936799
0.076663628 0.0262972 -0.031458057
0.071709849 0.028278621 -0.029328741
-0.02611593 -0.059798401 0.050936799
0.073655404 0.019291073 -0.03052815
-0.02611593 -0.059798401 0.050936799
-0.02611593 -0.059798401 0.050936799
0.069666095 0.012270435 -0.028579798
-0.02611593 -0.059798401 0.050936799
0.064675771 0.019305283 -0.029359374
0.061706826 0.022297446 -0.028249286
-0.02611593 -0.059798401 0.050936799
0.061671481 0.013298976 -0.028411452
-0.02611593 -0.059798401 0.050936799
-0.02611593 -0.059798401 0.050936799
0.060652029 0.0083034197 -0.028482754
-0.02611593 -0.059798401 0.050936799
0.055680435 0.015320172 -0.028262675
0.057651389 0.022366067 -0.03117311
-0.02611593 -0.059798401 0.050936799
0.05464226 0.010342696 -0.029333636
-0.02611593 -0.059798401 0.050936799
-0.02611593 -0.059798401 0.050936799
0.05065687 0.0043218974 -0.027367268
-0.02611593 -0.059798401 0.050936799
0.05262481 0.015385206 -0.031205289
0.049670666 0.017359449 -0.029113553
-0.02611593 -0.059798401 0.050936799
0.050601613 0.009393407 -0.03127582
-0.02611593 -0.059798401 0.050936799
-0.02611593 -0.059798401 0.050936799
0.044631388 0.0023618585 -0.028290216
-0.02611593 -0.059798401 0.050936799
0.042659249 0.0093678506 -0.028126508
0.04561523 0.01742807 -0.03203737
-0.02611593 -0.059798401 0.050936799
0.040639982 0.0043758755 -0.02817902
-0.02611593 -0.059798401 0.050936799
-0.02611593 -0.059798401 0.050936799
0.036635868 -0.0016268381 -0.027212307
-0.02611593 -0.059798401 0.050936799
0.038618606 0.0084185544 -0.030068681
0.03664948 0.011407128 -0.028977387
-0.02611593 -0.059798401 0.050936799
0.032677967 -0.00064883369 -0.025119804
-0.02611593 -0.059798401 0.050936799
-0.02611593 -0.059798401 0.050936799
0.030629104 -0.0036049662 -0.027135603
-0.02611593 -0.059798401 0.050936799
0.033578154 0.0074728462 -0.031992067
0.03359779 0.012471992 -0.031901974
-0.02611593 -0.059798401 0.050936799
0.028622534 -0.00058021082 -0.028043628
-0.02611593 -0.059798401 0.050936799
-0.02611593 -0.059798401 0.050936799
0.025603445 -0.00556859 -0.028077349
-0.02611593 -0.059798401 0.050936799
0.026619891 0.0034443785 -0.028933629
0.024684278 0.0053969505 -0.025861025
-0.02611593 -0.059798401 0.050936799
0.022615777 -0.0025583315 -0.027966917
-0.02611593 -0.059798401 0.050936799
-0.02611593 -0.059798401 0.050936799
0.020581709 -0.0065323869 -0.029001068
-0.02611593 -0.059798401 0.050936799
0.022597969 0.0024769926 -0.029876143
0.021647379 0.0054438952 -0.02780398
-0.02611593 -0.059798401 0.050936799
0.017646285 -0.0045762262 -0.025909677
-0.02611593 -0.059798401 0.050936799
-0.02611593 -0.059798401 0.050936799
0.015578698 -0.0075142728 -0.028925136
-0.02611593 -0.059798401 0.050936799
0.018561253 0.0025275266 -0.0318003
0.017625464 0.0044765095 -0.028746497
-0.02611593 -0.059798401 0.050936799
0.01360957 -0.0045256927 -0.027833842
-0.02611593 -0.059798401 0.050936799
-0.02611593 -0.059798401 0.050936799
0.0115755 -0.0084997443 -0.028867994
-0.02611593 -0.059798401 0.050936799
0.012588014 -0.00048661022 -0.029742297
0.013588749 0.0045270436 -0.030670661
-0.02611593 -0.059798401 0.050936799
0.0095876511 -0.0054930784 -0.028776359
-0.02611593 -0.059798401 0.050936799
-0.02611593 -0.059798401 0.050936799
-0.02611593 -0.059798401 0.050936799
-0.02611593 -0.059798401 0.050936799
0.0085848207 -0.0014720815 -0.029685151
0.0095855556 0.0035415683 -0.030613516
-0.02611593 -0.059798401 0.050936799
-0.02611593 -0.059798401 0.050936799
-0.02611593 -0.059798401 0.050936799
-0.02611593 -0.059798401 0.050936799
-0.02611593 -0.059798401 0.050936799
-0.02611593 -0.059798401 0.050936799
0.004566831 -0.0014396367 -0.030609656
0.0046121315 0.00052384642 -0.028574295
-0.02611593 -0.059798401 0.050936799
-0.02611593 -0.059798401 0.050936799
-0.02611593 -0.059798401 0.050936799
-0.02611593 -0.059798401 0.050936799
-0.02611593 -0.059798401 0.050936799
-0.02611593 -0.059798401 0.050936799
-0.02611593 -0.059798401 0.050936799
0.0015791595 0.0015706184 -0.030499227
-0.02611593 -0.059798401 0.050936799
-0.02611593 -0.059798401 0.050936799
-0.02611593 -0.059798401 0.050936799
-0.02611593 -0.059798401 0.050936799
-0.02611593 -0.059798401 0.050936799
-0.02611593 -0.059798401 0.050936799
-0.02611593 -0.059798401 0.050936799
-0.0024240338 0.00058514712 -0.030442085
-0.02611593 -0.059798401 0.050936799
-0.02611593 -0.059798401 0.050936799
-0.02611593 -0.059798401 0.050936799
-0.02611593 -0.059798401 0.050936799
-0.02611593 -0.059798401 0.050936799
-0.02611593 -0.059798401 0.050936799
-0.02611593 -0.059798401 0.050936799
-0.0054422072 0.00061400281 -0.031385366
-0.02611593 -0.059798401 0.050936799
-0.02611593 -0.059798401 0.050936799
-0.02611593 -0.059798401 0.050936799
-0.02611593 -0.059798401 0.050936799
-0.02611593 -0.059798401 0.050936799
-0.02611593 -0.059798401 0.050936799
-0.02611593 -0.059798401 0.050936799
-0.0084751789 0.0016607747 -0.033310309
-0.02611593 -0.059798401 0.050936799
-0.02611593 -0.059798401 0.050936799
-0.02611593 -0.059798401 0.050936799
-0.02611593 -0.059798401 0.050936799
-0.02611593 -0.059798401 0.050936799
-0.02611593 -0.059798401 0.050936799
-0.02611593 -0.059798401 0.050936799
-0.013444671 -0.0003571203 -0.031253062
-0.02611593 -0.059798401 0.050936799
-0.02611593 -0.059798401 0.050936799
-0.02611593 -0.059798401 0.050936799
-0.02611593 -0.059798401 0.050936799
-0.02611593 -0.059798401 0.050936799
-0.02611593 -0.059798401 0.050936799
-0.02611593 -0.059798401 0.050936799
-0.016492436 0.0017075751 -0.034159645
-0.02611593 -0.059798401 0.050936799
-0.02611593 -0.059798401 0.050936799
-0.02611593 -0.059798401 0.050936799
-0.02611593 -0.059798401 0.050936799
-0.02611593 -0.059798401 0.050936799
-0.02611593 -0.059798401 0.050936799
-0.02611593 -0.059798401 0.050936799
-0.020462113 -0.00031390879 -0.032121193
-0.02611593 -0.059798401 0.050936799
-0.02611593 -0.059798401 0.050936799
-0.02611593 -0.059798401 0.050936799
-0.02611593 -0.059798401 0.050936799
-0.02611593 -0.059798401 0.050936799
-0.02611593 -0.059798401 0.050936799
-0.02611593 -0.059798401 0.050936799
-0.02611593 -0.059798401 0.050936799
-0.02611593 -0.059798401 0.050936799
-0.02611593 -0.059798401 0.050936799
-0.02611593 -0.059798401 0.050936799
-0.02611593 -0.059798401 0.050936799
-0.02611593 -0.059798401 0.050936799
-0.02611593 -0.059798401 0.050936799
-0.02611593 -0.059798401 0.050936799
-0.027431242 -0.0023246184 -0.030026376
-0.02611593 -0.059798401 0.050936799
-0.02611593 -0.059798401 0.050936799
-0.02611593 -0.059798401 0.050936799
-0.02611593 -0.059798401 0.050936799
-0.02611593 -0.059798401 0.050936799
-0.02611593 -0.059798401 0.050936799
-0.02611593 -0.059798401 0.050936799
-0.02611593 -0.059798401 0.050936799
-0.02611593 -0.059798401 0.050936799
-0.02611593 -0.059798401 0.050936799
-0.02611593 -0.059798401 0.050936799
-0.02611593 -0.059798401 0.050936799
-0.02611593 -0.059798401 0.050936799
-0.02611593 -0.059798401 0.050936799
-0.02611593 -0.059798401 0.050936799
-0.02611593 -0.059798401 0.050936799
-0.02611593 -0.059798401 0.050936799
-0.02611593 -0.059798401 0.050936799
-0.02611593 -0.059798401 0.050936799
-0.02611593 -0.059798401 0.050936799
-0.02611593 -0.059798401 0.050936799
-0.02611593 -0.059798401 0.050936799
-0.02611593 -0.059798401 0.050936799
-0.037462927 -0.0012527241 -0.031819772
-0.02611593 -0.059798401 0.050936799
-0.044481289 -0.0062267515 -0.031778328
-0.02611593 -0.059798401 0.050936799
-0.02611593 -0.059798401 0.050936799
-0.02611593 -0.059798401 0.050936799
-0.02611593 -0.059798401 0.050936799
-0.02611593 -0.059798401 0.050936799
-0.040462378 -0.0012419573 -0.031763397
-0.02611593 -0.059798401 0.050936799
-0.02611593 -0.059798401 0.050936799
-0.02611593 -0.059798401 0.050936799
-0.02611593 -0.059798401 0.050936799
-0.02611593 -0.059798401 0.050936799
-0.02611593 -0.059798401 0.050936799
-0.02611593 -0.059798401 0.050936799
-0.044472519 0.00079014868 -0.032651868
-0.02611593 -0.059798401 0.050936799
-0.052494619 -0.0051801205 -0.032609656
-0.02611593 -0.059798401 0.050936799
-0.02611593 -0.059798401 0.050936799
-0.02611593 -0.059798401 0.050936799
-0.02611593 -0.059798401 0.050936799
-0.02611593 -0.059798401 0.050936799
-0.048456989 -0.0002134192 -0.031595059
-0.02611593 -0.059798401 0.050936799
-0.056441646 -0.0062198625 -0.029553525
-0.02611593 -0.059798401 0.050936799
-0.02611593 -0.059798401 0.050936799
-0.062492792 -0.005144231 -0.032421749
-0.02611593 -0.059798401 0.050936799
-0.02611593 -0.059798401 0.050936799
-0.052437533 -0.00021715253 -0.030520231
-0.02611593 -0.059798401 0.050936799
-0.060436986 -0.0052056764 -0.029460344
-0.02611593 -0.059798401 0.050936799
-0.02611593 -0.059798401 0.050936799
-0.066439815 -0.0061839735 -0.029365618
-0.02611593 -0.059798401 0.050936799
-0.06045872 -0.0011701791 -0.031387586
-0.055418268 -0.00022447482 -0.029464208
-0.02611593 -0.059798401 0.050936799
-0.06439881 -0.0052274987 -0.027385857
-0.02611593 -0.059798401 0.050936799
-0.02611593 -0.059798401 0.050936799
-0.069401823 -0.0062093846 -0.027309921
-0.02611593 -0.059798401 0.050936799
-0.064454071 -0.00015599653 -0.031294409
-0.061461553 0.002850818 -0.032296389
-0.02611593 -0.059798401 0.050936799
-0.069408759 -0.0031918073 -0.028255526
-0.02611593 -0.059798401 0.050936799
-0.02611593 -0.059798401 0.050936799
-0.074378252 -0.0052096988 -0.026198294
-0.02611593 -0.059798401 0.050936799
-0.067382552 -0.001217413 -0.027257409
-0.065475605 0.0038830931 -0.033202868
-0.02611593 -0.059798401 0.050936799
-0.072370768 -0.0032172189 -0.026199836
-0.02611593 -0.059798401 0.050936799
-0.02611593 -0.059798401 0.050936799
-0.07734026 -0.0052351099 -0.024142597
-0.02611593 -0.059798401 0.050936799
-0.072411232 0.00083637115 -0.029126748
-0.06945616 0.0038793597 -0.032128047
-0.02611593 -0.059798401 0.050936799
-0.078380533 -0.0011779349 -0.027050715
-0.02611593 -0.059798401 0.050936799
-0.02611593 -0.059798401 0.050936799
-0.08537925 -0.0011528125 -0.026919179
-0.02611593 -0.059798401 0.050936799
-0.077402458 0.0028539733 -0.028996758
-0.074432597 0.0048790462 -0.031016413
-0.02611593 -0.059798401 0.050936799
-0.084386379 0.0018611759 -0.027883574
-0.02611593 -0.059798401 0.050936799
-0.02611593 -0.059798401 0.050936799
-0.090351768 0.00084670435 -0.025789533
-0.02611593 -0.059798401 0.050936799
-0.08341223 0.0048932573 -0.029847629
-0.077394605 0.0048536346 -0.028960723
-0.02611593 -0.059798401 0.050936799
-0.088344276 0.0028391841 -0.025791075
-0.02611593 -0.059798401 0.050936799
-0.02611593 -0.059798401 0.050936799
-0.096342802 0.0028678956 -0.025640752
-0.02611593 -0.059798401 0.050936799
-0.087355323 0.0048533455 -0.02677349
-0.08340437 0.0068929112 -0.029811591
-0.02611593 -0.059798401 0.050936799
-0.095368661 0.0058999765 -0.027604807
-0.02611593 -0.059798401 0.050936799
-0.02611593 -0.059798401 0.050936799
-0.10332974 0.0058925096 -0.025455162
-0.02611593 -0.059798401 0.050936799
-0.094379708 0.007914138 -0.028587226
-0.088380806 0.0078926049 -0.028699968
-0.02611593 -0.059798401 0.050936799
-0.10134099 0.0079030823 -0.026456363
-0.02611593 -0.059798401 0.050936799
-0.02611593 -0.059798401 0.050936799
-0.11336445 0.010981812 -0.028176151
-0.02611593 -0.059798401 0.050936799
-0.10037076 0.0099353325 -0.028438449
-0.094371848 0.0099137994 -0.028551191
-0.02611593 -0.059798401 0.050936799
-0.11037587 0.012988796 -0.029196136
-0.02611593 -0.059798401 0.050936799
-0.02611593 -0.059798401 0.050936799
-0.11933284 0.013984748 -0.027009685
-0.02611593 -0.059798401 0.050936799
-0.1032953 0.0098737432 -0.024383429
-0.098333679 0.0098919766 -0.026476704
-0.02611593 -0.059798401 0.050936799
-0.11430024 0.012930795 -0.025122337
-0.02611593 -0.059798401 0.050936799
-0.02611593 -0.059798401 0.050936799
-0.12829676 0.017998274 -0.025768835
-0.02611593 -0.059798401 0.050936799
-0.11333002 0.014963046 -0.027104411
-0.10633523 0.013938093 -0.027253959
-0.02611593 -0.059798401 0.050936799
-0.1253121 0.019005436 -0.026806846
-0.02611593 -0.059798401 0.050936799
-0.02611593 -0.059798401 0.050936799
-0.13829403 0.023051407 -0.026490498
-0.02611593 -0.059798401 0.050936799
-0.12029823 0.017969564 -0.025919162
-0.11736582 0.020030823 -0.029938143
-0.02611593 -0.059798401 0.050936799
-0.13529457 0.023040641 -0.026546869
-0.02611593 -0.059798401 0.050936799
-0.02611593 -0.059798401 0.050936799
-0.14825381 0.02806836 -0.025212839
-0.02611593 -0.059798401 0.050936799
-0.13129531 0.023026284 -0.026622031
-0.11927968 0.017947886 -0.024938293
-0.02611593 -0.059798401 0.050936799
-0.14728752 0.029100772 -0.027212936
-0.02611593 -0.059798401 0.050936799
-0.02611593 -0.059798401 0.050936799
-0.16527154 0.037182108 -0.027730212
-0.02611593 -0.059798401 0.050936799
-0.14228845 0.029082827 -0.027306892
-0.13027282 0.024004437 -0.025623143
-0.02611593 -0.059798401 0.050936799
-0.16025765 0.036146242 -0.026842535
-0.02611593 -0.059798401 0.050936799
-0.02611593 -0.059798401 0.050936799
-0.17720833 0.04318798 -0.025397297
-0.02611593 -0.059798401 0.050936799
-0.15325201 0.033103537 -0.026028454
-0.14630944 0.033132687 -0.029158972
-0.02611593 -0.059798401 0.050936799
-0.1762381 0.045220222 -0.027379371
-0.02611593 -0.059798401 0.050936799
-0.02611593 -0.059798401 0.050936799
-0.19416593 0.053247288 -0.024897672
-0.02611593 -0.059798401 0.050936799
-0.16622213 0.040149 -0.025658049
-0.15627711 0.036149979 -0.027917348
-0.02611593 -0.059798401 0.050936799
-0.19321837 0.054297797 -0.027897429
-0.02611593 -0.059798401 0.050936799
-0.02611593 -0.059798401 0.050936799
-0.21712939 0.066345707 -0.025230918
-0.02611593 -0.059798401 0.050936799
-0.18822713 0.052280188 -0.028027419
-0.16923244 0.042177528 -0.026565306
-0.02611593 -0.059798401 0.050936799
-0.20813195 0.061296172 -0.024490457
-0.02611593 -0.059798401 0.050936799
-0.02611593 -0.059798401 0.050936799
-0.24508016 0.082461558 -0.025416136
-0.02611593 -0.059798401 0.050936799
-0.20417406 0.060318165 -0.026582956
-0.18820842 0.052262098 -0.027027752
-0.02611593 -0.059798401 0.050936799
-0.23508291 0.07740844 -0.024694484
-0.02611593 -0.059798401 0.050936799
-0.02611593 -0.059798401 0.050936799
-0.95936549 0.53697449 -0.2268894
-0.02611593 -0.059798401 0.050936799
-0.22711881 0.073398486 -0.025916532
-0.20716961 0.061328765 -0.026508566
-0.97200644 0.5416947 -0.20856115
-0.26902077 0.096545316 -0.024712905
-0.02611593 -0.059798401 0.050936799
-0.02611593 -0.059798401 0.050936799
-0.98163319 0.54538625 -0.1893076
-0.02611593 -0.059798401 0.050936799
-0.26006079 0.091531962 -0.025971781
-0.23111413 0.074412681 -0.025823351
-0.9902305 0.54703832 -0.16810957
-0.97587079 0.54258227 -0.20147032
-0.02611593 -0.059798401 0.050936799
-0.02611593 -0.059798401 0.050936799
-1.0048633 0.55376536 -0.14970769
-0.98650122 0.5452776 -0.18221605
-0.96913111 0.53879297 -0.21466956
-0.26304153 0.091524638 -0.024915744
-1.0154711 0.55744243 -0.12943569
-0.99611706 0.54695129 -0.16199887
-0.98274225 0.54148096 -0.19435918
-0.02611593 -0.059798401 0.050936799
-1.0811186 0.59649169 -0.11749619
-1.0077248 0.55063194 -0.14170809
-0.99637222 0.54418701 -0.1750485
-0.97201222 0.53066045 -0.20676005
-1.17274 0.65066803 -0.10679717
-1.0213242 0.55631948 -0.12134369
-1.0009633 0.54280716 -0.15298003
-0.98261303 0.53131986 -0.1855424
-1.1842648 0.65627587 -0.082471706
-1.053937 0.57212764 -0.10344106
-1.013556 0.54547346 -0.13168882
-0.99421382 0.5319829 -0.16430604
-1.1797945 0.65179199 -0.05662775
-1.153541 0.63033193 -0.092519641
-1.0261635 0.54915762 -0.11137925
-1.0058106 0.53364575 -0.14305164
-1.1833217 0.65235388 -0.031543046
-1.1950687 0.65311694 -0.071322799
-1.0387335 0.55280566 -0.089070365
-1.0174074 0.5353086 -0.12179724
-1.1808393 0.65087658 -0.005607456
-1.2005916 0.65468591 -0.046182491
-1.0653218 0.56555665 -0.069335207
-1.0339913 0.53998888 -0.10039482
-1.1823708 0.65043151 0.019421652
-1.2011125 0.65221947 -0.020208545
-1.1508554 0.61360389 -0.052859075
-1.0455469 0.54261541 -0.077123076
-1.1809068 0.64897585 0.044376366
-1.2036065 0.65174186 0.0068386719
-1.2123587 0.6464771 -0.032105893
-1.0581207 0.54526359 -0.054832205
-1.1764473 0.64650965 0.069256693
-1.2101291 0.65331441 0.031997778
-1.2278266 0.65204507 -0.0047062859
-1.0716717 0.54889715 -0.031504847
-1.1779898 0.64808232 0.09332218
-1.2076321 0.65081918 0.058915
-1.2313205 0.65157104 0.022359721
-1.1041763 0.56359696 -0.0076222867
-1.1745489 0.64563781 0.11722164
-1.2091447 0.65035599 0.084943771
-1.2388057 0.65311104 0.049536936
-1.1656462 0.59543413 0.015112221
-1.1700854 0.6441713 0.14211999
-1.2046894 0.64688998 0.10980609
-1.2382894 0.65060484 0.07749141
-1.2549917 0.6433149 0.041660108
-1.1646447 0.64171964 0.16598186
-1.2042025 0.6464197 0.13579728
-1.2367918 0.64811313 0.10442743
-1.2734365 0.64987534 0.070133775
-1.1661646 0.64427412 0.19106501
-1.2026972 0.64592767 0.16276932
-1.2422773 0.64964598 0.13156706
-1.2748971 0.64835805 0.099143505
-1.16172 0.64282572 0.2149637
-1.2002145 0.64445037 0.18870491
-1.2407572 0.64813608 0.15952076
-1.2843219 0.65085089 0.12937529
-1.1552569 0.64135218 0.23982447
-1.2007198 0.64598328 0.21475092
-1.2392371 0.64662611 0.18747446
-1.2827682 0.64830488 0.15931031
-1.1488312 0.63991475 0.26268592
-1.1972375 0.6445024 0.24066773
-1.2397127 0.64612323 0.21548375
-1.2901973 0.64979064 0.18948649
-1.1423869 0.63845927 0.28654703
-1.1877867 0.64001858 0.26541808
-1.2431612 0.64761269 0.24458514
-1.285648 0.64623404 0.21934712
-1.1359426 0.63700378 0.31040812
-1.1872733 0.6415298 0.29244494
-1.2366458 0.64508498 0.27242687
-1.3 0.65268981 0.25274393
-1.1354628 0.63955104 0.33545372
-1.184783 0.64205211 0.3184166
-1.2380986 0.64556742 0.30147263
-1.2835102 0.64412725 0.28028965
-1.1290332 0.63911343 0.35833317
-1.179301 0.64056402 0.3442958
-1.2395434 0.64804953 0.33055443
-1.2948664 0.64957237 0.31361204
-1.1235808 0.63966113 0.38224912
-1.1738153 0.64007574 0.37019303
-1.2250828 0.64152998 0.35617447
-1.2843263 0.64399457 0.34332389
-1.1171288 0.64020532 0.40614623
-1.1643565 0.6375916 0.39497942
-1.2275089 0.64399761 0.38627473
-1.2867149 0.64642608 0.37542343
-1.1007848 0.63278729 0.4257127
-1.1608665 0.63811034 0.42093223
-1.2179979 0.6404593 0.41404206
-1.2751936 0.64086288 0.40411684
-1.0943325 0.63333148 0.44960982
-1.1563537 0.63960725 0.44788396
-1.2114975 0.63894945 0.44090214
-1.2785405 0.64426148 0.43825257
-1.0858996 0.63388658 0.47246972
-1.1439185 0.63613057 0.4715963
-1.2049556 0.63840336 0.46977955
-1.2620653 0.63671684 0.4648166
-1.0794661 0.63444889 0.49536723
-1.1374515 0.63565683 0.4964751
-1.2024013 0.64087111 0.49878621
-1.269381 0.64311123 0.50008118
-1.0670829 0.63202614 0.51609856
-1.132935 0.63815355 0.52344483
-1.1899096 0.63734013 0.5254975
-1.2499105 0.63455606 0.52657092
-1.0586498 0.63258123 0.53895843
-1.1185225 0.63368791 0.54610193
-1.1912906 0.64176768 0.55761433
-1.257185 0.64191407 0.56385285
-1.0462667 0.63015866 0.55968982
-1.1070791 0.63221449 0.56986904
-1.1679183 0.63228869 0.57901251
-1.2367105 0.63435507 0.59034175
-1.0447564 0.63568377 0.58577037
-1.1015668 0.63370782 0.596802
-1.1643413 0.6357345 0.60901809
-1.2400084 0.64071703 0.62653089
-1.0284194 0.63128328 0.60439122
-1.0891234 0.63223076 0.62055033
-1.1548188 0.63519573 0.63683945
-1.2195526 0.63317615 0.6520201
-1.0160097 0.63084233 0.62615824
-1.078676 0.63176072 0.64435428
-1.1344341 0.62872702 0.65834808
-1.2139241 0.63556075 0.68496895
-1.0026456 0.62843418 0.64587116
-1.063256 0.62929112 0.66702855
-1.1308197 0.63213676 0.69035292
-1.1944641 0.62902319 0.71049505
-0.99223155 0.62900013 0.66769385
-1.0527858 0.62980288 0.69185024
-1.1143626 0.62962747 0.71500778
-1.1966981 0.63732702 0.74970031
-0.98083639 0.62958062 0.68849802
-1.0393615 0.6283403 0.71458018
-1.1067903 0.6320591 0.74492019
-1.1703075 0.62781918 0.77204186
-0.96844542 0.62915772 0.70926541
-1.0269104 0.62886292 0.73836458
-1.0834476 0.62461597 0.76435506
-1.1557485 0.62722623 0.80176866
-0.94914633 0.62478274 0.72583055
-1.0134634 0.62838221 0.76211214
-1.0748717 0.62804395 0.79426664
-1.139235 0.6246627 0.82942247
-0.93773252 0.62534511 0.74763435
-0.99806213 0.62593067 0.78378677
-1.0525061 0.62158614 0.81473804
-1.12763 0.62604398 0.86124098
-0.92631477 0.62690729 0.76945627
-0.98363405 0.62546438 0.80651599
-1.0468616 0.6279701 0.84775901
-1.1091356 0.62349135 0.8878575
-0.91196162 0.6265133 0.78818679
-0.96626669 0.6240418 0.8261717
-1.025492 0.62251574 0.86826724
-1.0906187 0.62192047 0.91549182
-0.8985669 0.62708664 0.8089534
-0.95083874 0.62357193 0.84888202
-1.0168706 0.6279071 0.9002142
-1.0730789 0.62133485 0.94416249
-0.88516831 0.62865984 0.82973808
-0.93736529 0.62507266 0.87366533
-0.98763055 0.61853319 0.91450202
-1.055539 0.62074924 0.97283322
-0.87079638 0.6282478 0.84946823
-0.9239105 0.62659162 0.89744896
-0.97998649 0.62490994 0.94748539
-1.0360409 0.61919278 0.99944907
-0.85248917 0.62587601 0.86608815
-0.90454733 0.6241619 0.91704917
-0.95663202 0.62046629 0.96697432
-1.0145618 0.61764735 1.0250276
-0.83615512 0.62549299 0.88378143
-0.88422185 0.6217649 0.93463117
-0.94207585 0.62389076 0.99577355
-0.99210572 0.61511648 1.0495697
-0.82079828 0.62609529 0.90251118
-0.86681306 0.62130594 0.95630419
-0.91676313 0.61847627 1.0132076
-0.97355813 0.6165269 1.0782577
-0.79955566 0.62176734 0.91603971
-0.84746474 0.61989421 0.97492278
-0.90024871 0.62092996 1.0399518
-0.95009828 0.61499232 1.1027989
-0.78517592 0.62335497 0.93580586
-0.83102912 0.62142038 0.99765044
-0.87495077 0.6165334 1.0564042
-0.92663831 0.61345774 1.1273403
-0.76588374 0.62199754 0.95142543
-0.80678719 0.6170817 1.0111226
-0.85645938 0.61799824 1.0820932
-0.90513277 0.61389375 1.1539547
-0.7505042 0.62358159 0.97117287
-0.78839332 0.61763704 1.0317953
-0.83113879 0.61458331 1.0995634
-0.8796919 0.61237013 1.1774588
-0.73218918 0.62320948 0.98782885
-0.7680226 0.61720353 1.0514127
-0.81264347 0.61704797 1.1252704
-0.85620534 0.61281705 1.2030356
-0.71387029 0.62383723 1.0045029
-0.74866641 0.61779147 1.0700672
-0.78536063 0.61366212 1.1407034
-0.83078325 0.6113115 1.2255402
-0.69264251 0.62052721 1.0170498
-0.72731447 0.61737239 1.0886662
-0.76878214 0.61806113 1.1704829
-0.80339897 0.60983491 1.2460077
-0.67721766 0.6240747 1.0388325
-0.70693976 0.6179387 1.1083015
-0.73958248 0.61274081 1.1818436
-0.77890873 0.61127806 1.2715839
-0.64920199 0.61492145 1.0411433
-0.6797998 0.61167997 1.1166831
-0.72004211 0.61716533 1.2095673
-0.7495662 0.60883069 1.2899965
-0.63088304 0.61554921 1.0578173
-0.66135675 0.61519861 1.1394092
-0.6889255 0.60991061 1.2168559
-0.72217786 0.60835391 1.310482
-0.6144771 0.61911118 1.0785816
-0.63614845 0.61189234 1.1508813
-0.66740417 0.61434597 1.2435422
-0.69187289 0.60593903 1.3268765
-0.5932188 0.61878258 1.0921823
-0.61572838 0.61442214 1.1725521
-0.63726079 0.60907632 1.2518854
-0.66348094 0.60645849 1.3473613
-0.57102472 0.61650503 1.1027292
-0.58858061 0.61016309 1.1809696
-0.61286414 0.61060995 1.2724633
-0.63219494 0.60405821 1.3627373
-0.54881197 0.61420935 1.1142756
-0.56528133 0.61079091 1.19655
-0.58267939 0.60630399 1.2828238
-0.60186338 0.60362494 1.3801675
-0.52848941 0.61582971 1.1309301
-0.53911054 0.6075173 1.206004
-0.56017309 0.6117537 1.3085098
-0.57151318 0.60317355 1.3985975
-0.50724602 0.61651903 1.1435491
-0.51768678 0.61104321 1.227674
-0.52806747 0.60651308 1.314816
-0.54403436 0.60662377 1.4231536
-0.48311633 0.61228883 1.1510233
-0.48859939 0.6058315 1.233037
-0.50266719 0.609043 1.3353932
-0.50988382 0.60333943 1.4314575
-0.46181273 0.61392367 1.1666594
-0.46717173 0.61035728 1.254725
-0.470599 0.60383856 1.3397001
-0.47857124 0.60292065 1.4478694
-0.43767911 0.61069334 1.1741517
-0.43814051 0.60519987 1.2570889
-0.44417617 0.60734659 1.3612761
-0.4462736 0.60351616 1.4632807
-0.41824323 0.617226 1.1959133
-0.41381481 0.60780573 1.2736863
-0.41218686 0.60121471 1.3615664
-0.41207778 0.60219538 1.4736201
-0.39225277 0.61111563 1.1963164
-0.38665915 0.6055463 1.2821399
-0.38663581 0.60861713 1.3892313
-0.37982151 0.60182726 1.4870141
-0.36901367 0.61079794 1.2088797
-0.36135626 0.60716689 1.2977008
-0.35268819 0.6015144 1.3874665
-0.34466726 0.59953928 1.4953172
-0.34485343 0.60954916 1.2174076
-0.33044955 0.5991112 1.2939751
-0.3233822 0.60412031 1.4029703
-0.31048629 0.59923637 1.5046749
-0.32251954 0.61416185 1.2340785
-0.30697298 0.60659313 1.3176788
-0.29134759 0.59995192 1.405296
-0.27626389 0.59989703 1.51605
-0.29741967 0.61196393 1.2395707
-0.27887365 0.60438448 1.3231148
-0.26385307 0.60740143 1.4299242
-0.24120718 0.59669954 1.5193371
-0.27138394 0.60781705 1.242009
-0.25162733 0.60605204 1.335639
-0.23004438 0.59842563 1.4211259
-0.2070449 0.59641474 1.5276949
-0.24709573 0.61045909 1.2566072
-0.22256559 0.60387594 1.3390566
-0.20065168 0.60395879 1.4406823
-0.17187889 0.59712613 1.5360525
-0.22203326 0.60829735 1.2600999
-0.19527788 0.60650724 1.3535982
-0.16679773 0.59694648 1.4339194
-0.13681433 0.59592837 1.5393752
-0.19684666 0.60902655 1.2696447
-0.16544586 0.59852755 1.3458928
-0.13646138 0.60253024 1.4504579
-0.10168575 0.59667593 1.5457333
-0.17161873 0.61071938 1.2812071
-0.13719188 0.60219121 1.3584343
-0.10360724 0.59552157 1.4437138
-0.065579996 0.59643823 1.5510547
-0.14461672 0.60760492 1.2816452
-0.10825427 0.59712416 1.3558
-0.071248591 0.60207993 1.4612324
-0.02961709 0.59332764 1.5493245
-0.11853179 0.60642135 1.286137
-0.079830877 0.60564226 1.376429
-0.039427787 0.59611082 1.4525259
0.0044141393 0.59316945 1.5506852
-0.092488244 0.60427415 1.2886113
-0.049994916 0.59866238 1.3687414
-0.0061107036 0.60170192 1.4680085
0.0403849 0.59205848 1.5489908
-0.065380841 0.6040687 1.294102
-0.020778565 0.6023587 1.379265
0.024650184 0.59479082 1.4563036
0.076374382 0.59092945 1.5482963
-0.039269343 0.60486662 1.2996293
0.0081668999 0.59929132 1.3766665
0.057948548 0.60040003 1.4707865
0.11240917 0.59176391 1.5496373
-0.0120339 0.60855204 1.3111901
0.038300328 0.60105669 1.3831364
0.089611709 0.59257603 1.4540465
-0.02611593 -0.059798401 0.050936799
0.013930838 0.60547727 1.3096478
0.068245605 0.59798568 1.3805194
0.10773835 0.52702659 1.3134737
0.18435857 0.59154171 1.546285
0.042023256 0.60628617 1.3141381
0.098446988 0.60269624 1.3900424
0.14977309 0.57308406 1.4125534
0.21923588 0.59052473 1.5396115
0.067739755 0.59742957 1.3004917
0.10639325 0.5041979 1.193045
0.18981901 0.59701723 1.4632537
0.25301191 0.58760226 1.5279223
0.090854749 0.57410723 1.2576226
0.15836807 0.59953576 1.3858619
0.22055028 0.59214205 1.4495856
0.29113698 0.5923565 1.5332962
0.11919933 0.58169788 1.2742348
0.18817836 0.59559155 1.3762293
0.25350681 0.59205979 1.4469662
0.32599556 0.59135771 1.525623
0.1521076 0.60378319 1.3180331
0.21931945 0.59935302 1.3827164
0.28640717 0.59203178 1.4413477
0.36087683 0.5913406 1.5189674
0.18112101 0.60366106 1.3184876
0.24806589 0.593467 1.3700675
0.31828505 0.59102565 1.4347304
0.39567924 0.59039605 1.5082949
0.21019846 0.60548425 1.3219775
0.28233448 0.60110843 1.3825684
0.35012153 0.58905584 1.4260958
0.43158299 0.59135711 1.5026382
0.23700932 0.60155088 1.3124011
0.30894241 0.59335661 1.3629233
0.38414979 0.59291506 1.4265287
0.46537083 0.59143406 1.4910032
0.26277503 0.59565753 1.3008082
0.34210971 0.59909248 1.3704085
0.41701266 0.59292328 1.418911
0.499136 0.59052926 1.4783503
0.29392007 0.60041887 1.3073133
0.37088665 0.59618783 1.3588133
0.44675201 0.59005123 1.4052975
0.53190529 0.59062791 1.4657342
0.32070827 0.59550369 1.2967194
0.40285125 0.59810883 1.3562486
0.47961879 0.59105933 1.3976979
-0.02611593 -0.059798401 0.050936799
0.35295847 0.60317034 1.3082582
0.43060574 0.59422612 1.3436545
0.51039934 0.58914733 1.386083
0.58688909 0.57835174 1.413465
0.37864932 0.59734941 1.2926666
0.46042782 0.59328139 1.3340758
-0.02611593 -0.059798401 0.050936799
0.60500288 0.56408197 1.3688526
0.41075671 0.60214329 1.2971536
0.49341482 0.5961805 1.3325102
0.57614082 0.59316307 1.3709197
0.66386604 0.59012759 1.4092354
0.43647021 0.59730405 1.2825798
-0.02611593 -0.059798401 0.050936799
0.60166323 0.58750486 1.3463311
0.69245577 0.58740389 1.3876436
0.4684988 0.60117048 1.2830502
0.54992062 0.59242886 1.3063755
0.63455665 0.59049445 1.3397672
0.7241503 0.58757848 1.3710477
-0.02611593 -0.059798401 0.050936799
0.57870543 0.59152389 1.2948163
0.66426635 0.58965826 1.3241906
0.75484902 0.58875644 1.3544886
0.49688759 0.56547999 1.2038462
0.60957658 0.593539 1.2872721
0.69501728 0.58978224 1.3106126
0.78446513 0.58801079 1.3339137
0.55612695 0.60119832 1.2624031
0.63934249 0.59264857 1.2746944
0.72264856 0.58802575 1.2910568
0.81718612 0.59016329 1.3183347
0.58078444 0.59641701 1.2448488
0.6680938 0.59277964 1.2611539
0.75236225 0.58818936 1.2754982
0.84376138 0.58846474 1.2957987
0.61688024 0.6032142 1.2482973
0.697905 0.5938527 1.2506118
0.77899367 0.58643657 1.2559612
0.87236297 0.58874053 1.274261
0.63737303 0.59459263 1.222749
0.72663361 0.59300202 1.2360535
0.80768883 0.58662188 1.2394217
0.89996469 0.58901989 1.2527418
0.67655492 0.60430622 1.2301935
0.75228399 0.59123462 1.2175351
0.83841014 0.5887816 1.2238804
0.92756635 0.58929926 1.2312229
0.69394672 0.59378612 1.1996673
0.77999806 0.59140545 1.202014
0.86606801 0.58900672 1.2053603
0.95617181 0.59057486 1.2097031
0.73513216 0.60449249 1.2070924
0.80768943 0.59059459 1.1854752
0.89372593 0.58923185 1.1868402
0.98171377 0.58991587 1.1852046
0.7515282 0.59497577 1.176603
0.83436227 0.58980536 1.1679556
0.9203465 0.58949667 1.1663398
1.0062371 0.58927852 1.1597254
0.78133929 0.59604889 1.1660607
0.86409855 0.59095079 1.1534147
0.94696712 0.58976161 1.1458391
1.0297607 0.5886448 1.1342647
0.8049261 0.59234327 1.1445447
0.89179778 0.59213954 1.1369119
0.97152805 0.58908808 1.122359
1.0583742 0.59192008 1.1127812
0.848059 0.60409647 1.1489513
0.91739601 0.59142631 1.1154126
0.99608886 0.58841461 1.0988791
1.0788194 0.59036958 1.0833602
0.86037296 0.59266686 1.1145023
0.94200909 0.58969867 1.0949135
1.0196539 0.58874458 1.0754359
1.1003247 0.5897612 1.0569376
0.90138596 0.60253614 1.1129125
0.96663004 0.58997071 1.0744505
1.0431961 0.58809268 1.0509751
1.1258785 0.59210163 1.0324932
0.91782713 0.59498298 1.0844584
0.99939632 0.59408677 1.0609069
1.0667838 0.5894044 1.0285496
1.1453279 0.59155458 1.0031093
0.94142175 0.59327698 1.0629784
1.0229574 0.59341687 1.0374458
1.0913526 0.59073049 1.0051056
1.1668183 0.59196401 0.97570509
0.96907568 0.59250236 1.0444404
1.0485822 0.5946852 1.016982
1.1108354 0.58914745 0.97770292
1.187313 0.59337699 0.94833761
0.99369276 0.59177452 1.0239594
1.0690837 0.59308046 0.99056017
1.1343819 0.58949548 0.95326006
1.2067851 0.59381169 0.91997129
1.0172687 0.5900867 1.0014799
1.0977304 0.59531969 0.97105771
1.1609768 0.59279597 0.93081421
1.2242161 0.59328991 0.88962525
1.0469754 0.59326798 0.98497558
1.1182547 0.59469676 0.94565356
1.1743594 0.58932531 0.89848989
1.2426698 0.5937463 0.86027801
1.0725775 0.5935545 0.96349412
1.1407784 0.59406668 0.92021179
1.2009583 0.59362566 0.87606221
1.2560828 0.59325701 0.82900745
1.0961385 0.59288454 0.94003296
1.163325 0.59441823 0.89578778
1.2214489 0.59403867 0.84867668
1.2714956 0.5927605 0.79769927
1.1196995 0.5922147 0.91657174
1.1878748 0.59576243 0.87134415
1.2389214 0.59448057 0.82034796
1.2909756 0.59519482 0.76936901
1.1463094 0.59449732 0.89510751
1.2053435 0.59520453 0.84299737
1.2563752 0.5949406 0.7910195
1.3033888 0.5947091 0.73811722
1.1678106 0.59288901 0.86866695
1.227875 0.59657401 0.81759167
1.2758472 0.5953753 0.76265317
1.3178096 0.59621584 0.70686388
1.1893345 0.59226245 0.84324396
1.2463435 0.59601253 0.78922617
1.2943234 0.59681344 0.73432374
1.3322264 0.59672278 0.67559254
1.2250372 0.59943956 0.82569945
1.2658342 0.59642911 0.76185948
1.311781 0.59827328 0.70501328
1.3456662 0.5982151 0.64535761
1.2414794 0.59690368 0.79633582
1.289351 0.59881294 0.73545343
1.3251942 0.59778398 0.67374277
1.3590871 0.59972543 0.61412311
1.2649882 0.59728783 0.76989365
1.3047824 0.59829837 0.70514482
1.3396299 0.5982728 0.64347106
1.3664412 0.59831202 0.57994831
1.2874824 0.59869349 0.74248856
1.3252583 0.59972936 0.67677778
1.3540467 0.59877974 0.61219972
1.3818884 0.60179681 0.54971182
1.308973 0.59910291 0.71508431
1.3416935 0.60021096 0.64646852
1.3553714 0.59440655 0.57708395
1.3872615 0.60037261 0.5165742
1.3304259 0.59954852 0.68568075
1.3601509 0.60166723 0.61713928
1.3738366 0.59786242 0.54779071
1.3986683 0.60290796 0.48439562
1.3498831 0.6010012 0.65633279
1.3735453 0.60119599 0.58486909
1.3953054 0.60230732 0.51845926
1.4060637 0.60245836 0.45223814
1.3652921 0.59950489 0.62500668
1.3869396 0.60072476 0.55259883
1.3986565 0.59990847 0.48434159
1.4134482 0.60402638 0.41911703
1.3857305 0.600972 0.59464025
1.4043788 0.60220265 0.5222888
1.4171069 0.60438234 0.45406681
1.4188293 0.6046018 0.38601544
1.4001207 0.59949738 0.56233317
1.4127513 0.60076767 0.48909482
1.4305319 0.60689253 0.42285025
1.4282361 0.60714436 0.35387444
1.4205629 0.60196435 0.53198475
1.4342014 0.60523069 0.45876372
1.433864 0.60451174 0.38773292
1.4165514 0.59981835 0.31894886
1.4389603 0.60247499 0.49963856
1.4455813 0.60578454 0.42554939
1.4422672 0.60605812 0.35559267
1.1224715 0.46442735 0.23697793
1.4583654 0.60498178 0.46730965
1.4549389 0.60536391 0.39135501
1.4154642 0.59187752 0.31582451
1.1270064 0.46586147 0.21191046
1.4707226 0.6045503 0.43305889
1.4632968 0.60494673 0.35717937
1.1304356 0.46041745 0.23575586
-0.02611593 -0.059798401 0.050936799
1.4881054 0.60608244 0.39974988
1.425416 0.58486092 0.31451082
1.1299223 0.45890617 0.208729
0.79683667 0.31563842 0.12834644
1.4994478 0.60667247 0.36453626
1.1253371 0.44949153 0.23265266
1.0159858 0.40704429 0.16991089
0.7463209 0.29223803 0.10586131
1.4253571 0.5698635 0.31424055
1.1428854 0.4548783 0.20741297
0.79674906 0.30769405 0.1252033
0.7590425 0.29847974 0.089730561
1.1262671 0.43650824 0.23139995
-0.02611593 -0.059798401 0.050936799
0.76330304 0.29319489 0.10456023
0.74869162 0.29484192 0.071852498
-0.02611593 -0.059798401 0.050936799
0.78965098 0.29677531 0.12213765
0.75495172 0.28954989 0.086644575
0.74336642 0.29316771 0.054916177
1.0087539 0.38120046 0.16257632
0.79329449 0.29710466 0.10306893
0.75160748 0.28788662 0.068671018
0.74507046 0.29444981 0.038902037
0.80962074 0.29472199 0.12072614
0.7458235 0.27565694 0.082562789
0.76829475 0.29515001 0.050483808
0.74375236 0.29476088 0.021926589
0.76010871 0.2723178 0.098240241
0.74548262 0.27498272 0.064550869
0.76898026 0.29645377 0.033488795
0.74542284 0.297079 0.0039311424
0.75073105 0.26669478 0.07930769
0.74714911 0.27630097 0.04653741
0.77265036 0.29876468 0.015455771
0.74012017 0.29638651 -0.011987496
0.73735029 0.26008636 0.060432278
0.75884438 0.28056476 0.029389761
0.76830626 0.29710498 -0.0024990067
0.74078697 0.29770839 -0.029982168
0.74001265 0.26040119 0.042382006
0.76750267 0.28487545 0.010299157
0.76696938 0.29743418 -0.020474114
0.73648423 0.2970123 -0.045919608
0.74968958 0.26469016 0.024272272
0.80316579 0.30112341 -0.011081889
0.76463282 0.29776695 -0.03843043
0.74116594 0.30231914 -0.063917369
0.7513296 0.26402691 0.005223114
0.79579955 0.29849273 -0.029997967
0.75730795 0.29609993 -0.055329166
0.75383532 0.30961499 -0.083029069
0.76199144 0.26933023 -0.013887051
0.79444009 0.29784018 -0.04899076
0.75995952 0.2984325 -0.07434307
0.74751419 0.30894414 -0.099928603
0.78262579 0.2776334 -0.035130385
0.79607308 0.30019441 -0.068985529
0.76960677 0.30475739 -0.094416082
0.74818885 0.31226569 -0.11788721
0.83820039 0.30091688 -0.062759086
0.79171419 0.29955268 -0.087921932
0.76528525 0.30407941 -0.11135317
0.75783998 0.31959039 -0.13794221
0.81084383 0.2903232 -0.079444177
