# .PCD v0.7 - Point Cloud Data file format
VERSION 0.7
FIELDS x y z
SIZE 4 4 4
TYPE F F F
COUNT 1 1 1
WIDTH 1376
HEIGHT 1
VIEWPOINT 0 0 0 1 0 0 0
POINTS 1376
DATA ascii
-0.43973365 0.62351203 0.79629391
-0.4916541 0.61760926 0.80216116
-0.54537421 0.61954951 0.81720722
-0.60106742 0.62347847 0.8333264
-0.42067403 0.620372 0.7998814
-0.47542843 0.61833459 0.81387448
-0.52817142 0.61928952 0.82788396
-0.58285785 0.6201973 0.84493005
-0.4054817 0.62213695 0.80963224
-0.4592402 0.6190961 0.82358843
-0.51194972 0.61901504 0.83957928
-0.56659865 0.61988658 0.8586247
-0.38741794 0.6200003 0.81325656
-0.4411203 0.61690527 0.83021182
-0.49470544 0.61971861 0.8522734
-0.54838121 0.61860508 0.87026435
-0.37124449 0.6217798 0.82198894
-0.42395487 0.6166814 0.8388893
-0.47654414 0.61849141 0.86091411
-0.53112221 0.61829084 0.88394016
-0.35315812 0.62062496 0.82663107
-0.4086946 0.62139159 0.85169315
-0.459364 0.61724967 0.87057334
-0.51576829 0.62291056 0.90174228
-0.33602622 0.62143707 0.83332723
-0.38961628 0.6182335 0.85628039
-0.44115737 0.61798596 0.88124931
-0.49463806 0.61869115 0.90927291
-0.31800386 0.61833686 0.83493423
-0.37151113 0.61706048 0.86192214
-0.42201892 0.61577338 0.88885361
-0.47835228 0.6203621 0.92400324
-0.30180386 0.62209779 0.8447023
-0.35242885 0.6149022 0.86652732
-0.40387639 0.61456424 0.89649457
-0.45819533 0.61812782 0.93258828
-0.28473204 0.62196445 0.84838146
-0.33430108 0.61471099 0.87318677
-0.38566977 0.61530048 0.90717071
-0.43799695 0.61685723 0.94319075
-0.26672843 0.6188823 0.84898889
-0.31712785 0.61648679 0.88190031
-0.36558771 0.61313856 0.91175711
-0.41787741 0.61465919 0.94977653
-0.24865684 0.61874533 0.85264927
-0.29999596 0.61729902 0.88859648
-0.34646404 0.61194396 0.91837972
-0.39958808 0.61732268 0.96448731
-0.23253958 0.620579 0.85838258
-0.28001928 0.6122281 0.88813055
-0.32920808 0.61564708 0.93112797
-0.37749153 0.61413574 0.97001779
-0.21357749 0.61652958 0.85695392
-0.26377788 0.61695272 0.89991599
-0.31008047 0.61545223 0.93776858
-0.35733065 0.61290133 0.97862089
-0.19747894 0.61838138 0.8616876
-0.24379726 0.6128816 0.89946806
-0.28903994 0.61232316 0.94031888
-0.33623001 0.61071777 0.98418826
-0.17946744 0.6172989 0.86233097
-0.22478984 0.61079574 0.90007472
-0.27086684 0.61409545 0.94901365
-0.31695563 0.61439562 0.99789858
-0.16241047 0.61818343 0.86502856
-0.20663157 0.61358589 0.9077878
-0.25078475 0.61193353 0.95360005
-0.29485521 0.61220849 1.0034472
-0.14542143 0.61612272 0.86467308
-0.1876242 0.61149991 0.9083944
-0.23067215 0.61275303 0.95924032
-0.2746411 0.61493725 1.0141215
-0.12834571 0.6169892 0.86837023
-0.16951123 0.61232662 0.91407216
-0.21149534 0.61552155 0.96793431
-0.25251803 0.6137318 1.0206878
-0.11041696 0.61397946 0.86497903
-0.15054521 0.60927707 0.91266143
-0.18962047 0.60853428 0.96239644
-0.23049244 0.61161709 1.0222378
-0.0933787 0.61488205 0.86667693
-0.13240173 0.61308521 0.91939288
-0.1694665 0.61031741 0.97005397
-0.2083654 0.61141145 1.0288219
-0.076363094 0.6148029 0.86735713
-0.11341306 0.61101729 0.91899979
-0.14937264 0.61115497 0.97469443
-0.18631719 0.61027837 1.0313895
-0.059324831 0.61570555 0.86905509
-0.095401555 0.60993481 0.91964328
-0.12932011 0.61102897 0.97731763
-0.16418622 0.61107272 1.0379918
-0.042282637 0.61760801 0.87077093
-0.076363653 0.61083025 0.92130357
-0.10835446 0.60797226 0.97586936
-0.14209664 0.61090326 1.0425767
-0.025417719 0.61265641 0.86436349
-0.057348419 0.610744 0.92194617
-0.088124678 0.61470026 0.98661596
-0.11913136 0.60783935 1.0410908
-0.008348953 0.61654049 0.86711508
-0.038419843 0.60773057 0.91853619
-0.06722305 0.60969812 0.98213255
-0.096105978 0.60572094 1.0426219
0.0066030016 0.61452317 0.86479789
-0.020336468 0.61059308 0.92225069
-0.047166608 0.61057186 0.98477376
-0.073967159 0.60851485 1.0492601
0.023626469 0.61644369 0.8655141
-0.0024264343 0.60760134 0.91785967
-0.02615173 0.6104784 0.98537886
-0.050888628 0.61035961 1.0528628
0.040563259 0.61543715 0.86217767
0.015679596 0.61144561 0.92259187
-0.0061780401 0.60942489 0.9839853
-0.027938135 0.60831356 1.0503951
0.056454942 0.61247063 0.8568247
0.034616023 0.61043185 0.91921782
0.013750348 0.60640794 0.98055649
-0.0048822481 0.60917658 1.0529799
0.073501058 0.61537296 0.8585586
0.053593829 0.61038178 0.91786116
0.034795735 0.60929585 0.98221529
0.016963029 0.60422504 1.0454788
0.090464428 0.61634797 0.85625792
0.071553089 0.61035335 0.91552353
0.055773169 0.60923856 0.98082107
0.040000193 0.60510617 1.0470641
0.10531492 0.61242145 0.84890628
0.090489507 0.60933959 0.91214955
0.075705484 0.60722148 0.9774102
0.063018635 0.60600549 1.0476495
0.12223298 0.61143297 0.84457016
0.10844877 0.60931116 0.90981203
0.09666419 0.60718226 0.97501624
0.0848905 0.60303551 1.0411842
0.13821919 0.61339331 0.84330595
0.12745316 0.61124259 0.90949106
0.11653642 0.6042195 0.96858841
0.10782618 0.60200739 1.037735
0.15414137 0.61340821 0.83900666
0.14541633 0.61221409 0.90717149
0.13760838 0.60908896 0.9712829
0.13087121 0.60488814 1.0393561
0.17003699 0.61144155 0.83367163
0.16327021 0.60927659 0.89978158
0.15748455 0.60712612 0.96487302
0.15268297 0.60097277 1.0298737
0.18489534 0.60951477 0.82635617
0.18228243 0.6132077 0.89949661
0.17738332 0.60614491 0.95948094
0.1755812 0.59998077 1.0244251
0.20188525 0.61247122 0.82509106
0.20013632 0.61027026 0.89210677
0.19725949 0.604182 0.95307112
0.19852477 0.60095233 1.0210121
0.2167889 0.61250788 0.81981093
0.2169982 0.60933602 0.88477159
0.21822998 0.60714233 0.95073128
0.22149096 0.60290557 1.0186166
0.23166597 0.61056298 0.81349504
0.23385617 0.60740203 0.87741852
0.23915517 0.60813916 0.94635606
0.24230684 0.59999353 1.009171
0.24865985 0.6145193 0.81224805
0.25174055 0.60744596 0.87108237
0.25694895 0.60425609 0.93594915
0.26519027 0.60001957 1.0027409
0.26245436 0.61065066 0.8019163
0.26864383 0.60747534 0.86576468
0.27685559 0.60527456 0.93059301
0.28710052 0.60203069 0.99736518
0.27838045 0.61166543 0.79763502
0.28865978 0.61240274 0.86547893
0.29567578 0.60336959 0.92120302
0.31002927 0.60402012 0.99297035
0.29220155 0.60977834 0.78833902
0.30339402 0.60758489 0.8521114
0.31554496 0.60442424 0.91384757
0.330789 0.60116243 0.98052579
0.30812764 0.61079311 0.78405768
0.32023719 0.60666871 0.84377658
0.33649677 0.60740268 0.91050804
0.35268044 0.60319161 0.97415042
0.32299384 0.61086589 0.77677822
0.3381255 0.60771251 0.83745843
0.35425696 0.60455555 0.89811981
0.37554914 0.60423547 0.9667387
0.33681491 0.60897875 0.76748216
0.35396886 0.60679996 0.82914245
0.37310374 0.60463208 0.88976556
0.39324927 0.60044289 0.95133346
0.35277152 0.61297488 0.76425457
0.37081596 0.60688365 0.8208257
0.390928 0.6037305 0.88041234
0.41405821 0.60054845 0.94094223
0.3665739 0.61110592 0.75395888
0.38666329 0.60697097 0.81252784
0.40974122 0.60484302 0.87007672
0.43484843 0.60067201 0.92955136
0.38252658 0.6141023 0.75071329
0.40349165 0.60707271 0.80321145
0.42652825 0.6039812 0.85874301
0.45672119 0.60271943 0.92217636
0.39528775 0.61127317 0.73841906
0.42141044 0.61109793 0.79794687
0.44536015 0.6050756 0.84940708
0.47442919 0.60092646 0.90680718
0.40810901 0.60938966 0.72914183
0.43722028 0.61122137 0.78764963
0.46421477 0.60715181 0.84108877
0.49420086 0.60107177 0.89443547
0.42196059 0.610484 0.7208994
0.44993618 0.6064288 0.77332008
0.4809604 0.60532624 0.82773769
0.51602137 0.60417318 0.88407946
0.43578953 0.61059654 0.7116394
0.46884 0.61146832 0.76705515
0.49566507 0.60254431 0.81240684
0.530662 0.59944582 0.86571366
0.44961452 0.6097092 0.70236135
0.48262364 0.60961741 0.75575978
0.51554602 0.60659844 0.80510545
0.55252784 0.60451066 0.85739309
0.46347007 0.61180335 0.69413704
0.4984374 0.61074072 0.74548054
0.53127706 0.60579443 0.79079157
0.57022101 0.60373569 0.84104222
0.477299 0.61191595 0.68487704
0.51527369 0.61284208 0.73620021
0.54804933 0.60595053 0.77847624
0.58793688 0.60394239 0.8257091
0.49010545 0.61105037 0.67461812
0.52700144 0.61105269 0.72194344
0.56276178 0.60516822 0.76318145
0.60256273 0.60023296 0.80636162
0.5018934 0.61020643 0.66337842
0.54074764 0.60923791 0.70864874
0.58056045 0.60730219 0.75188297
0.62132764 0.60339946 0.79306304
0.51674873 0.612297 0.65513521
0.55552411 0.61040103 0.6963889
0.59427309 0.60652345 0.73660696
0.63495755 0.60069335 0.77375233
0.52751809 0.61147475 0.64291453
0.57339072 0.61548024 0.68814349
0.61103439 0.6086973 0.72332793
0.65474492 0.60483801 0.76145267
0.54135489 0.61358696 0.63369054
0.58102471 0.6087783 0.66987312
0.62577349 0.6098966 0.70906889
0.66735637 0.60215366 0.74116111
0.55414259 0.61273944 0.62243205
0.5968464 0.61190134 0.65962994
0.63744122 0.60716146 0.69179505
0.68203533 0.60240734 0.72388506
0.5638935 0.61193889 0.60923052
0.60855949 0.61112976 0.64439154
0.65727395 0.61326957 0.68153071
0.70078146 0.60559189 0.70958686
0.57873011 0.61404747 0.59998775
0.62333983 0.61329263 0.63214976
0.66690063 0.60957807 0.66227722
0.71239698 0.60391092 0.68933207
0.58950341 0.61422509 0.58778512
0.6320042 0.60956848 0.61491436
0.67755377 0.60786456 0.64404058
0.72503889 0.60420793 0.67009425
0.60229903 0.61537719 0.57656258
0.64578485 0.61173505 0.60269135
0.69023311 0.60812539 0.62680209
0.73767692 0.60350519 0.65083838
0.61102343 0.61259878 0.56234413
0.65750182 0.61196333 0.58747101
0.70700234 0.61229885 0.61355913
0.75234491 0.60577661 0.63259864
0.62382299 0.61475068 0.55113965
0.66617006 0.60923898 0.57025355
0.71767807 0.61156708 0.59634018
0.76500952 0.60705537 0.61437851
0.63152891 0.61199379 0.53594041
0.67790973 0.61044896 0.55605084
0.7262941 0.60989684 0.57614177
0.77256173 0.60344332 0.59116393
0.64533222 0.61514205 0.52473509
0.68760049 0.6087029 0.53983235
0.74101835 0.61211407 0.56090111
0.78218544 0.60376924 0.57098275
0.65506428 0.61435956 0.51053393
0.69932133 0.60993099 0.52462995
0.75168324 0.61340004 0.54271847
0.79483515 0.60606593 0.55178094
0.66175169 0.6116243 0.49435374
0.71106493 0.61214083 0.51044524
0.76031804 0.61171174 0.52351975
0.8044402 0.60640991 0.53060019
0.67050266 0.61082739 0.48117101
0.71873736 0.61041993 0.49326468
0.76998317 0.61300135 0.50535595
0.81103784 0.604765 0.50943971
0.68429118 0.61499357 0.46898407
0.73046607 0.61364776 0.47809827
0.77862185 0.61231285 0.4861753
0.82166529 0.60608721 0.48925784
0.69200099 0.61323649 0.45380282
0.73711598 0.61094868 0.45991883
0.78526092 0.61163151 0.46703216
0.8282482 0.60546017 0.46711573
0.70174098 0.61445373 0.43963766
0.74681854 0.61220205 0.44375435
0.79390353 0.61194289 0.44786951
0.83685726 0.60680759 0.44597176
0.71047723 0.61467469 0.42547327
0.75349498 0.61148465 0.42661053
0.79952008 0.61028355 0.42772752
0.84346288 0.60716236 0.4248473
0.71716857 0.61293924 0.40931115
0.76319748 0.61273801 0.41044608
0.80616307 0.61060214 0.40860242
0.84904593 0.60653889 0.40272406
0.72285998 0.61120749 0.39316779
0.76885551 0.61204219 0.39232144
0.81380588 0.61091709 0.38945854
0.85667789 0.60887164 0.38261652
0.73462617 0.61439914 0.38000077
0.77855802 0.61329556 0.37615699
0.82145262 0.61223191 0.37033266
0.86024266 0.60827357 0.35953113
0.74334764 0.61563802 0.36485475
0.78421992 0.61359966 0.35805035
0.82505476 0.6115976 0.34924659
0.86787444 0.61060625 0.33942366
0.7510466 0.61589873 0.34870985
0.79088163 0.61390013 0.33992487
0.83372396 0.61389053 0.3311196
0.87346548 0.61198252 0.31733635
0.7547158 0.61319232 0.33158639
0.79754335 0.61420059 0.32179946
0.83532256 0.61226362 0.31005311
0.87302309 0.60939908 0.2942901
0.76344121 0.61543101 0.3164584
0.8012017 0.61351204 0.3037124
0.84195083 0.61360002 0.28994638
0.87964034 0.61275327 0.27321973
0.77417403 0.61966223 0.30132884
0.80887109 0.61580861 0.28560421
0.84457189 0.61295128 0.26987877
0.88022429 0.61214787 0.25119036
0.78086931 0.61892664 0.28518474
0.81352925 0.61511642 0.26749831
0.84920436 0.61529475 0.24982762
0.77410161 0.53233433 0.2077188
0.78454244 0.61722028 0.26807928
0.81719148 0.61542767 0.24942927
0.78437138 0.56314844 0.21608676
0.56848568 0.3801057 0.15279621
0.78922319 0.61750978 0.25099108
0.82083112 0.61475718 0.23034252
0.57367563 0.39997581 0.1590606
-0.02611593 -0.059798401 0.050936799
0.79490381 0.61779577 0.23388413
0.57886952 0.42084581 0.16534299
0.56133503 0.38931018 0.1430933
-0.02611593 -0.059798401 0.050936799
0.57603741 0.43474564 0.17164959
0.56349897 0.40720949 0.14837836
0.55102462 0.3816188 0.12814215
0.54658413 0.3649978 0.10791776
0.54961091 0.41116861 0.1537118
0.55520695 0.39949283 0.13438928
0.55076253 0.38187203 0.11414689
0.56441116 0.37914792 0.095835865
0.55138195 0.41037869 0.14166027
0.54992217 0.393765 0.12037986
0.54851162 0.38011467 0.10115284
-0.02611593 -0.059798401 0.050936799
0.54408568 0.40165862 0.12763438
0.54566377 0.39001524 0.10738736
0.55027181 0.38134253 0.088137671
0.55284274 0.37271315 0.066926256
0.53177863 0.38995695 0.11364838
0.55145371 0.39421007 0.09535075
0.5640651 0.39152572 0.075059205
0.56564015 0.38389978 0.053884592
0.53557986 0.39214125 0.10261299
0.57328784 0.41034546 0.083229721
0.59794021 0.41861615 0.062910885
0.61452222 0.42297056 0.039671317
0.56848484 0.4171994 0.092446759
0.6162076 0.44438443 0.072038092
0.63075548 0.4447647 0.047764368
0.63930058 0.4441666 0.023585366
0.61141932 0.45022038 0.082236767
0.62897843 0.45358938 0.057960726
0.62749392 0.44502875 0.033825483
0.62899798 0.43847492 0.0086702444
0.61616802 0.45345518 0.068201609
0.62571299 0.45285359 0.044003822
0.62821686 0.44629627 0.018829798
0.62271047 0.43676808 -0.0062479638
0.62392807 0.45967871 0.054164145
0.62344337 0.45111433 0.030010113
0.62094033 0.44257531 0.0048939958
0.59841245 0.42209196 -0.019062862
0.61466962 0.45092958 0.042175159
0.63921064 0.46432605 0.014948785
0.63968527 0.45981178 -0.012150943
0.60115075 0.42735165 -0.03402406
0.61741489 0.45317173 0.028159568
0.62691933 0.45662373 0.0010348745
0.61139113 0.44113252 -0.023963097
0.59988183 0.43062609 -0.048946135
0.65422243 0.48232347 0.011992276
0.64166409 0.46885726 -0.015025344
0.60012221 0.43440837 -0.036878128
-0.02611593 -0.059798401 0.050936799
0.62990874 0.4636479 -0.0008946918
0.62437671 0.4571555 -0.027917717
0.58785361 0.42768776 -0.049774356
0.58733332 0.42919409 -0.077746853
0.63063174 0.46491554 -0.01589039
0.60108942 0.440458 -0.039787784
0.58059967 0.42494857 -0.062692478
0.593068 0.43846041 -0.093692005
0.62036264 0.45818776 -0.028824199
0.59182805 0.43572631 -0.052704364
0.58233809 0.43021187 -0.077634878
0.80442858 0.61491781 -0.16348097
0.60009354 0.44146141 -0.039750978
0.58457416 0.43298709 -0.065622464
0.58307278 0.43447888 -0.092576519
0.81203264 0.62932086 -0.1873709
0.58882469 0.43473727 -0.052666008
0.57832015 0.4302443 -0.078559391
0.79144484 0.60892922 -0.16134548
0.80169362 0.62868243 -0.20519491
0.57957816 0.42898762 -0.06460093
0.58705819 0.44049972 -0.094542898
0.80704844 0.62832081 -0.1862953
0.2071694 0.13672131 -0.026902463
0.56633526 0.41923499 -0.075533107
0.81539571 0.63096601 -0.16839767
0.80369025 0.63269275 -0.2061601
0.19809526 0.13180873 -0.029822428
0.58805406 0.43949631 -0.094579712
0.80604863 0.62832439 -0.18627651
0.21215068 0.1417387 -0.028905649
-0.02611593 -0.059798401 0.050936799
0.8133952 0.625956 -0.16745052
0.80169749 0.6296823 -0.20517689
0.20008008 0.13281949 -0.030841649
0.16502576 0.10791315 -0.028635122
0.81004 0.62631041 -0.1863877
0.21314658 0.14073528 -0.028942458
-0.02611593 -0.059798401 0.050936799
-0.02611593 -0.059798401 0.050936799
0.81068498 0.63166773 -0.20630965
0.19909115 0.13080531 -0.029859237
0.17698401 0.11694091 -0.032697082
0.14098603 0.091983922 -0.027472787
0.20617653 0.13370731 -0.025938071
-0.02611593 -0.059798401 0.050936799
-0.02611593 -0.059798401 0.050936799
-0.02611593 -0.059798401 0.050936799
0.20407936 0.13280512 -0.03091681
0.17599507 0.11492676 -0.031714678
0.14894803 0.097008646 -0.030531995
0.12492701 0.081061304 -0.02837
-0.02611593 -0.059798401 0.050936799
-0.02611593 -0.059798401 0.050936799
-0.02611593 -0.059798401 0.050936799
-0.02611593 -0.059798401 0.050936799
0.16504356 0.10287783 -0.026725888
0.15092896 0.097019553 -0.031569246
0.13088156 0.084093541 -0.031427678
0.10887197 0.071138509 -0.029249199
-0.02611593 -0.059798401 0.050936799
-0.02611593 -0.059798401 0.050936799
-0.02611593 -0.059798401 0.050936799
-0.02611593 -0.059798401 0.050936799
0.14595461 0.088984586 -0.028620455
0.13288118 0.084086366 -0.031465258
0.11980382 0.0781883 -0.034328073
0.096846662 0.064182788 -0.029149842
-0.02611593 -0.059798401 0.050936799
-0.02611593 -0.059798401 0.050936799
-0.02611593 -0.059798401 0.050936799
-0.02611593 -0.059798401 0.050936799
0.12592199 0.075040661 -0.027497243
0.11782591 0.074159972 -0.032363236
0.10081241 0.065204434 -0.03120631
0.081843644 0.053202312 -0.027066864
-0.02611593 -0.059798401 0.050936799
-0.02611593 -0.059798401 0.050936799
-0.02611593 -0.059798401 0.050936799
-0.02611593 -0.059798401 0.050936799
0.10889672 0.063085616 -0.02639436
0.10477816 0.066226088 -0.033262771
0.086798348 0.056238119 -0.03010574
0.07182584 0.048239049 -0.026969053
-0.02611593 -0.059798401 0.050936799
-0.02611593 -0.059798401 0.050936799
-0.02611593 -0.059798401 0.050936799
-0.02611593 -0.059798401 0.050936799
0.099818617 0.0571732 -0.02933234
0.093733951 0.059284847 -0.034181874
0.076776616 0.050275024 -0.030025948
0.061818898 0.041258041 -0.02590761
-0.02611593 -0.059798401 0.050936799
-0.02611593 -0.059798401 0.050936799
-0.02611593 -0.059798401 0.050936799
-0.02611593 -0.059798401 0.050936799
0.088793136 0.050213873 -0.029251777
0.079753414 0.049282525 -0.031100005
0.067754693 0.044308349 -0.029964946
0.051834613 0.03525877 -0.023828499
-0.02611593 -0.059798401 0.050936799
-0.02611593 -0.059798401 0.050936799
-0.02611593 -0.059798401 0.050936799
-0.02611593 -0.059798401 0.050936799
0.07579761 0.041225888 -0.027170345
0.069731683 0.04331943 -0.031020209
0.061695699 0.043384321 -0.032869201
0.046790227 0.03331323 -0.025769901
-0.02611593 -0.059798401 0.050936799
-0.02611593 -0.059798401 0.050936799
-0.02611593 -0.059798401 0.050936799
-0.02611593 -0.059798401 0.050936799
0.062816896 0.031219976 -0.024107266
0.062698528 0.039363321 -0.031960402
0.053696249 0.038395796 -0.031809304
0.040768676 0.032353025 -0.026674841
-0.02611593 -0.059798401 0.050936799
-0.02611593 -0.059798401 0.050936799
-0.02611593 -0.059798401 0.050936799
-0.02611593 -0.059798401 0.050936799
0.052813869 0.025238791 -0.023027815
0.054680355 0.034392886 -0.031900171
0.045681998 0.034425184 -0.031731054
0.030828763 0.0233 -0.021650791
-0.02611593 -0.059798401 0.050936799
-0.02611593 -0.059798401 0.050936799
-0.02611593 -0.059798401 0.050936799
-0.02611593 -0.059798401 0.050936799
0.049758255 0.025303828 -0.025970422
0.045685008 0.030407781 -0.030803479
0.039671313 0.031447232 -0.031672366
0.025821827 0.021318281 -0.021592878
-0.02611593 -0.059798401 0.050936799
-0.02611593 -0.059798401 0.050936799
-0.02611593 -0.059798401 0.050936799
-0.02611593 -0.059798401 0.050936799
0.041758794 0.020315303 -0.024910528
0.039670393 0.02642999 -0.030762807
0.033679351 0.028451178 -0.030614026
-0.02611593 -0.059798401 0.050936799
-0.02611593 -0.059798401 0.050936799
-0.02611593 -0.059798401 0.050936799
-0.02611593 -0.059798401 0.050936799
-0.02611593 -0.059798401 0.050936799
0.036733143 0.018351676 -0.02585227
0.033663638 0.024451863 -0.030686103
0.022773147 0.018365743 -0.023589883
-0.02611593 -0.059798401 0.050936799
-0.02611593 -0.059798401 0.050936799
-0.02611593 -0.059798401 0.050936799
-0.02611593 -0.059798401 0.050936799
-0.02611593 -0.059798401 0.050936799
0.027767386 0.012330724 -0.022792291
0.029623 0.023502566 -0.032628275
0.01679598 0.014351774 -0.021549892
0.0069240276 0.0082439743 -0.013472807
-0.02611593 -0.059798401 0.050936799
-0.02611593 -0.059798401 0.050936799
-0.02611593 -0.059798401 0.050936799
-0.02611593 -0.059798401 0.050936799
0.023741541 0.010363507 -0.023752823
0.021675786 0.017459938 -0.028587416
0.017639993 0.022527713 -0.03142114
0.0068313293 0.013351655 -0.019380685
-0.02611593 -0.059798401 0.050936799
-0.02611593 -0.059798401 0.050936799
-0.02611593 -0.059798401 0.050936799
-0.02611593 -0.059798401 0.050936799
0.019704826 0.010414041 -0.025676981
0.018624095 0.018524811 -0.031512003
0.012636976 0.021545827 -0.031345207
0.0047685867 0.016430682 -0.023287695
-0.02611593 -0.059798401 0.050936799
-0.02611593 -0.059798401 0.050936799
-0.02611593 -0.059798401 0.050936799
-0.02611593 -0.059798401 0.050936799
0.014701815 0.0094321622 -0.025601048
0.013602362 0.017561005 -0.032435738
0.0066933311 0.016495859 -0.02732392
0.00076538953 0.015445205 -0.023230549
-0.02611593 -0.059798401 0.050936799
-0.02611593 -0.059798401 0.050936799
-0.02611593 -0.059798401 0.050936799
-0.02611593 -0.059798401 0.050936799
0.01166492 0.0094791073 -0.027544003
0.0076626414 0.013510867 -0.028396424
0.0036268425 0.018578645 -0.031230144
-0.0032486734 0.016477481 -0.024137028
-0.02611593 -0.059798401 0.050936799
-0.02611593 -0.059798401 0.050936799
-0.02611593 -0.059798401 0.050936799
-0.02611593 -0.059798401 0.050936799
0.0057025473 0.0044472204 -0.024522368
0.003625927 0.013561401 -0.030320585
-0.00039114698 0.018611088 -0.032154649
-0.0062855696 0.016524427 -0.026079983
-0.02611593 -0.059798401 0.050936799
-0.02611593 -0.059798401 0.050936799
-0.02611593 -0.059798401 0.050936799
-0.02611593 -0.059798401 0.050936799
0.001684556 0.0044796648 -0.025446862
-0.00039206212 0.013593846 -0.031245075
-0.0034093224 0.018639944 -0.033097945
-0.010251319 0.015502772 -0.024023514
-0.02611593 -0.059798401 0.050936799
-0.02611593 -0.059798401 0.050936799
-0.02611593 -0.059798401 0.050936799
-0.02611593 -0.059798401 0.050936799
-0.0013523386 0.00452661 -0.027389817
-0.0044100555 0.01362629 -0.03216958
-0.0074233874 0.019672219 -0.034004427
-0.013299085 0.017567461 -0.02693009
-0.02611593 -0.059798401 0.050936799
-0.02611593 -0.059798401 0.050936799
-0.02611593 -0.059798401 0.050936799
-0.02611593 -0.059798401 0.050936799
-0.0053664013 0.0055588852 -0.028296296
-0.0074282289 0.013655147 -0.033112876
-0.011441377 0.019704662 -0.034928925
-0.017313149 0.018599743 -0.027836565
-0.02611593 -0.059798401 0.050936799
-0.02611593 -0.059798401 0.050936799
-0.02611593 -0.059798401 0.050936799
-0.02611593 -0.059798401 0.050936799
-0.0093843928 0.0055913301 -0.029220793
-0.012412519 0.012655171 -0.032037277
-0.015407126 0.018683013 -0.032872461
-0.02024949 0.015538662 -0.023835607
-0.02611593 -0.059798401 0.050936799
-0.02611593 -0.059798401 0.050936799
-0.02611593 -0.059798401 0.050936799
-0.02611593 -0.059798401 0.050936799
-0.01338366 0.0056056855 -0.029145632
-0.015445488 0.013701946 -0.033962213
-0.019425116 0.018715456 -0.033796955
-0.024311867 0.018624866 -0.027705032
-0.02611593 -0.059798401 0.050936799
-0.02611593 -0.059798401 0.050936799
-0.02611593 -0.059798401 0.050936799
-0.02611593 -0.059798401 0.050936799
-0.017420376 0.0056562196 -0.031069785
-0.020429777 0.012701971 -0.032886617
-0.023361277 0.015657963 -0.029777206
-0.027292594 0.018617544 -0.026649002
-0.02611593 -0.059798401 0.050936799
-0.02611593 -0.059798401 0.050936799
-0.02611593 -0.059798401 0.050936799
-0.02611593 -0.059798401 0.050936799
-0.02611593 -0.059798401 0.050936799
-0.024429046 0.012716327 -0.032811455
-0.027423654 0.018744167 -0.033646632
-0.029214326 0.014534953 -0.021685194
-0.02611593 -0.059798401 0.050936799
-0.02611593 -0.059798401 0.050936799
-0.02611593 -0.059798401 0.050936799
-0.02611593 -0.059798401 0.050936799
-0.025400188 0.0056668418 -0.029919811
-0.027458087 0.014762933 -0.034718368
-0.030404381 0.018736843 -0.032590602
-0.033272773 0.018620988 -0.025536601
-0.02611593 -0.059798401 0.050936799
-0.02611593 -0.059798401 0.050936799
-0.02611593 -0.059798401 0.050936799
-0.02611593 -0.059798401 0.050936799
-0.02611593 -0.059798401 0.050936799
-0.030413151 0.011719941 -0.031717066
-0.034399722 0.019751031 -0.032497425
-0.036238711 0.017595738 -0.023498923
-0.02611593 -0.059798401 0.050936799
-0.02611593 -0.059798401 0.050936799
-0.02611593 -0.059798401 0.050936799
-0.02611593 -0.059798401 0.050936799
-0.02611593 -0.059798401 0.050936799
-0.034393694 0.011716207 -0.030642238
-0.038428582 0.021801218 -0.03438554
-0.039219435 0.017588416 -0.022442888
-0.02611593 -0.059798401 0.050936799
-0.02611593 -0.059798401 0.050936799
-0.02611593 -0.059798401 0.050936799
-0.02611593 -0.059798401 0.050936799
-0.02611593 -0.059798401 0.050936799
-0.038437352 0.014784322 -0.033512011
-0.04140931 0.021793896 -0.033329509
-0.043259159 0.021656362 -0.025294639
-0.02611593 -0.059798401 0.050936799
-0.02611593 -0.059798401 0.050936799
-0.02611593 -0.059798401 0.050936799
-0.02611593 -0.059798401 0.050936799
-0.02611593 -0.059798401 0.050936799
-0.042417895 0.014780589 -0.03243719
-0.045389853 0.021790162 -0.032254688
-0.044111028 0.011480762 -0.015459426
-0.02611593 -0.059798401 0.050936799
-0.02611593 -0.059798401 0.050936799
-0.02611593 -0.059798401 0.050936799
-0.02611593 -0.059798401 0.050936799
-0.043374244 0.0067131761 -0.028563894
-0.046394512 0.015776686 -0.031344343
-0.050414603 0.024843777 -0.034106001
-0.02611593 -0.059798401 0.050936799
-0.02611593 -0.059798401 0.050936799
-0.02611593 -0.059798401 0.050936799
-0.02611593 -0.059798401 0.050936799
-0.02611593 -0.059798401 0.050936799
-0.047369584 0.0077273701 -0.028470714
-0.051423188 0.017830463 -0.033213679
-0.054391224 0.025839875 -0.033013161
-0.02611593 -0.059798401 0.050936799
-0.02611593 -0.059798401 0.050936799
-0.02611593 -0.059798401 0.050936799
-0.02611593 -0.059798401 0.050936799
-0.02611593 -0.059798401 0.050936799
-0.051316611 0.0066876202 -0.025414594
-0.056462727 0.021901997 -0.036046639
-0.058401357 0.027871979 -0.033901621
-0.02611593 -0.059798401 0.050936799
-0.02611593 -0.059798401 0.050936799
-0.02611593 -0.059798401 0.050936799
-0.02611593 -0.059798401 0.050936799
-0.02611593 -0.059798401 0.050936799
-0.056374878 0.010777243 -0.029247213
-0.061439171 0.022901684 -0.034934998
-0.058230754 0.018674532 -0.023067512
-0.02611593 -0.059798401 0.050936799
-0.02611593 -0.059798401 0.050936799
-0.02611593 -0.059798401 0.050936799
-0.02611593 -0.059798401 0.050936799
-0.02611593 -0.059798401 0.050936799
-0.060336702 0.010755422 -0.027172722
-0.064382456 0.022858184 -0.031879649
-0.05911915 0.013552344 -0.01614118
-0.02611593 -0.059798401 0.050936799
-0.02611593 -0.059798401 0.050936799
-0.02611593 -0.059798401 0.050936799
-0.02611593 -0.059798401 0.050936799
-0.02611593 -0.059798401 0.050936799
-0.065342724 0.013790947 -0.028024372
-0.070403084 0.026915217 -0.033694152
-0.02611593 -0.059798401 0.050936799
-0.02611593 -0.059798401 0.050936799
-0.02611593 -0.059798401 0.050936799
-0.02611593 -0.059798401 0.050936799
-0.02611593 -0.059798401 0.050936799
-0.02611593 -0.059798401 0.050936799
-0.069285825 0.013751036 -0.024950232
-0.071276687 0.020775117 -0.025786184
-0.02611593 -0.059798401 0.050936799
-0.070103526 0.026625793 -0.017699573
-0.02611593 -0.059798401 0.050936799
-0.02611593 -0.059798401 0.050936799
-0.02611593 -0.059798401 0.050936799
-0.02611593 -0.059798401 0.050936799
-0.073281161 0.014765222 -0.024857055
-0.070135862 0.013609911 -0.016934153
-0.02611593 -0.059798401 0.050936799
-0.080219142 0.039822266 -0.026274376
-0.02611593 -0.059798401 0.050936799
-0.02611593 -0.059798401 0.050936799
-0.02611593 -0.059798401 0.050936799
-0.02611593 -0.059798401 0.050936799
-0.077224262 0.01472531 -0.021782909
-0.080240607 0.024788644 -0.024545334
-0.086292937 0.039916158 -0.030160278
-0.085202515 0.043839537 -0.026108347
-0.02611593 -0.059798401 0.050936799
-0.02611593 -0.059798401 0.050936799
-0.02611593 -0.059798401 0.050936799
-0.02611593 -0.059798401 0.050936799
-0.08423686 0.020785596 -0.023542579
-0.089297228 0.033909857 -0.029212348
-0.09126544 0.041915681 -0.029030621
-0.089156486 0.045817371 -0.023997832
-0.02611593 -0.059798401 0.050936799
-0.02611593 -0.059798401 0.050936799
-0.02611593 -0.059798401 0.050936799
-0.02611593 -0.059798401 0.050936799
-0.092268005 0.02686755 -0.02628313
-0.097309649 0.039973721 -0.030953251
-0.09724471 0.046936352 -0.028827786
-0.09615428 0.050859731 -0.024775866
-0.02611593 -0.059798401 0.050936799
-0.02611593 -0.059798401 0.050936799
-0.02611593 -0.059798401 0.050936799
-0.02611593 -0.059798401 0.050936799
-0.097221784 0.02884897 -0.024153821
-0.10327803 0.04297667 -0.02978678
-0.10422771 0.050960798 -0.028624177
-0.10012697 0.052855667 -0.023665003
-0.02611593 -0.059798401 0.050936799
-0.02611593 -0.059798401 0.050936799
-0.02611593 -0.059798401 0.050936799
-0.02611593 -0.059798401 0.050936799
-0.10521941 0.033894926 -0.024913061
-0.10719848 0.04391849 -0.025694955
-0.1091963 0.053960152 -0.027476516
-0.10812067 0.058901444 -0.024406228
-0.02611593 -0.059798401 0.050936799
-0.02611593 -0.059798401 0.050936799
-0.02611593 -0.059798401 0.050936799
-0.02611593 -0.059798401 0.050936799
-0.11420899 0.040944122 -0.02561748
-0.11923191 0.054032221 -0.029287931
-0.1171752 0.058988009 -0.0272361
-0.11611044 0.065947048 -0.025129437
-0.02611593 -0.059798401 0.050936799
-0.02611593 -0.059798401 0.050936799
-0.02611593 -0.059798401 0.050936799
-0.02611593 -0.059798401 0.050936799
-0.12117327 0.044950478 -0.024414212
-0.13023199 0.063106336 -0.030918393
-0.12513143 0.064997613 -0.025977999
-0.12004961 0.066906974 -0.022037271
-0.02611593 -0.059798401 0.050936799
-0.02611593 -0.059798401 0.050936799
-0.02611593 -0.059798401 0.050936799
-0.02611593 -0.059798401 0.050936799
-0.13416514 0.056031439 -0.025971051
-0.14121336 0.07216236 -0.031549193
-0.13308768 0.071007207 -0.024719905
-0.12902047 0.073938079 -0.021742024
-0.02611593 -0.059798401 0.050936799
-0.02611593 -0.059798401 0.050936799
-0.02611593 -0.059798401 0.050936799
-0.02611593 -0.059798401 0.050936799
-0.14411315 0.06404788 -0.024639335
-0.1501507 0.078157485 -0.029272646
-0.14506494 0.081066668 -0.025313891
-0.14202319 0.087036781 -0.024262495
-0.02611593 -0.059798401 0.050936799
-0.02611593 -0.059798401 0.050936799
-0.02611593 -0.059798401 0.050936799
-0.02611593 -0.059798401 0.050936799
-0.16009663 0.077139273 -0.026103776
-0.16411972 0.090223767 -0.029793017
-0.16106318 0.095175967 -0.027759973
-0.15097533 0.094049796 -0.022967588
-0.02611593 -0.059798401 0.050936799
-0.02611593 -0.059798401 0.050936799
-0.02611593 -0.059798401 0.050936799
-0.02611593 -0.059798401 0.050936799
-0.17405085 0.088187642 -0.025642503
-0.17704062 0.10023255 -0.027369231
-0.17198837 0.10417774 -0.025391787
-0.16394454 0.10611251 -0.023506749
-0.02611593 -0.059798401 0.050936799
-0.02611593 -0.059798401 0.050936799
-0.02611593 -0.059798401 0.050936799
-0.02611593 -0.059798401 0.050936799
-0.19097798 0.10122834 -0.024089158
-0.19397859 0.115291 -0.026779514
-0.18291357 0.11317953 -0.023023598
-0.17889072 0.11916414 -0.022990651
-0.02611593 -0.059798401 0.050936799
-0.02611593 -0.059798401 0.050936799
-0.02611593 -0.059798401 0.050936799
-0.02611593 -0.059798401 0.050936799
-0.21692032 0.12435392 -0.025185496
-0.20988716 0.12831004 -0.024245303
-0.20687504 0.13631602 -0.02515718
-0.19883512 0.13725094 -0.023290168
-0.02611593 -0.059798401 0.050936799
-0.02611593 -0.059798401 0.050936799
-0.02611593 -0.059798401 0.050936799
-0.02611593 -0.059798401 0.050936799
-0.24079993 0.14440049 -0.022374835
-0.2347962 0.15039602 -0.023379136
-0.22978833 0.15739498 -0.024346609
-0.21475452 0.15228771 -0.021719582
-0.02611593 -0.059798401 0.050936799
-0.02611593 -0.059798401 0.050936799
-0.02611593 -0.059798401 0.050936799
-0.02611593 -0.059798401 0.050936799
-0.77581292 0.64819872 -0.16729389
-0.26568055 0.17850253 -0.022292111
-0.25667042 0.18146971 -0.02240717
-0.23965962 0.17537354 -0.020835396
-0.78047103 0.64889091 -0.14918801
-0.02611593 -0.059798401 0.050936799
-0.02611593 -0.059798401 0.050936799
-0.02611593 -0.059798401 0.050936799
-0.78012317 0.64654756 -0.13023049
-0.75017989 0.65251118 -0.13468474
-0.7132172 0.64939696 -0.13643371
-0.26552317 0.19942661 -0.017915078
-0.78576934 0.65024275 -0.11205178
-0.75086927 0.65020752 -0.11770774
-0.71893138 0.65014702 -0.12130803
-0.02611593 -0.059798401 0.050936799
-0.7824111 0.64587086 -0.092187002
-0.75054407 0.64688247 -0.099767901
-0.72164994 0.64988643 -0.10625674
-0.69276369 0.65089071 -0.1127816
-0.78307396 0.64554888 -0.0741743
-0.75324005 0.64760369 -0.083698928
-0.72437251 0.64862603 -0.091223463
-0.69350231 0.6456238 -0.097857997
-0.78772426 0.64824075 -0.056032397
-0.75691712 0.64831036 -0.066611513
-0.72908288 0.65037233 -0.076098554
-0.69924992 0.64740992 -0.084713623
-0.78539151 0.6469081 -0.038094096
-0.75859845 0.64800996 -0.04957971
-0.73479313 0.6521222 -0.060954861
-0.70400172 0.64819252 -0.071606062
-0.78603166 0.64756781 -0.019063734
-0.76029468 0.6487276 -0.03352952
-0.73149896 0.64580494 -0.04412511
-0.70672816 0.6459322 -0.05659081
-0.78669059 0.64824563 -0.001033023
-0.75998032 0.64742023 -0.01655329
-0.73122597 0.64353395 -0.029166229
-0.71545964 0.65172839 -0.043317989
-0.77937448 0.64289582 0.016739253
-0.75866616 0.64610934 0.00040413439
-0.73692828 0.64728343 -0.013986498
-0.71718621 0.64946461 -0.028321527
-0.78202122 0.64658028 0.034861598
-0.75834787 0.64580184 0.017398372
-0.74263072 0.65103298 0.0011932328
-0.71892762 0.64821863 -0.014306709
-0.77570099 0.64223379 0.05267068
-0.75902939 0.64549792 0.034411397
-0.74333096 0.65074712 0.017206602
-0.72166502 0.64797616 -0.00025507808
-0.77437896 0.64292252 0.06966415
-0.75872588 0.64620829 0.050423998
-0.74404997 0.65047944 0.032220304
-0.72437966 0.64871544 0.014814232
-0.77205718 0.64360768 0.086638823
-0.75641185 0.64489377 0.067362636
-0.7377789 0.64316958 0.047976017
-0.72510648 0.64644808 0.029791899
-0.76973528 0.64429277 0.1036135
-0.75413531 0.64361542 0.082301952
-0.74046701 0.64589041 0.064081021
-0.72684407 0.64620197 0.043824732
-0.76739472 0.64495987 0.12158784
-0.75181735 0.64330071 0.099258602
-0.73819834 0.64261246 0.078984305
-0.72457927 0.6419242 0.058709994
-0.76108539 0.64263111 0.13843329
-0.75051409 0.64400756 0.11525241
-0.73691767 0.6423375 0.093960427
-0.72828984 0.64366674 0.073816106
-0.75576806 0.64230567 0.15533358
-0.7482149 0.64371097 0.1312094
-0.73761398 0.64305151 0.10999181
-0.7300235 0.64442062 0.087866962
-0.74848151 0.63899171 0.17114256
-0.74292415 0.64140391 0.147074
-0.73733318 0.64278018 0.12498672
-0.72775477 0.64114255 0.10277024
-0.74318284 0.63868433 0.18704319
-0.7406249 0.64110726 0.163031
-0.73503792 0.64148372 0.14092571
-0.73146135 0.64388508 0.11789437
-0.74084932 0.64236897 0.20407194
-0.73333836 0.6377933 0.17883998
-0.73375332 0.64220864 0.15591985
-0.72918886 0.64160693 0.13281567
-0.7335549 0.64105451 0.21991697
-0.7330271 0.64050335 0.19488862
-0.73145407 0.64191204 0.17187685
-0.72791207 0.64033222 0.14777377
-0.72726041 0.63974375 0.23578078
-0.72575539 0.63820726 0.20971596
-0.72718185 0.63962674 0.18676056
-0.73458761 0.64606684 0.16400801
-0.71699309 0.63643706 0.25053373
-0.72444814 0.63991386 0.2257278
-0.72490144 0.63934815 0.2017179
-0.73231107 0.6447885 0.17894731
-0.71368229 0.63913631 0.26652598
-0.72014534 0.64060986 0.24166521
-0.72162503 0.63806629 0.21663843
-0.73003453 0.6435101 0.19388664
-0.7054069 0.63783646 0.28135255
-0.7109006 0.636325 0.25541928
-0.71931797 0.63976926 0.23263147
-0.72676212 0.64122838 0.20878914
-0.69812733 0.63754004 0.29621592
-0.70659786 0.63702118 0.2713567
-0.71504182 0.63848376 0.2475332
-0.72546273 0.6409353 0.22476494
-0.68787485 0.63525122 0.30998725
-0.69934481 0.63474303 0.28518441
-0.70779669 0.63420606 0.26132485
-0.72318226 0.64065683 0.23972228
-0.67961425 0.63496923 0.32383215
-0.69503427 0.63743877 0.30115786
-0.70748144 0.63791603 0.27739149
-0.71990985 0.6383751 0.25462478
-0.67135352 0.63468724 0.33767712
-0.68383515 0.63118327 0.312839
-0.70220149 0.63762671 0.29229248
-0.71661085 0.63807493 0.27056301
-0.66309291 0.63440531 0.35152203
-0.68052042 0.63488239 0.32884926
-0.69789875 0.63832277 0.30822986
-0.71036154 0.63480055 0.28439143
-0.65285528 0.63313442 0.3643117
-0.67819768 0.64058477 0.34491438
-0.69066834 0.63506293 0.32103992
-0.70805842 0.63550389 0.30036646
-0.64754093 0.6368264 0.38028443
-0.66797185 0.63631445 0.35764998
-0.68736154 0.6367625 0.33701414
-0.70180923 0.63222963 0.31419492
-0.63140678 0.62860751 0.38883656
-0.65576893 0.63105512 0.36933035
-0.68108183 0.6364696 0.35189629
-0.6965332 0.63094056 0.32907784
-0.62411541 0.63131058 0.403754
-0.65245432 0.6347543 0.38534063
-0.67087853 0.63121748 0.36361423
-0.69819492 0.63563931 0.34619978
-0.61489236 0.6310612 0.41558081
-0.64223921 0.6325016 0.39711261
-0.66756773 0.6339168 0.37960649
-0.69291508 0.63535005 0.36110073
-0.60464692 0.63178998 0.42840654
-0.63397861 0.63221961 0.41095755
-0.66130286 0.63464189 0.39350703
-0.68958944 0.63703138 0.37807465
-0.59247369 0.62856656 0.43812361
-0.62475944 0.63097048 0.42276636
-0.65402716 0.63334554 0.4083524
-0.68233645 0.63475341 0.39190233
-0.58520103 0.63128763 0.45204136
-0.61649495 0.6316883 0.4366293
-0.6447894 0.63207823 0.42116085
-0.6750834 0.63247526 0.40573001
-0.57302386 0.62906402 0.46177649
-0.60922623 0.63340968 0.45052904
-0.63950163 0.63378865 0.43609786
-0.67175388 0.63515657 0.42272192
-0.56084281 0.62784028 0.47152957
-0.59605706 0.62918276 0.46020931
-0.62829459 0.62953275 0.447815
-0.66055089 0.62990087 0.43442106
-0.55063868 0.62760538 0.48233795
-0.58683407 0.62893337 0.47203615
-0.6200527 0.62926888 0.46066028
-0.65721744 0.63358194 0.45143098
-0.53845358 0.62738144 0.49210906
-0.575638 0.62669528 0.4827897
-0.6118108 0.62900501 0.47350556
-0.64698768 0.63031137 0.46418464
-0.53117704 0.63110232 0.50604486
-0.56838405 0.62943447 0.49570778
-0.6015771 0.62673432 0.48627722
-0.64070791 0.63001847 0.47906685
-0.51998794 0.63188189 0.51585275
-0.555215 0.6252076 0.50538808
-0.59333128 0.62747031 0.49914053
-0.63342834 0.629722 0.49393019
-0.50685233 0.62869096 0.52355176
-0.54893428 0.62993193 0.51936066
-0.58506268 0.629188 0.51302147
-0.62514508 0.63042176 0.50879282
-0.49271682 0.62549651 0.53123188
-0.53870749 0.63067883 0.5311867
-0.57582486 0.62792069 0.52582991
-0.6188575 0.63212866 0.52371103
-0.48154646 0.62629408 0.54004019
-0.52849954 0.63144386 0.54201311
-0.56462485 0.62668246 0.53660148
-0.60860103 0.63083965 0.53750038
-0.46938407 0.62508833 0.54879361
-0.5172956 0.63120544 0.55280262
-0.55440599 0.62542957 0.54839146
-0.59736758 0.62856537 0.55025321
-0.45821366 0.62588596 0.55760193
-0.50219077 0.62502587 0.55941033
-0.54416043 0.62615842 0.56121719
-0.58810711 0.62827981 0.5640794
-0.44897097 0.63063574 0.5695188
-0.49295598 0.62777603 0.57129121
-0.5339337 0.62690526 0.57304323
-0.57689238 0.62602359 0.57583255
-0.43586889 0.62848079 0.57523644
-0.47882056 0.62458163 0.57897139
-0.52273762 0.62466717 0.58379674
-0.56762791 0.62673783 0.58967668
-0.42272151 0.62828946 0.58298951
-0.46958578 0.62733173 0.59085226
-0.51248819 0.62639576 0.59664053
-0.55834478 0.62743407 0.60452056
-0.40961939 0.62613463 0.58870715
-0.45839661 0.62811112 0.60066015
-0.4993526 0.62320495 0.60433948
-0.54514909 0.62518883 0.61523646
-0.39746785 0.62694663 0.59649694
-0.44720352 0.6298905 0.61048609
-0.49201199 0.62887126 0.62131029
-0.5348888 0.62489969 0.62904388
-0.38338861 0.62380648 0.60117817
-0.43503723 0.62968463 0.61925757
-0.47982702 0.62864727 0.63108146
-0.52267021 0.62363964 0.64079624
-0.37125975 0.62363684 0.60795027
-0.41994336 0.62552291 0.62490165
-0.46666867 0.62643814 0.63979805
-0.51140231 0.6253466 0.65462089
-0.02611593 -0.059798401 0.050936799
-0.40777707 0.6253171 0.63367313
-0.45348778 0.62521076 0.64953232
-0.50113416 0.62705714 0.66846424
-0.02611593 -0.059798401 0.050936799
-0.39464837 0.62514377 0.6404264
-0.44032559 0.62400156 0.65826702
-0.48598412 0.62284112 0.67710727
-0.02611593 -0.059798401 0.050936799
-0.37957326 0.62100017 0.64507085
-0.42618623 0.62180692 0.66596526
-0.47278053 0.62259555 0.68785924
-0.02611593 -0.059798401 0.050936799
-0.3712585 0.62969857 0.66007751
-0.41397464 0.62356454 0.676772
-0.46150863 0.62530226 0.70170188
-0.02611593 -0.059798401 0.050936799
-0.356206 0.62457329 0.66370428
-0.39888072 0.61940283 0.68241602
-0.44730917 0.62405324 0.71241701
-0.02611593 -0.059798401 0.050936799
-0.34405056 0.62638509 0.67151213
-0.38664651 0.6221422 0.69424057
-0.43408296 0.62478936 0.72418672
-0.02611593 -0.059798401 0.050936799
-0.32994464 0.6252265 0.67722899
-0.37443092 0.62489963 0.70506537
-0.4189477 0.62159127 0.73184812
-0.02611593 -0.059798401 0.050936799
-0.31679338 0.62603498 0.685
-0.3602837 0.62470466 0.71279967
-0.40376323 0.62135655 0.7415629
-0.02611593 -0.059798401 0.050936799
-0.3036834 0.62587976 0.69075364
-0.34614044 0.62350988 0.72051585
-0.38860139 0.62014014 0.75026
-0.02611593 -0.059798401 0.050936799
-0.28957364 0.62572098 0.69648862
-0.33199322 0.62331492 0.72825003
-0.37439013 0.6218906 0.76102918
-0.02611593 -0.059798401 0.050936799
-0.27360013 0.61966461 0.69607985
-0.31593305 0.62018567 0.73189396
-0.36018282 0.62264115 0.77178037
-0.02611593 -0.059798401 0.050936799
-0.26139548 0.62443978 0.70594108
-0.3008047 0.62000519 0.73860973
-0.34404382 0.62043935 0.779441
-0.02611593 -0.059798401 0.050936799
-0.24637252 0.62135029 0.70760447
-0.28569907 0.61884296 0.74430782
-0.32789695 0.62023717 0.78713763
-0.02611593 -0.059798401 0.050936799
-0.23228149 0.62120962 0.7123397
-0.27157056 0.61866605 0.75104243
-0.31175011 0.62003511 0.79483432
-0.02611593 -0.059798401 0.050936799
-0.21823573 0.6191054 0.71503955
-0.25739282 0.62145257 0.7598303
-0.29562595 0.61885124 0.8015132
-0.02611593 -0.059798401 0.050936799
-0.20507264 0.62291336 0.72286469
-0.24039689 0.61637437 0.7604205
-0.2785472 0.6157003 0.80613804
-0.02611593 -0.059798401 0.050936799
-0.19095108 0.62575412 0.72865361
-0.2261965 0.62014252 0.77022612
-0.26233241 0.61844337 0.81688774
-0.02611593 -0.059798401 0.050936799
-0.17596953 0.621701 0.72829968
-0.21110563 0.61999822 0.77494252
-0.24337815 0.61239433 0.81542301
-0.02611593 -0.059798401 0.050936799
-0.16278374 0.62649065 0.7371425
-0.19503757 0.61886859 0.77862257
-0.22811788 0.61710441 0.82822675
-0.02611593 -0.059798401 0.050936799
-0.14686643 0.62048852 0.73373473
-0.17896563 0.61873883 0.78232056
-0.21100865 0.6169349 0.83390534
-0.02611593 -0.059798401 0.050936799
-0.13192624 0.61547172 0.73136342
-0.162871 0.61959076 0.78703618
-0.19391815 0.61678338 0.83858418
-0.02611593 -0.059798401 0.050936799
-0.11866468 0.62520629 0.74329525
-0.14775357 0.62142807 0.79278833
-0.17585048 0.6156466 0.84222662
-0.02611593 -0.059798401 0.050936799
-0.10369793 0.62217104 0.74195969
-0.13170426 0.62031662 0.79546869
-0.15778281 0.61450988 0.84586895
-0.02611593 -0.059798401 0.050936799
-0.088685885 0.62109935 0.74265945
-0.11467384 0.61921954 0.79713053
-0.14062436 0.61730367 0.8536008
-0.02611593 -0.059798401 0.050936799
-0.074583046 0.62395805 0.7474488
-0.098620608 0.61910784 0.79982889
-0.12266208 0.61325777 0.85219091
-0.02611593 -0.059798401 0.050936799
-0.059635021 0.62094092 0.74511355
-0.082654029 0.61606902 0.79847449
-0.10452254 0.61606604 0.85890436
-0.02611593 -0.059798401 0.050936799
-0.045668088 0.61790925 0.74379683
-0.065570474 0.61893517 0.80220771
-0.086488388 0.61596531 0.86056542
-0.02611593 -0.059798401 0.050936799
-0.030512277 0.62472761 0.75063866
-0.049603909 0.61589628 0.80085337
-0.068458162 0.61486471 0.86220849
-0.02611593 -0.059798401 0.050936799
-0.015582972 0.6217286 0.74730378
-0.033524089 0.6177662 0.80458742
-0.049469493 0.61279684 0.86181545
-0.02611593 -0.059798401 0.050936799
-0.0026119286 0.61970031 0.74602377
-0.016617801 0.61377817 0.80019724
-0.03145799 0.6117143 0.86245888
-0.02611593 -0.059798401 0.050936799
0.012389252 0.62064636 0.74575996
-0.0016884943 0.61077923 0.79686236
-0.01235215 0.61555499 0.86717224
-0.02611593 -0.059798401 0.050936799
0.027363855 0.61961079 0.7444604
0.015463017 0.6165905 0.80364865
0.0045955135 0.61253065 0.86479938
-0.02611593 -0.059798401 0.050936799
0.042429067 0.62250215 0.7472316
0.032459907 0.61652946 0.80332923
0.023550663 0.61149883 0.86242503
-0.02611593 -0.059798401 0.050936799
0.056339826 0.61952478 0.74291581
0.048438255 0.61649019 0.80202889
0.041570023 0.61241591 0.86310452
-0.02611593 -0.059798401 0.050936799
0.070281103 0.61952883 0.73965377
0.065416425 0.61644721 0.80070984
0.060543887 0.61136603 0.8617298
-0.02611593 -0.059798401 0.050936799
0.086327404 0.62243468 0.74140656
0.081372119 0.61542618 0.79839176
0.07950297 0.61133403 0.85937345
-0.02611593 -0.059798401 0.050936799
0.09919697 0.61849731 0.73509222
0.098444827 0.62031007 0.80116147
0.09741693 0.60934222 0.85500056
-0.02611593 -0.059798401 0.050936799
0.11415286 0.61747974 0.73279297
0.11429119 0.61538011 0.79377306
0.11651191 0.61520052 0.85875028
-0.02611593 -0.059798401 0.050936799
0.12811677 0.6184656 0.73054862
0.1302321 0.61537695 0.79047346
0.13438058 0.61124521 0.85234201
-0.02611593 -0.059798401 0.050936799
0.14305787 0.61846596 0.72726774
0.14721812 0.61733371 0.78919035
0.15227973 0.61027122 0.84698749
-0.02611593 -0.059798401 0.050936799
0.1580669 0.62141162 0.72703993
0.16418147 0.61830866 0.78688961
0.17126933 0.61322063 0.84568489
-0.02611593 -0.059798401 0.050936799
0.16983125 0.61456871 0.7156921
0.18112615 0.61930186 0.78358918
0.18916848 0.61224657 0.8403303
-0.02611593 -0.059798401 0.050936799
0.18482158 0.61753243 0.7144646
0.19598055 0.61637503 0.77625573
0.2080901 0.61225075 0.83597463
-0.02611593 -0.059798401 0.050936799
0.19978924 0.61951447 0.71221948
0.21295179 0.61934978 0.77399099
0.22495201 0.6113165 0.82863951
-0.02611593 -0.059798401 0.050936799
0.21370786 0.61853677 0.70793974
0.22887395 0.61936468 0.76969171
0.24283247 0.61036068 0.82228529
-0.02611593 -0.059798401 0.050936799
0.22866073 0.62153667 0.70471299
0.24369092 0.61647409 0.76035881
0.26073951 0.61138636 0.81696677
-0.02611593 -0.059798401 0.050936799
0.24047041 0.61665732 0.69540048
0.25957566 0.61652523 0.75406021
0.27760139 0.61045212 0.80963171
-0.02611593 -0.059798401 0.050936799
0.25541934 0.61865735 0.6921556
0.27550572 0.61853981 0.74979693
0.29649341 0.61249208 0.80331272
-0.02611593 -0.059798401 0.050936799
0.26828197 0.61773753 0.68489569
0.29139042 0.61859095 0.74349833
0.31231806 0.61159766 0.79399711
-0.02611593 -0.059798401 0.050936799
0.28218579 0.61777771 0.67963427
0.30518889 0.61572212 0.73318458
0.32811615 0.60872161 0.78364581
-0.02611593 -0.059798401 0.050936799
0.29402989 0.61687952 0.67139357
0.32110018 0.61775482 0.72792172
0.34496322 0.60880536 0.77532911
-0.02611593 -0.059798401 0.050936799
0.30793765 0.6179195 0.66615021
0.33283496 0.61294776 0.71461052
0.36388189 0.61282688 0.77004582
-0.02611593 -0.059798401 0.050936799
0.32080421 0.61799949 0.65890825
0.34872365 0.61399865 0.70832998
0.37762415 0.61001241 0.75673312
-0.02611593 -0.059798401 0.050936799
0.3346706 0.61807585 0.65164763
0.36255258 0.61411124 0.69906992
0.39549759 0.61207402 0.74943334
-0.02611593 -0.059798401 0.050936799
0.34651077 0.61617792 0.64338875
0.37742269 0.61518389 0.69180846
0.40822133 0.60928112 0.73513979
-0.02611593 -0.059798401 0.050936799
0.35419706 0.60842186 0.62809944
0.39125162 0.61529648 0.6825484
0.42300871 0.60842639 0.72384357
-0.02611593 -0.059798401 0.050936799
0.36396962 0.60358578 0.6168251
0.40508056 0.61540902 0.6732884
0.44193521 0.61444771 0.71859634
-0.02611593 -0.059798401 0.050936799
0.37579501 0.60270578 0.6075846
0.42095831 0.61847764 0.66604418
0.45360988 0.60869497 0.70226818
-0.02611593 -0.059798401 0.050936799
0.39385363 0.61362118 0.60844427
0.42860717 0.61075789 0.64875549
0.47251761 0.61473435 0.69602138
-0.02611593 -0.059798401 0.050936799
0.4005174 0.60488695 0.59215605
0.44241738 0.61088848 0.6384958
0.48320037 0.61098504 0.679748
-0.02611593 -0.059798401 0.050936799
0.41648585 0.61188269 0.58898252
0.45520905 0.61104083 0.62725526
0.49490556 0.60821378 0.66447353
-0.02611593 -0.059798401 0.050936799
0.43038663 0.61594021 0.58279353
0.46801946 0.61117506 0.61701441
0.50866354 0.60939854 0.65123284
-0.02611593 -0.059798401 0.050936799
0.44221985 0.61705983 0.57358915
0.4808377 0.61330891 0.6068095
0.52243632 0.60956532 0.63897389
-0.02611593 -0.059798401 0.050936799
0.45302671 0.6162014 0.56336784
0.49365208 0.614443 0.59658664
0.5351944 0.61075372 0.62575203
