# .PCD v0.7 - Point Cloud Data file format
VERSION 0.7
FIELDS x y z
SIZE 4 4 4
TYPE F F F
COUNT 1 1 1
WIDTH 1392
HEIGHT 1
VIEWPOINT 0 0 0 1 0 0 0
POINTS 1392
DATA ascii
0.61406177 0.58615339 1.4741179
0.54278809 0.59952617 1.1915987
0.56811899 0.59012091 1.2639786
0.59964788 0.58351272 1.3462967
0.62689477 0.56715572 1.4155141
0.56447262 0.59673721 1.1751364
0.59907681 0.59506315 1.2604873
0.63254523 0.58750212 1.3397508
0.67628568 0.58265156 1.4328756
0.58930749 0.5988099 1.1657058
0.61958134 0.58944094 1.2349931
0.66017652 0.58574569 1.320195
0.71106631 0.58574247 1.4202762
0.60687268 0.59414411 1.1432849
0.65152407 0.59539753 1.2305012
0.6878531 0.58595276 1.3026747
0.73860008 0.58307666 1.395704
0.63583469 0.60009331 1.1398492
0.67002904 0.58978254 1.2050445
0.71552575 0.5851599 1.2851362
0.77229828 0.58424395 1.3790885
0.65550488 0.59832937 1.1224431
0.69991219 0.59480059 1.1975733
0.74320626 0.58636677 1.2676338
0.80397803 0.5854364 1.3615111
0.6792798 0.59946012 1.1100141
0.71943945 0.59016383 1.1731154
0.77088284 0.58657378 1.2501136
0.83560169 0.58668315 1.3409346
0.70097619 0.59967065 1.0936062
0.75338978 0.59811282 1.1686221
0.798522 0.58681697 1.2305938
0.86418056 0.5859772 1.318379
0.72062767 0.59792477 1.0752004
0.76781267 0.59058493 1.1392059
0.82516527 0.58806366 1.2111111
0.89272583 0.58630729 1.2938423
0.74236542 0.59909892 1.0608099
0.79970324 0.59759551 1.1317332
0.84978223 0.58733582 1.1906301
0.92028624 0.58562303 1.2703059
0.76306206 0.59931296 1.0444207
0.81411135 0.59108555 1.1013353
0.87026119 0.58474934 1.1631904
0.94885421 0.5869348 1.2467868
0.77965009 0.59563249 1.0230362
0.84191602 0.59518337 1.089885
0.89998662 0.58791262 1.1476859
0.976381 0.58728653 1.2212692
0.80032796 0.59586459 1.0056474
0.85736918 0.59063327 1.0615038
0.92357028 0.58822435 1.1252425
1.000867 0.58668536 1.1937906
0.8230921 0.59901679 0.99227375
0.88615882 0.59574544 1.049053
0.94713521 0.58855426 1.1017992
1.0274127 0.58702266 1.1692914
0.84172904 0.59829241 0.97290516
0.89958972 0.59022081 1.0196917
0.96967781 0.58790606 1.0773571
1.053925 0.58839589 1.1428108
0.86241078 0.59952444 0.95553422
0.92940193 0.59631109 1.0082397
0.99122441 0.58826125 1.0529517
1.0763925 0.58781999 1.1143701
0.87800288 0.5968473 0.93418676
0.94388187 0.59374619 0.98091304
1.0147933 0.58959103 1.0295267
1.096819 0.58628768 1.0839497
0.89870739 0.59906107 0.91783357
0.96652585 0.59500712 0.96150529
1.0353402 0.58994973 1.0051402
1.1233393 0.58966053 1.0575052
0.91737074 0.60031837 0.89950061
0.98306555 0.59338057 0.93715793
1.056868 0.59032309 0.97973526
1.1417474 0.58815342 1.0261226
0.93497044 0.59963375 0.87815154
1.0046949 0.59566301 0.91678739
1.0774001 0.59169972 0.95436716
1.1672637 0.5905301 0.99967885
0.95159286 0.59993446 0.85783887
1.018175 0.59310174 0.88947946
1.0928423 0.58916742 0.9250223
1.1876835 0.59201533 0.96831274
0.96615165 0.59829706 0.8345288
1.0418305 0.59735858 0.870107
1.1143782 0.59154034 0.89965338
1.2040733 0.59053349 0.93596822
0.98074788 0.59662348 0.81321794
1.0543109 0.59480089 0.84281778
1.1338876 0.59193885 0.87328643
1.2224895 0.59102607 0.90462172
1.0054859 0.60280406 0.79786146
1.0759256 0.59810126 0.82146555
1.1483381 0.59140974 0.84399635
1.2419281 0.59249681 0.87427402
1.0210673 0.60214478 0.77555025
1.0863649 0.59458709 0.79219663
1.168874 0.59378624 0.81864625
1.2603482 0.59398919 0.84294558
1.0397159 0.60441989 0.75623566
1.111043 0.5998221 0.77382302
1.1823059 0.59327888 0.78837538
1.2747276 0.59453231 0.80967492
1.0492154 0.6018548 0.73000252
1.1184413 0.59535503 0.74259311
1.1987824 0.59472424 0.76008344
1.292129 0.59604639 0.77736557
1.0648006 0.60219538 0.70770937
1.1390414 0.59967685 0.72027808
1.2122331 0.59419876 0.73081219
1.3024639 0.59464037 0.74213463
1.0803899 0.60353577 0.68543416
1.1505296 0.59912241 0.69304371
1.2287136 0.59664381 0.70253825
1.3178657 0.5961616 0.70986283
1.0939565 0.60390162 0.66217893
1.1691074 0.6024698 0.66974854
1.2421492 0.59713626 0.67228538
1.3322678 0.59768647 0.67760986
1.1085459 0.60524553 0.6399225
1.1765286 0.59898442 0.63953626
1.2535855 0.59763587 0.64207
1.3446329 0.59925467 0.64339513
1.1261387 0.60757852 0.61762774
1.1981362 0.60530239 0.61723846
1.2660215 0.5981319 0.61183596
1.352972 0.59885567 0.6082198
1.1417315 0.60991877 0.59537065
1.2015355 0.60084963 0.58608371
1.2784613 0.59962773 0.58161986
1.3663595 0.60140198 0.57500398
1.1532613 0.61032796 0.57015359
1.2241243 0.60718215 0.56276745
1.2979717 0.60504353 0.55434322
1.3747213 0.60198474 0.54084641
1.1607465 0.60878789 0.54297638
1.2214792 0.60078746 0.52969009
1.2942747 0.59970647 0.51830369
1.3830682 0.60358542 0.5057072
1.1581497 0.60033929 0.51286197
1.2370012 0.60419983 0.5034523
1.317811 0.60708946 0.49198771
1.3894076 0.60319352 0.47056949
1.1807799 0.60763544 0.49156302
1.243453 0.60369939 0.47431257
1.3111106 0.60076344 0.45598656
1.3957551 0.60480142 0.43546784
1.1771913 0.60119003 0.46150345
1.2610013 0.60908622 0.4490729
1.3286027 0.60620445 0.42774788
1.3980953 0.60442388 0.40040532
1.2018437 0.60946077 0.44118461
1.2613825 0.6046623 0.41697484
1.325932 0.60284543 0.39272523
1.4024429 0.60603893 0.36534125
1.2143809 0.611866 0.41598481
1.2738863 0.60810357 0.38979381
1.3424096 0.609308 0.36352375
1.3977352 0.60272324 0.32835686
1.2188481 0.6103549 0.38786435
1.2732941 0.60566479 0.35875025
1.3357506 0.60394561 0.3295399
1.1618779 0.492993 0.25276223
1.2273597 0.61079288 0.36170402
1.2918274 0.61206591 0.33251017
1.3512095 0.61042982 0.29935753
1.1382171 0.48167464 0.21998936
1.2378787 0.61322343 0.3355422
1.2852058 0.60666734 0.30052564
1.1264998 0.5005154 0.23155348
1.1266378 0.47725761 0.19011614
1.2302868 0.60579252 0.30553973
1.2796067 0.60224694 0.26954001
1.1340232 0.5039565 0.205466
0.823008 0.33645108 0.13323458
1.2498428 0.61317176 0.28029853
1.1283089 0.52377564 0.2169354
-0.02611593 -0.059798401 0.050936799
0.72329855 0.29033896 0.10525779
1.2362441 0.60376287 0.25037277
0.95206612 0.43430558 0.16960068
0.71651155 0.30119941 0.11458448
0.7279911 0.29362801 0.088223666
1.1392444 0.55089438 0.20821825
0.82012635 0.36645678 0.1338315
0.72320372 0.3044813 0.097512767
0.72663945 0.29497516 0.069266908
-0.02611593 -0.059798401 0.050936799
0.71943486 0.31531289 0.10778274
0.72789627 0.30777034 0.080478631
0.72430289 0.2953079 0.051310591
0.7166698 0.32714072 0.11805195
0.71911657 0.31562042 0.090788499
0.72657818 0.30808148 0.063503183
0.72899544 0.29859698 0.034276456
0.71636635 0.32643032 0.10203935
0.72580886 0.31890228 0.073716789
0.72624511 0.30940691 0.045527302
0.73066986 0.30191487 0.016299028
0.7230773 0.32969412 0.085967287
0.72348702 0.31821716 0.056742109
0.73395985 0.31366694 0.029454473
0.73334414 0.30522925 -0.0016971901
0.72277379 0.32898369 0.069954693
0.72719455 0.32049188 0.040708408
0.73863369 0.31697407 0.011420671
0.73800713 0.31055412 -0.020694613
0.72645867 0.33027673 0.052903313
0.72988361 0.32278827 0.023693835
0.73830456 0.31929934 -0.0065371878
0.74466974 0.31587183 -0.039729603
0.72717762 0.33054447 0.037889607
0.73958701 0.32905892 0.0066197999
0.73897517 0.32162103 -0.024513848
0.74832892 0.3202005 -0.058726255
0.72986668 0.33284086 0.020875037
0.73825026 0.32938808 -0.011355307
0.74164939 0.32493532 -0.042510059
0.74898881 0.3245399 -0.077666536
0.73355156 0.33413383 0.0038236566
0.74493158 0.33468771 -0.029390644
0.74132025 0.32726061 -0.060467917
0.75563657 0.33087555 -0.097683184
0.73524082 0.33643383 -0.013172131
0.74660206 0.33700579 -0.047386095
0.75297499 0.33557793 -0.080542475
0.75926626 0.33724007 -0.11864311
0.74392176 0.3417263 -0.031245053
0.74729145 0.33930942 -0.064363085
0.75363094 0.33891752 -0.09950079
0.76391447 0.34358284 -0.13862218
0.74560714 0.34302649 -0.048258852
0.7519505 0.34363449 -0.083378538
0.75827909 0.34526038 -0.11947985
0.76453674 0.34795851 -0.15956177
0.7472775 0.34534451 -0.066254288
0.75460988 0.34796667 -0.10235637
0.75592762 0.34661105 -0.13841781
0.61071974 0.27308977 -0.13402757
0.75195527 0.34965155 -0.084270082
0.75726545 0.35129914 -0.12135226
0.76256078 0.35396463 -0.15941608
0.58551657 0.26334402 -0.14273492
0.75260723 0.35199127 -0.10324639
0.75892115 0.35463512 -0.14032935
0.68446714 0.3172147 -0.15661779
0.20887147 0.065744311 -0.029219024
0.75227416 0.35331669 -0.12122227
0.76555419 0.36198866 -0.16132763
0.60247481 0.27737105 -0.14780042
0.20179002 0.063842125 -0.033122174
0.75394464 0.35563478 -0.1392177
0.70142543 0.3312417 -0.16168328
0.21384883 0.06976185 -0.031240225
-0.02611593 -0.059798401 0.050936799
0.7605738 0.36198851 -0.160234
-0.02611593 -0.059798401 0.050936799
0.19980909 0.063831218 -0.032084927
0.16975567 0.048941433 -0.031791486
0.70142937 0.33224154 -0.16166526
-0.02611593 -0.059798401 0.050936799
-0.02611593 -0.059798401 0.050936799
-0.02611593 -0.059798401 0.050936799
0.59750229 0.27937058 -0.14667076
-0.02611593 -0.059798401 0.050936799
0.17176315 0.050933909 -0.031793032
0.14572078 0.039029259 -0.031520698
0.20988306 0.068740204 -0.02918376
0.19076151 0.0609002 -0.033969186
-0.02611593 -0.059798401 0.050936799
-0.02611593 -0.059798401 0.050936799
0.20181659 0.065823704 -0.032086469
-0.02611593 -0.059798401 0.050936799
0.14672452 0.040025502 -0.031521469
0.12866288 0.033127476 -0.033308685
-0.02611593 -0.059798401 0.050936799
0.16073073 0.04699216 -0.032658074
-0.02611593 -0.059798401 0.050936799
-0.02611593 -0.059798401 0.050936799
0.17176315 0.050933909 -0.031793032
-0.02611593 -0.059798401 0.050936799
0.12671158 0.03108073 -0.030308165
0.10966846 0.024161018 -0.031114519
-0.02611593 -0.059798401 0.050936799
0.1396953 0.037069231 -0.032443658
-0.02611593 -0.059798401 0.050936799
-0.02611593 -0.059798401 0.050936799
0.14573951 0.039011173 -0.030521039
-0.02611593 -0.059798401 0.050936799
0.11066826 0.024157427 -0.031133309
0.094666362 0.018197784 -0.029941108
-0.02611593 -0.059798401 0.050936799
0.12068217 0.028120853 -0.031249136
-0.02611593 -0.059798401 0.050936799
-0.02611593 -0.059798401 0.050936799
0.1296923 0.031088054 -0.031364199
-0.02611593 -0.059798401 0.050936799
0.093696132 0.016165534 -0.027959038
0.082648911 0.013241699 -0.029805712
-0.02611593 -0.059798401 0.050936799
0.10269147 0.020150647 -0.029055737
-0.02611593 -0.059798401 0.050936799
-0.02611593 -0.059798401 0.050936799
0.11068306 0.023139508 -0.030151665
-0.02611593 -0.059798401 0.050936799
0.08464855 0.01323452 -0.029843293
0.073638782 0.010274507 -0.029690657
-0.02611593 -0.059798401 0.050936799
0.089670278 0.014198318 -0.028919574
-0.02611593 -0.059798401 0.050936799
-0.02611593 -0.059798401 0.050936799
0.099646717 0.018197928 -0.031034719
-0.02611593 -0.059798401 0.050936799
0.074619874 0.010289007 -0.030709106
0.065613672 0.0083216531 -0.030576024
-0.02611593 -0.059798401 0.050936799
0.083592564 0.013292377 -0.032823481
-0.02611593 -0.059798401 0.050936799
-0.02611593 -0.059798401 0.050936799
0.08465942 0.01121677 -0.028879672
-0.02611593 -0.059798401 0.050936799
0.068579599 0.0093468949 -0.032613702
0.058569651 0.0063832849 -0.032479849
-0.02611593 -0.059798401 0.050936799
0.067657687 0.0052607162 -0.027668688
-0.02611593 -0.059798401 0.050936799
-0.02611593 -0.059798401 0.050936799
0.076630376 0.0082640862 -0.029783063
-0.02611593 -0.059798401 0.050936799
0.060569283 0.0063761072 -0.032517429
0.049578235 0.0033980119 -0.031365138
-0.02611593 -0.059798401 0.050936799
0.063583523 0.0053474284 -0.031592168
-0.02611593 -0.059798401 0.050936799
-0.02611593 -0.059798401 0.050936799
0.065631479 0.0032863219 -0.028666798
-0.02611593 -0.059798401 0.050936799
0.050592843 0.0023765031 -0.03040228
0.042571656 0.0014234729 -0.03126964
-0.02611593 -0.059798401 0.050936799
0.055573206 0.0023766477 -0.031495899
-0.02611593 -0.059798401 0.050936799
-0.02611593 -0.059798401 0.050936799
0.060572293 0.0023587029 -0.031589851
-0.02611593 -0.059798401 0.050936799
0.043567546 0.00042005698 -0.031306449
0.037549924 0.00045967952 -0.032193359
-0.02611593 -0.059798401 0.050936799
0.048547905 0.00042020145 -0.032400057
-0.02611593 -0.059798401 0.050936799
-0.02611593 -0.059798401 0.050936799
0.048625808 -0.0036695665 -0.027473833
-0.02611593 -0.059798401 0.050936799
0.036590565 -0.0035903216 -0.029247664
0.029591843 -0.0035651992 -0.029116131
-0.02611593 -0.059798401 0.050936799
0.039608736 -0.0036191773 -0.028304376
-0.02611593 -0.059798401 0.050936799
-0.02611593 -0.059798401 0.050936799
0.041619234 -0.0056441016 -0.027378336
-0.02611593 -0.059798401 0.050936799
0.031572755 -0.0035542878 -0.030153371
0.024574038 -0.0035291654 -0.030021839
-0.02611593 -0.059798401 0.050936799
0.03456828 -0.0045648813 -0.030227762
-0.02611593 -0.059798401 0.050936799
-0.02611593 -0.059798401 0.050936799
0.037563801 -0.005575479 -0.030302152
-0.02611593 -0.059798401 0.050936799
0.024584906 -0.0055469121 -0.029058218
0.020552119 -0.0044965479 -0.03096436
-0.02611593 -0.059798401 0.050936799
0.025629107 -0.0086042564 -0.026132077
-0.02611593 -0.059798401 0.050936799
-0.02611593 -0.059798401 0.050936799
0.03057202 -0.0085679339 -0.029225014
-0.02611593 -0.059798401 0.050936799
0.020544264 -0.0064962087 -0.031000394
0.014582807 -0.0065108538 -0.028888326
-0.02611593 -0.059798401 0.050936799
0.021588465 -0.0095535573 -0.028074257
-0.02611593 -0.059798401 0.050936799
-0.02611593 -0.059798401 0.050936799
0.024583992 -0.010564151 -0.028148651
-0.02611593 -0.059798401 0.050936799
0.015545182 -0.006478264 -0.030906443
0.010546092 -0.0064603202 -0.030812491
-0.02611593 -0.059798401 0.050936799
0.018536773 -0.0084886886 -0.030998852
-0.02611593 -0.059798401 0.050936799
-0.02611593 -0.059798401 0.050936799
0.020547275 -0.010513617 -0.030072805
-0.02611593 -0.059798401 0.050936799
0.012508282 -0.0064313198 -0.03284939
0.0065468284 -0.0064459639 -0.030737329
-0.02611593 -0.059798401 0.050936799
-0.02611593 -0.059798401 0.050936799
-0.02611593 -0.059798401 0.050936799
-0.02611593 -0.059798401 0.050936799
-0.02611593 -0.059798401 0.050936799
-0.02611593 -0.059798401 0.050936799
-0.02611593 -0.059798401 0.050936799
0.0015773292 -0.0084638549 -0.028680086
-0.02611593 -0.059798401 0.050936799
-0.02611593 -0.059798401 0.050936799
-0.02611593 -0.059798401 0.050936799
-0.02611593 -0.059798401 0.050936799
-0.02611593 -0.059798401 0.050936799
-0.02611593 -0.059798401 0.050936799
-0.02611593 -0.059798401 0.050936799
-0.0014891539 -0.0063810749 -0.032586321
-0.02611593 -0.059798401 0.050936799
-0.02611593 -0.059798401 0.050936799
-0.02611593 -0.059798401 0.050936799
-0.02611593 -0.059798401 0.050936799
-0.02611593 -0.059798401 0.050936799
-0.02611593 -0.059798401 0.050936799
-0.02611593 -0.059798401 0.050936799
-0.0055071451 -0.0063486295 -0.033510827
-0.02611593 -0.059798401 0.050936799
-0.02611593 -0.059798401 0.050936799
-0.02611593 -0.059798401 0.050936799
-0.02611593 -0.059798401 0.050936799
-0.02611593 -0.059798401 0.050936799
-0.02611593 -0.059798401 0.050936799
-0.02611593 -0.059798401 0.050936799
-0.02611593 -0.059798401 0.050936799
-0.02611593 -0.059798401 0.050936799
-0.02611593 -0.059798401 0.050936799
-0.02611593 -0.059798401 0.050936799
-0.02611593 -0.059798401 0.050936799
-0.02611593 -0.059798401 0.050936799
-0.02611593 -0.059798401 0.050936799
-0.02611593 -0.059798401 0.050936799
-0.013486959 -0.0063380077 -0.032360837
-0.02611593 -0.059798401 0.050936799
-0.02611593 -0.059798401 0.050936799
-0.02611593 -0.059798401 0.050936799
-0.02611593 -0.059798401 0.050936799
-0.02611593 -0.059798401 0.050936799
-0.02611593 -0.059798401 0.050936799
-0.02611593 -0.059798401 0.050936799
-0.017486226 -0.0063236523 -0.032285672
-0.02611593 -0.059798401 0.050936799
-0.02611593 -0.059798401 0.050936799
-0.02611593 -0.059798401 0.050936799
-0.02611593 -0.059798401 0.050936799
-0.02611593 -0.059798401 0.050936799
-0.02611593 -0.059798401 0.050936799
-0.02611593 -0.059798401 0.050936799
-0.02053399 -0.0042589568 -0.035192251
-0.02611593 -0.059798401 0.050936799
-0.02611593 -0.059798401 0.050936799
-0.02611593 -0.059798401 0.050936799
-0.02611593 -0.059798401 0.050936799
-0.02611593 -0.059798401 0.050936799
-0.02611593 -0.059798401 0.050936799
-0.02611593 -0.059798401 0.050936799
-0.024484945 -0.0062985299 -0.032154139
-0.02611593 -0.059798401 0.050936799
-0.02611593 -0.059798401 0.050936799
-0.02611593 -0.059798401 0.050936799
-0.02611593 -0.059798401 0.050936799
-0.02611593 -0.059798401 0.050936799
-0.02611593 -0.059798401 0.050936799
-0.02611593 -0.059798401 0.050936799
-0.02611593 -0.059798401 0.050936799
-0.02611593 -0.059798401 0.050936799
-0.02611593 -0.059798401 0.050936799
-0.02611593 -0.059798401 0.050936799
-0.02611593 -0.059798401 0.050936799
-0.02611593 -0.059798401 0.050936799
-0.02611593 -0.059798401 0.050936799
-0.02611593 -0.059798401 0.050936799
-0.02611593 -0.059798401 0.050936799
-0.02611593 -0.059798401 0.050936799
-0.02611593 -0.059798401 0.050936799
-0.02611593 -0.059798401 0.050936799
-0.02611593 -0.059798401 0.050936799
-0.02611593 -0.059798401 0.050936799
-0.02611593 -0.059798401 0.050936799
-0.02611593 -0.059798401 0.050936799
-0.02611593 -0.059798401 0.050936799
-0.02611593 -0.059798401 0.050936799
-0.02611593 -0.059798401 0.050936799
-0.02611593 -0.059798401 0.050936799
-0.02611593 -0.059798401 0.050936799
-0.02611593 -0.059798401 0.050936799
-0.02611593 -0.059798401 0.050936799
-0.02611593 -0.059798401 0.050936799
-0.038493253 -0.0042305347 -0.032854702
-0.02611593 -0.059798401 0.050936799
-0.02611593 -0.059798401 0.050936799
-0.02611593 -0.059798401 0.050936799
-0.02611593 -0.059798401 0.050936799
-0.02611593 -0.059798401 0.050936799
-0.02611593 -0.059798401 0.050936799
-0.02611593 -0.059798401 0.050936799
-0.02611593 -0.059798401 0.050936799
-0.02611593 -0.059798401 0.050936799
-0.02611593 -0.059798401 0.050936799
-0.02611593 -0.059798401 0.050936799
-0.02611593 -0.059798401 0.050936799
-0.02611593 -0.059798401 0.050936799
-0.02611593 -0.059798401 0.050936799
-0.02611593 -0.059798401 0.050936799
-0.046469137 -0.0032200851 -0.031686693
-0.02611593 -0.059798401 0.050936799
-0.02611593 -0.059798401 0.050936799
-0.02611593 -0.059798401 0.050936799
-0.02611593 -0.059798401 0.050936799
-0.02611593 -0.059798401 0.050936799
-0.02611593 -0.059798401 0.050936799
-0.048528869 -0.0041584671 -0.034666117
-0.050460551 -0.0012060683 -0.031575494
-0.02611593 -0.059798401 0.050936799
-0.02611593 -0.059798401 0.050936799
-0.02611593 -0.059798401 0.050936799
-0.02611593 -0.059798401 0.050936799
-0.02611593 -0.059798401 0.050936799
-0.02611593 -0.059798401 0.050936799
-0.02611593 -0.059798401 0.050936799
-0.053426489 -0.0022313064 -0.029537823
-0.02611593 -0.059798401 0.050936799
-0.02611593 -0.059798401 0.050936799
-0.02611593 -0.059798401 0.050936799
-0.02611593 -0.059798401 0.050936799
-0.02611593 -0.059798401 0.050936799
-0.02611593 -0.059798401 0.050936799
-0.02611593 -0.059798401 0.050936799
-0.057407029 -0.0022350401 -0.028462995
-0.02611593 -0.059798401 0.050936799
-0.054453798 -0.0092265327 -0.029645164
-0.02611593 -0.059798401 0.050936799
-0.02611593 -0.059798401 0.050936799
-0.02611593 -0.059798401 0.050936799
-0.02611593 -0.059798401 0.050936799
-0.0604853 -0.0031517516 -0.032423291
-0.063479908 0.0028760848 -0.033258468
-0.02611593 -0.059798401 0.050936799
-0.058415618 -0.0092483545 -0.027570676
-0.02611593 -0.059798401 0.050936799
-0.02611593 -0.059798401 0.050936799
-0.02611593 -0.059798401 0.050936799
-0.02611593 -0.059798401 0.050936799
-0.06445799 -0.0011558235 -0.031312425
-0.066423193 0.0028325841 -0.030203104
-0.02611593 -0.059798401 0.050936799
-0.063425571 -0.0072126603 -0.028440341
-0.02611593 -0.059798401 0.050936799
-0.02611593 -0.059798401 0.050936799
-0.063441277 -0.011211979 -0.028512415
-0.02611593 -0.059798401 0.050936799
-0.068438537 -0.0011595569 -0.030237596
-0.071437076 0.0038684485 -0.0310908
-0.02611593 -0.059798401 0.050936799
-0.067420907 -0.0061984737 -0.028347161
-0.02611593 -0.059798401 0.050936799
-0.02611593 -0.059798401 0.050936799
-0.06843251 -0.0091943769 -0.028382428
-0.02611593 -0.059798401 0.050936799
-0.07344456 0.001875965 -0.031089257
-0.07439515 0.0048428681 -0.029017095
-0.02611593 -0.059798401 0.050936799
-0.071382731 -0.006220296 -0.026272681
-0.02611593 -0.059798401 0.050936799
-0.02611593 -0.059798401 0.050936799
-0.071375795 -0.0092378771 -0.025327079
-0.02611593 -0.059798401 0.050936799
-0.079473048 0.003933338 -0.032939799
-0.080400996 0.0078819823 -0.029849943
-0.02611593 -0.059798401 0.050936799
-0.078421913 -0.0021415837 -0.02906806
-0.02611593 -0.059798401 0.050936799
-0.02611593 -0.059798401 0.050936799
-0.07738556 -0.0071985936 -0.026177958
-0.02611593 -0.059798401 0.050936799
-0.08341223 0.0048932573 -0.029847629
-0.085392222 0.0098995883 -0.029719956
-0.02611593 -0.059798401 0.050936799
-0.083394423 -0.00014207442 -0.027938403
-0.02611593 -0.059798401 0.050936799
-0.02611593 -0.059798401 0.050936799
-0.083395332 -0.0051593091 -0.027028836
-0.02611593 -0.059798401 0.050936799
-0.089403272 0.0069144443 -0.029698849
-0.093446009 0.014999801 -0.033478193
-0.02611593 -0.059798401 0.050936799
-0.091433413 0.0039402265 -0.030714989
-0.02611593 -0.059798401 0.050936799
-0.02611593 -0.059798401 0.050936799
-0.089382455 -0.0021382838 -0.026862036
-0.02611593 -0.059798401 0.050936799
-0.095390394 0.0099354777 -0.029532053
-0.097389117 0.01495989 -0.030404046
-0.02611593 -0.059798401 0.050936799
-0.095391311 0.0049182354 -0.028622493
-0.02611593 -0.059798401 0.050936799
-0.02611593 -0.059798401 0.050936799
-0.096369386 0.00088632683 -0.02667645
-0.02611593 -0.059798401 0.050936799
-0.098333679 0.0098919766 -0.026476704
-0.10540545 0.020023933 -0.032162953
-0.02611593 -0.059798401 0.050936799
-0.10237825 0.0079428498 -0.028436899
-0.02611593 -0.059798401 0.050936799
-0.02611593 -0.059798401 0.050936799
-0.10337504 0.0039290264 -0.027490515
-0.02611593 -0.059798401 0.050936799
-0.10734984 0.014959601 -0.02821682
-0.11035924 0.022005353 -0.030033637
-0.02611593 -0.059798401 0.050936799
-0.10934646 0.010949368 -0.027251646
-0.02611593 -0.059798401 0.050936799
-0.02611593 -0.059798401 0.050936799
-0.11339103 0.0090002473 -0.029211838
-0.02611593 -0.059798401 0.050936799
-0.1163512 0.019009314 -0.028975282
-0.11734226 0.026029799 -0.029830031
-0.02611593 -0.059798401 0.050936799
-0.11227101 0.010887777 -0.02319663
-0.02611593 -0.059798401 0.050936799
-0.02611593 -0.059798401 0.050936799
-0.12034052 0.011988676 -0.027026933
-0.02611593 -0.059798401 0.050936799
-0.1223196 0.022012241 -0.02780883
-0.12228124 0.026993304 -0.026719071
-0.02611593 -0.059798401 0.050936799
-0.12732653 0.020030532 -0.027750917
-0.02611593 -0.059798401 0.050936799
-0.02611593 -0.059798401 0.050936799
-0.13438143 0.020109922 -0.03061837
-0.02611593 -0.059798401 0.050936799
-0.1312983 0.027043696 -0.027549624
-0.13328917 0.034067772 -0.028385565
-0.02611593 -0.059798401 0.050936799
-0.13529457 0.023040641 -0.026546869
-0.02611593 -0.059798401 0.050936799
-0.02611593 -0.059798401 0.050936799
-0.14231201 0.023083851 -0.027415
-0.02611593 -0.059798401 0.050936799
-0.14026223 0.031057231 -0.026308771
-0.1422531 0.038081303 -0.027144723
-0.02611593 -0.059798401 0.050936799
-0.14929411 0.03212554 -0.028120954
-0.02611593 -0.059798401 0.050936799
-0.02611593 -0.059798401 0.050936799
-0.15831509 0.031176098 -0.028969526
-0.02611593 -0.059798401 0.050936799
-0.15526159 0.040145703 -0.027864065
-0.15322359 0.045119587 -0.026811901
-0.02611593 -0.059798401 0.050936799
-0.16326013 0.040174413 -0.027713738
-0.02611593 -0.059798401 0.050936799
-0.02611593 -0.059798401 0.050936799
-0.17025191 0.037181962 -0.026636608
-0.02611593 -0.059798401 0.050936799
-0.16822779 0.048191004 -0.027475636
-0.17023346 0.056232996 -0.029293243
-0.02611593 -0.059798401 0.050936799
-0.17924447 0.048248574 -0.028268609
-0.02611593 -0.059798401 0.050936799
-0.02611593 -0.059798401 0.050936799
-0.19123837 0.049291469 -0.028025102
-0.02611593 -0.059798401 0.050936799
-0.18319362 0.056243476 -0.027049631
-0.1801558 0.061213773 -0.026016261
-0.02611593 -0.059798401 0.050936799
-0.19317307 0.056261275 -0.025862075
-0.02611593 -0.059798401 0.050936799
-0.02611593 -0.059798401 0.050936799
-0.21117277 0.060343288 -0.026451424
-0.02611593 -0.059798401 0.050936799
-0.2031389 0.069313042 -0.026439581
-0.20013852 0.074319512 -0.027405526
-0.02611593 -0.059798401 0.050936799
-0.21712849 0.071362935 -0.026140478
-0.02611593 -0.059798401 0.050936799
-0.02611593 -0.059798401 0.050936799
-0.2361093 0.075430445 -0.025711384
-0.02611593 -0.059798401 0.050936799
-0.22408792 0.081386365 -0.02582876
-0.21807726 0.084364317 -0.025887445
-0.02611593 -0.059798401 0.050936799
-0.24807084 0.089489222 -0.026233301
-0.02611593 -0.059798401 0.050936799
-0.02611593 -0.059798401 0.050936799
-0.02611593 -0.059798401 0.050936799
-0.02611593 -0.059798401 0.050936799
-0.25302672 0.10050531 -0.025941148
-0.24703476 0.10350135 -0.026999503
-0.9651702 0.53379756 -0.21583444
-0.95930862 0.56100661 -0.22845629
-0.02611593 -0.059798401 0.050936799
-0.02611593 -0.059798401 0.050936799
-0.97575539 0.53845638 -0.19454478
-1.0120422 0.59306479 -0.21988618
-1.049317 0.65067625 -0.24515474
-0.26088843 0.11144169 -0.020594317
-0.98833627 0.54412216 -0.1731995
-1.1058347 0.65142846 -0.21907412
-1.0659268 0.65839225 -0.22569756
-0.02611593 -0.059798401 0.050936799
-0.99989855 0.54976618 -0.15087339
-1.1143532 0.65400803 -0.19385943
-1.0664704 0.65494406 -0.20074132
-1.0256119 0.65894091 -0.20943692
-1.026479 0.5645169 -0.13110219
-1.1198761 0.655577 -0.16871911
-1.0730345 0.65555304 -0.17759958
-1.0271966 0.65453279 -0.18647923
-1.1471249 0.63990217 -0.12547782
-1.1214117 0.65413207 -0.14370802
-1.0806094 0.65818322 -0.15540263
-1.0348128 0.6561994 -0.16629964
-1.1686244 0.65154493 -0.10085636
-1.1229246 0.65366894 -0.11767927
-1.0821675 0.65575665 -0.13140923
-1.0414146 0.65684444 -0.1451572
-1.1610984 0.64699596 -0.072069786
-1.1174394 0.64816344 -0.090872452
-1.0907235 0.65837246 -0.10819384
-1.0440099 0.65445769 -0.12314434
-1.1655762 0.6505248 -0.044912905
-1.1199671 0.64872187 -0.065806538
-1.0892822 0.65593493 -0.084256813
-1.0466013 0.65307057 -0.10111344
-1.1590648 0.64699721 -0.017089196
-1.1204799 0.64825511 -0.039796554
-1.0928508 0.65553325 -0.061189435
-1.0572052 0.65774751 -0.080823429
-1.1575595 0.64650524 0.0098828599
-1.1220077 0.64880991 -0.01474943
-1.0893952 0.65207082 -0.036308333
-1.0527951 0.65231788 -0.057996482
-1.1560503 0.64701313 0.036872935
-1.1215396 0.64835769 0.010242097
-1.0829663 0.64661592 -0.012519315
-1.0603886 0.65496618 -0.036799207
-1.1495538 0.64450353 0.063715011
-1.119072 0.64789826 0.035196047
-1.088523 0.64922094 0.01063969
-1.0539867 0.64752984 -0.014045887
-1.1470634 0.64502585 0.089686632
-1.1146122 0.645432 0.060076371
-1.0870965 0.64780146 0.033595085
-1.0655676 0.65319204 0.0072806031
-1.1415813 0.64353776 0.11556585
-1.1101716 0.64298385 0.083957039
-1.0856513 0.64636397 0.057550147
-1.0621494 0.64976573 0.030162383
-1.133104 0.64103913 0.14137068
-1.1096957 0.64453125 0.1089846
-1.0852207 0.64594787 0.080542348
-1.0567579 0.64435065 0.051970884
-1.1266143 0.64154708 0.16726714
-1.1042324 0.64306128 0.13386416
-1.0817944 0.64452124 0.10346017
-1.0623333 0.64697367 0.074130222
-1.1241201 0.64306921 0.19325678
-1.097792 0.64060599 0.15770724
-1.0793682 0.64309818 0.12639678
-1.0589484 0.6445834 0.095030695
-1.1136616 0.64058149 0.21802437
-1.0953391 0.64116454 0.18167955
-1.075938 0.64267135 0.14933261
-1.0615133 0.64517796 0.11809729
-1.1061949 0.64010412 0.24288437
-1.0898907 0.64071244 0.20557746
-1.0774804 0.64424407 0.17339808
-1.0581099 0.64276958 0.13999742
-1.0997052 0.64061207 0.26878083
-1.0854195 0.64124566 0.23051186
-1.068086 0.63981456 0.19514945
-1.0596898 0.64437848 0.16206358
-1.0912573 0.64014924 0.29262239
-1.0769982 0.63880128 0.25331771
-1.0706203 0.64339048 0.21926975
-1.0572634 0.64295542 0.18500018
-1.0778183 0.63766885 0.31633392
-1.0715458 0.63934898 0.27723363
-1.0641947 0.64195299 0.2421312
-1.0578474 0.64356089 0.20702954
-1.0703663 0.6382094 0.34021226
-1.0641204 0.63790804 0.30007628
-1.0597649 0.64152259 0.26504824
-1.0604006 0.64715487 0.23015019
-1.0589416 0.63675404 0.36297977
-1.0576682 0.63845211 0.32397342
-1.0513661 0.63809651 0.28683639
-1.0540016 0.64373589 0.25197595
-1.0445402 0.63430613 0.38467318
-1.0472621 0.6370185 0.34576005
-1.048928 0.63967288 0.30982706
-1.0475985 0.64131677 0.27381971
-1.0331115 0.63385057 0.40745869
-1.038833 0.63657373 0.36860195
-1.0405254 0.63724661 0.33163327
-1.0411955 0.63889766 0.29566348
-1.0226789 0.63439852 0.43028104
-1.0304224 0.63614708 0.39044413
-1.0350878 0.63881224 0.35456756
-1.0377843 0.63848889 0.31759965
-1.0073003 0.63096529 0.45093799
-1.0150478 0.63171405 0.4110831
-1.0276812 0.63738936 0.37641054
-1.0323733 0.63807303 0.33949822
-0.99787813 0.63353455 0.47281551
-1.0086105 0.63327605 0.43399858
-1.0192747 0.63596284 0.39823472
-1.0289432 0.63764614 0.36243406
-0.98744547 0.6340825 0.4956378
-0.99821907 0.63286024 0.45480356
-1.014837 0.63753211 0.42118782
-1.0225323 0.6372267 0.38431385
-0.97207767 0.63266701 0.51533115
-0.987809 0.63242644 0.47660822
-1.0044495 0.6361165 0.44197479
-1.0141486 0.63481843 0.4051204
-0.96165979 0.63423282 0.53717184
-0.97543675 0.63202161 0.49637595
-0.99108934 0.63270855 0.46166968
-1.0087149 0.63538432 0.42803663
-0.94531476 0.631832 0.55582869
-0.96602249 0.63259119 0.51821738
-0.98565179 0.6342743 0.48460394
-1.0013082 0.63396138 0.44987965
-0.93193883 0.63242346 0.57559568
-0.95363158 0.63216823 0.53898478
-0.97823334 0.63585079 0.50650102
-0.99687046 0.63553065 0.47283274
-0.91460884 0.631037 0.59325212
-0.94125932 0.63176346 0.55875248
-0.96486908 0.63344276 0.52621388
-0.98847878 0.63512206 0.49367529
-0.90025562 0.63064307 0.61198258
-0.92790985 0.63037318 0.57748377
-0.95447773 0.63302696 0.54701889
-0.9790951 0.63271016 0.51446301
-0.8839215 0.63026005 0.62967587
-0.91553372 0.63096821 0.59726954
-0.94508618 0.63261479 0.56784266
-0.96968478 0.63227993 0.53628647
-0.86661416 0.62789184 0.64631456
-0.90018469 0.62957084 0.61596322
-0.93173671 0.63122463 0.5865739
-0.96227038 0.63285673 0.55816549
-0.85028011 0.62750882 0.66400784
-0.88585418 0.62819517 0.63367605
-0.92231864 0.63279402 0.60843337
-0.95188284 0.63144112 0.57895243
-0.83396477 0.62714386 0.68070143
-0.8724969 0.62880462 0.65244335
-0.90797329 0.63040042 0.62712783
-0.94049561 0.63002193 0.5997206
-0.81864136 0.62878215 0.69744986
-0.85323524 0.62446576 0.66700917
-0.89364278 0.62902474 0.6448406
-0.93207741 0.63159496 0.6215989
-0.79939455 0.62546128 0.71103406
-0.84380531 0.6290347 0.6889227
-0.88126659 0.62961972 0.66462642
-0.91970903 0.63019019 0.64134854
-0.78502959 0.62806678 0.72981858
-0.82453978 0.62569571 0.70350653
-0.86694002 0.62724417 0.68232119
-0.90734065 0.62878555 0.66109824
-0.76675594 0.62673098 0.74445724
-0.81315941 0.62729406 0.72332907
-0.85554099 0.62882453 0.70314342
-0.89594948 0.62836617 0.68188447
-0.74556571 0.62345725 0.75500488
-0.79586303 0.62694359 0.73900425
-0.83725256 0.6264708 0.71876371
-0.88848186 0.63290608 0.70583493
-0.72830665 0.62314296 0.76868063
-0.78152466 0.62756759 0.75675309
-0.82585359 0.62805116 0.739586
-0.86920536 0.62754929 0.72138238
-0.71100622 0.62379235 0.78437382
-0.7622925 0.62526459 0.76935554
-0.80856496 0.62570101 0.75522506
-0.86074179 0.63108581 0.745296
-0.69374335 0.62447792 0.79806769
-0.74599588 0.62491775 0.78504956
-0.79225355 0.6243363 0.77190065
-0.84539276 0.62968844 0.76398969
-0.67354888 0.62220752 0.8086521
-0.72967666 0.62555265 0.80176121
-0.78280103 0.62988693 0.79483181
-0.82513517 0.6243462 0.77851868
-0.656286 0.62289304 0.82234597
-0.70848632 0.62227887 0.81230879
-0.75866836 0.62163937 0.80323368
-0.81471336 0.62691188 0.80037737
-0.63804191 0.62359309 0.83502132
-0.69122732 0.62196463 0.8259846
-0.74430341 0.62424487 0.82201821
-0.80229181 0.62947029 0.82219851
-0.616889 0.62035549 0.84356958
-0.67785823 0.62557358 0.8448059
-0.72898394 0.62488335 0.83874863
-0.78400344 0.62711662 0.8378188
-0.59768659 0.62008828 0.85420883
-0.65859962 0.62525213 0.85844415
-0.70973313 0.62256229 0.85235083
-0.76667345 0.62573016 0.85547519
-0.57850283 0.61983925 0.86384845
-0.64036345 0.62395251 0.8710835
-0.69439095 0.62418246 0.87009889
-0.74838501 0.62337649 0.87109554
-0.5612359 0.62152463 0.87756032
-0.61920661 0.62171471 0.87964988
-0.67903018 0.62578464 0.88884664
-0.7310738 0.62200809 0.88775235
-0.54205221 0.62127554 0.88719994
-0.60192496 0.62238216 0.89434326
-0.65490443 0.62055469 0.89630282
-0.72053868 0.62948245 0.91469944
-0.52191001 0.62005925 0.8948034
-0.58172661 0.62111163 0.90494573
-0.63955837 0.62317467 0.91406888
-0.69348538 0.62029666 0.91902822
-0.50272238 0.62080997 0.90446097
-0.56056976 0.61887372 0.91351205
-0.6212582 0.62382048 0.92974329
-0.67321604 0.6179539 0.93361127
-0.48258018 0.61959368 0.91206443
-0.54427618 0.62254429 0.92827839
-0.60008258 0.62156457 0.9393093
-0.65878707 0.62250477 0.95543087
-0.46245277 0.61939526 0.91868627
-0.52407783 0.62127376 0.93888086
-0.57889235 0.61829072 0.94985688
-0.63757801 0.61921293 0.96697813
-0.44233322 0.61719722 0.92527199
-0.50296235 0.61807221 0.94542986
-0.56156534 0.62092173 0.96658576
-0.6173048 0.61786997 0.98157924
-0.42218316 0.61798054 0.93291152
-0.48083931 0.61686683 0.95199603
-0.53940874 0.6186803 0.9751333
-0.59800482 0.61851221 0.99723476
-0.40114656 0.61385161 0.93544388
-0.46261007 0.61858487 0.9636898
-0.52016491 0.61937678 0.98778987
-0.57868212 0.62013608 1.013908
-0.38007945 0.61270398 0.93902987
-0.44051352 0.61539781 0.96922028
-0.49894407 0.61908436 0.9993912
-0.55453378 0.61588788 1.0223819
-0.36092526 0.61449081 0.94670612
-0.42034477 0.61616313 0.9778595
-0.47778729 0.6168465 1.0079575
-0.53329414 0.61557734 1.0349829
-0.34275222 0.61626303 0.95540088
-0.39922541 0.61396146 0.98442644
-0.45560405 0.61658663 1.0175407
-0.51014167 0.61233252 1.0434936
-0.32168511 0.61511546 0.95898688
-0.37907535 0.61474478 0.99206597
-0.43539786 0.61731577 1.0281792
-0.49175084 0.61690527 1.0632387
-0.30161777 0.61397153 0.96259177
-0.35983843 0.61845887 1.0037769
-0.41421449 0.61705953 1.0377812
-0.4685944 0.61466026 1.0717674
-0.28154653 0.61382735 0.9662146
-0.33782074 0.61434436 1.0052907
-0.39013702 0.61388344 1.0422745
-0.44537395 0.61436063 1.0833312
-0.26149797 0.61270154 0.9688198
-0.31573901 0.61217541 1.0098397
-0.36990818 0.61559421 1.0539306
-0.42406642 0.61699533 1.0989852
-0.24233991 0.61548811 0.97651404
-0.2955811 0.61495835 1.0175152
-0.34678525 0.61438525 1.0604781
-0.39899313 0.61281586 1.1034417
-0.22231005 0.6143803 0.97811955
-0.27445388 0.61475635 1.0241182
-0.32463947 0.61416155 1.0680621
-0.3776817 0.61645037 1.1191138
-0.20044996 0.60841095 0.97160006
-0.25245097 0.61165982 1.0246505
-0.30153134 0.61397052 1.0736278
-0.35069147 0.61033648 1.1194979
-0.18131059 0.61121559 0.97829473
-0.23133855 0.61247575 1.0302718
-0.27940431 0.61376488 1.080212
-0.3274858 0.61105472 1.1300801
-0.16227663 0.61111122 0.97993702
-0.20937307 0.60941535 1.0288048
-0.25636023 0.61162841 1.0827427
-0.30425748 0.61275482 1.1416798
-0.14232951 0.60807621 0.97750783
-0.18827939 0.6102494 1.0334265
-0.23414651 0.61434996 1.0933797
-0.27917236 0.61157477 1.1461903
-0.12314092 0.6138441 0.98625588
-0.16718569 0.61108345 1.0380481
-0.20922691 0.60931534 1.0898209
-0.25406852 0.61037666 1.1517005
-0.10318989 0.6118089 0.98384482
-0.14517492 0.60998654 1.0386164
-0.18705457 0.61107332 1.0984404
-0.22890067 0.61112398 1.1602459
-0.083220117 0.60975552 0.9824332
-0.12325082 0.60596251 1.0351321
-0.16307071 0.6079877 1.0979353
-0.20202672 0.6041187 1.1546141
-0.064136915 0.61261445 0.98612893
-0.10304761 0.61070907 1.0448428
-0.13995476 0.60979629 1.1035372
-0.1777868 0.60881472 1.1662492
-0.0442499 0.60863382 0.98068273
-0.081055559 0.60963023 1.0444114
-0.11688013 0.61064118 1.1071218
-0.15184864 0.60375845 1.1636711
-0.025317404 0.60662025 0.97729063
-0.059995387 0.61150026 1.0470519
-0.09384691 0.61052245 1.108689
-0.12663156 0.60746896 1.1742697
-0.0062943026 0.60853362 0.97796935
-0.038063437 0.60947591 1.0436035
-0.069813848 0.61040014 1.1102372
-0.10155732 0.60830677 1.1778166
0.012619471 0.60653812 0.97357768
-0.017048554 0.60938245 1.0442085
-0.045826092 0.60831434 1.1097502
-0.075464532 0.60912281 1.1823444
0.031574622 0.60550624 0.97120327
0.0039062258 0.60834342 1.0417966
-0.0228303 0.60823178 1.109318
-0.049473219 0.60802972 1.1818378
0.050643027 0.60938317 0.97391731
0.024925034 0.60924983 1.0424197
0.00016548857 0.60814923 1.1088858
-0.023440536 0.6079002 1.1833485
0.069560722 0.60838753 0.96954364
0.045755699 0.60531986 1.0339557
0.024161097 0.6080631 1.1084348
0.0016149879 0.60875601 1.1858958
0.088478431 0.60739183 0.96516997
0.067778252 0.6072225 1.034578
0.047134236 0.6069988 1.106985
0.027523555 0.6057356 1.1813545
0.10739614 0.60639614 0.9607963
0.088736966 0.60718328 1.0321841
0.071115054 0.6079306 1.1055524
0.05460529 0.60856581 1.1848998
0.12637787 0.60734594 0.95945758
0.10965038 0.60518062 1.0277548
0.094028085 0.60592079 1.1010854
0.079243153 0.5987854 1.1672556
0.14429969 0.60735369 0.95512074
0.13057165 0.60517758 1.0233616
0.11796755 0.6058889 1.0976355
0.10637018 0.6035791 1.1728364
0.1632026 0.60737592 0.94976538
0.15047045 0.60419637 1.0179694
0.1397793 0.60197335 1.0881531
0.13239202 0.60546726 1.1733836
0.18221089 0.61030716 0.94946241
0.17030522 0.6012699 1.0095422
0.1637601 0.60290515 1.0867205
0.15826707 0.6034829 1.1668611
0.19902357 0.60640967 0.94007397
0.19231297 0.60419035 1.0091829
0.18774486 0.60483682 1.0853059
0.1819957 0.59763288 1.1533064
0.21903563 0.6103372 0.93977028
0.21323816 0.60518724 1.0048077
0.21062438 0.60386294 1.0788578
0.21014912 0.60440463 1.1599039
0.23691608 0.60938132 0.93341607
0.23314089 0.60520589 0.99943352
0.232444 0.60194719 1.0694115
0.23384035 0.59859085 1.1443499
0.25269148 0.60552353 0.92204702
0.25300226 0.60426086 0.99204212
0.25641 0.60389692 1.0669971
0.25872341 0.59860963 1.1378824
0.27161705 0.60652757 0.91770941
0.27288234 0.60329783 0.98565024
0.27825224 0.60296273 1.0585685
0.2846477 0.59958851 1.133413
0.28743774 0.60463321 0.90837574
0.29481128 0.60529089 0.98127437
0.301117 0.60300684 1.0511386
0.30840686 0.59671998 1.1209121
0.3063899 0.60761887 0.90507376
0.31261286 0.6034075 0.9709034
0.32295927 0.60207278 1.0427099
0.33538017 0.60065854 1.1184776
0.32218796 0.60474277 0.89472246
0.33351934 0.60442239 0.96552849
0.34478673 0.60215664 1.0332996
0.35809812 0.59682995 1.103978
0.34005749 0.60580462 0.88740462
0.3513023 0.60255712 0.95415801
0.36559176 0.60126233 1.0228903
0.38294771 0.59788477 1.0955288
0.35796848 0.60783017 0.8821041
0.37008497 0.60068828 0.94276875
0.38741529 0.60034639 1.0134619
0.40673739 0.59799761 1.0840818
0.37587941 0.60985571 0.87680364
0.38997686 0.60272473 0.93643093
0.41028789 0.60239011 1.0060682
0.40430734 0.55923808 1.0154028
0.39168143 0.60797948 0.8664704
0.40776366 0.60185927 0.92507839
0.43111554 0.60247749 0.99667662
0.45644042 0.60110706 1.0672016
0.40955099 0.60904133 0.85915256
0.4276329 0.60291392 0.917723
0.45292819 0.60357928 0.98628467
0.47920763 0.60024178 1.0547556
0.42331201 0.60620862 0.84683949
0.44335216 0.59911036 0.903355
0.47163209 0.60078299 0.97087866
0.50191873 0.5994308 1.0393105
0.43909916 0.60535038 0.83552456
0.46321046 0.60218287 0.89503598
0.49452734 0.6038084 0.96450257
0.52262616 0.59762704 1.0238849
0.45390528 0.60447764 0.8252281
0.48201582 0.60129571 0.8846643
0.51529878 0.60395008 0.95211202
0.54537851 0.59777963 1.010457
0.47382373 0.60849565 0.81992602
0.50085169 0.60338998 0.87534642
0.53092444 0.60023707 0.93274575
0.5670898 0.59697223 0.99503076
0.48654741 0.6057027 0.80563235
0.51760125 0.60256428 0.86201334
0.55171859 0.6013605 0.92137295
0.59089112 0.60008454 0.98363751
0.50237995 0.60680783 0.7963528
0.53437346 0.60272038 0.84969795
0.5704304 0.60056382 0.90600294
0.61673754 0.6051532 0.97424209
0.51818979 0.60693133 0.78605556
0.55112308 0.60189468 0.83636487
0.59020591 0.60170895 0.89364922
0.63021678 0.59757459 0.94784373
0.53298104 0.60707653 0.77477747
0.56585038 0.60009438 0.82205176
0.60896301 0.60287577 0.88031465
0.65197724 0.59973043 0.93447077
0.54879093 0.60719991 0.76448023
0.58260387 0.60026854 0.8087368
0.62357014 0.59918433 0.85996753
0.6716553 0.59996617 0.91710067
0.56256372 0.6073668 0.75222117
0.5983575 0.60044628 0.79544055
0.64128602 0.5993911 0.84463435
0.69027346 0.59925997 0.89673245
0.57631379 0.60655189 0.73894453
0.61511493 0.60162026 0.78214353
0.65898311 0.59961587 0.82830155
0.71097398 0.60047388 0.88036126
0.59006393 0.60573703 0.72566789
0.63291353 0.6037544 0.77084506
0.67569917 0.59982628 0.81298721
0.72554755 0.59781843 0.85803288
0.6028142 0.60492569 0.71240997
0.64558113 0.60101569 0.75355244
0.69340026 0.60105091 0.7966724
0.74525213 0.60003579 0.84169847
0.61860925 0.606067 0.70113099
0.66234249 0.60318947 0.74027348
0.71316493 0.60421383 0.78335506
0.764938 0.6022712 0.82436454
0.63034105 0.60527742 0.68689227
0.67810398 0.60536689 0.72701323
0.72680271 0.60350746 0.76408041
0.77849311 0.59963751 0.80105513
0.64718115 0.60837865 0.67762995
0.689753 0.60264993 0.70873976
0.73941416 0.60082304 0.74378884
0.79409701 0.59995997 0.77976161
0.66298413 0.61151975 0.66638708
0.70446944 0.60286742 0.69346303
0.75407434 0.60109478 0.7255131
0.81071943 0.60026067 0.75944901
0.67265218 0.60879183 0.64915085
0.71816736 0.60310662 0.67720538
0.76873457 0.60136658 0.7072373
0.82532352 0.60058677 0.7381742
0.68741 0.60997301 0.63589144
0.73389137 0.60532022 0.66194582
0.78135383 0.6006819 0.68698186
0.8389051 0.59993464 0.7159006
0.69812322 0.60920501 0.62067175
0.74556702 0.60458481 0.6447081
0.79806298 0.60390973 0.67072189
0.85655785 0.60321319 0.69662285
0.70883244 0.60743725 0.60543418
0.75722384 0.60386753 0.62647069
0.81070095 0.60320705 0.65146601
0.86711735 0.60159016 0.67338789
0.7256431 0.61257434 0.59420854
0.77092564 0.60510653 0.61023104
0.82230163 0.60254395 0.63022959
0.8817293 0.60391581 0.6521492
0.73531514 0.61084628 0.57699037
0.78160536 0.60537452 0.59303015
0.83492875 0.60385895 0.61001015
0.89225137 0.6023289 0.62691486
0.74600959 0.6100964 0.56077111
0.79631084 0.60760981 0.57678974
0.84657085 0.60415959 0.59079111
0.90484107 0.60368001 0.60469615
0.75874907 0.61130285 0.54654956
0.80494571 0.60592151 0.55759102
0.85615319 0.60352176 0.56859261
0.9194569 0.6070056 0.58347547
0.76944745 0.61155283 0.5303483
0.81253928 0.60327321 0.53639376
0.86879897 0.6048187 0.54937279
0.92597967 0.60543305 0.55831635
0.77812356 0.61082816 0.5131669
0.82827508 0.60848629 0.52118832
0.87840396 0.60516268 0.52819198
0.93655092 0.60680944 0.53513551
0.78579599 0.60910732 0.49598631
0.83893603 0.6087724 0.50298768
0.88396436 0.60355747 0.50505102
0.94709963 0.60720408 0.51093692
0.79852062 0.61133158 0.48078316
0.84857857 0.6090802 0.48380622
0.89761788 0.60685039 0.48584843
0.95362633 0.6066314 0.48579586
0.80515182 0.6086508 0.461604
0.85722119 0.60939163 0.4646436
0.90720415 0.60721248 0.46366802
0.96420157 0.6090076 0.46263301
0.81383187 0.608926 0.44444066
0.86181533 0.60675406 0.44350266
0.91581321 0.60855991 0.44252402
0.97075093 0.6094166 0.43850955
0.82553798 0.61117196 0.42825663
0.87043923 0.60708356 0.42334035
0.92037386 0.60695833 0.41940182
0.97425562 0.6078729 0.41240719
0.83016962 0.60849822 0.40911505
0.88111192 0.61036915 0.40519378
0.93099046 0.61029822 0.3982563
0.97878659 0.60830718 0.38732168
0.83985335 0.6097697 0.39195094
0.88570613 0.60773158 0.38405287
0.9355737 0.60967845 0.3761518
0.98936564 0.61168325 0.36417687
0.84751487 0.61006665 0.37380669
0.89536023 0.61103886 0.3649255
0.94819385 0.61401093 0.35498673
0.99692672 0.61508822 0.34008873
0.85517645 0.61036348 0.35566247
0.90298438 0.61137193 0.34478194
0.95175862 0.61341274 0.33190131
1.000458 0.61552608 0.31502202
0.86486417 0.61263478 0.33851635
0.90859008 0.61173022 0.32367635
0.95532328 0.61281466 0.30881593
0.99895948 0.61300039 0.28899559
0.87152588 0.61293519 0.32039094
0.92025185 0.61703008 0.30454737
0.95789212 0.61321992 0.28576735
1.0034945 0.61443454 0.26392812
0.88019115 0.61422831 0.30224597
0.91679811 0.61145794 0.28150341
0.96446812 0.61561048 0.26267964
1.0020187 0.61289072 0.23891935
0.88280833 0.61257976 0.28216031
0.9264524 0.61476511 0.26237601
0.96603316 0.61501956 0.23963183
1.0005282 0.61236483 0.21292892
0.88945127 0.61289829 0.26303524
0.93105823 0.61512703 0.24128917
0.77550083 0.48473334 0.1848238
0.6181249 0.36220065 0.13653743
0.89307213 0.61224592 0.2429488
0.6660496 0.42736956 0.1728313
0.60021496 0.36519238 0.14092836
-0.02611593 -0.059798401 0.050936799
0.69040346 0.46106055 0.18498889
0.5913229 0.37315097 0.14524028
0.57881898 0.34959605 0.12304077
0.57738966 0.33596382 0.10281408
0.57743484 0.37711012 0.15057372
0.5719679 0.35851115 0.12933244
0.57254219 0.34587154 0.10908618
-0.02611593 -0.059798401 0.050936799
0.5621056 0.36443749 0.13562642
0.56869459 0.35577565 0.1153395
0.56223571 0.33917999 0.094153047
0.56681025 0.33154324 0.072922058
-0.02611593 -0.059798401 0.050936799
0.57145452 0.35699987 0.10230555
0.56197363 0.33943322 0.080157787
0.56655204 0.33279631 0.058944821
0.55959958 0.35991582 0.10958272
0.55412579 0.34433445 0.087395832
0.55771911 0.33668321 0.067183301
0.56029791 0.33005351 0.046007916
0.55333769 0.35517338 0.096609771
0.5578934 0.34755474 0.074379131
-0.02611593 -0.059798401 0.050936799
0.55603254 0.32932132 0.032069806
0.54406446 0.34744218 0.083639145
0.55263525 0.34380847 0.061405417
0.55623639 0.338157 0.04122892
0.56078923 0.33455575 0.018070692
0.54682052 0.34766659 0.070587188
0.55439532 0.34503636 0.048390262
-0.02611593 -0.059798401 0.050936799
0.56454599 0.3397938 0.004090365
0.5536142 0.35285765 0.058549806
0.55718195 0.34824213 0.036392011
0.56275713 0.34561908 0.014232669
-0.02611593 -0.059798401 0.050936799
0.55440801 0.35305306 0.047534745
0.55994582 0.35046616 0.023376083
0.5604915 0.34487963 0.00025697798
0.58804375 0.36126485 -0.02697172
0.55014974 0.34930328 0.03454224
0.55870265 0.35070491 0.010399278
0.56424826 0.35011771 -0.013723347
-0.02611593 -0.059798401 0.050936799
0.56394303 0.35948646 0.021463765
0.55845922 0.35094005 -0.002596315
0.56499779 0.35336685 -0.02768334
0.595505 0.37279502 -0.057913329
0.57671386 0.36869153 0.0073863976
0.56823063 0.36015591 -0.016617313
0.5707581 0.3595975 -0.041683234
0.62119353 0.39507785 -0.078998357
0.5624525 0.35896051 -0.0045266524
0.5649839 0.35940197 -0.029574551
0.5904842 0.37684846 -0.059746623
0.73074657 0.4773927 -0.11957423
0.5562132 0.35519981 -0.016481921
0.57373285 0.36763969 -0.044594437
0.59221876 0.38111198 -0.074707046
0.92203343 0.61987334 -0.18660103
0.56698436 0.3644121 -0.030521706
0.58047819 0.37488472 -0.059594758
0.79064715 0.52644038 -0.13481368
0.92760742 0.63130206 -0.21150708
0.57673317 0.37264612 -0.045560382
0.59718913 0.38814709 -0.077673852
0.92701948 0.63090777 -0.18949577
0.91820115 0.63273221 -0.23331252
0.57248265 0.37089601 -0.058516841
0.81460208 0.54947692 -0.14184785
0.91762406 0.63032007 -0.21033758
0.90580624 0.6321553 -0.25409794
0.59619325 0.3891505 -0.077637047
0.91903579 0.62991852 -0.18836381
0.90524012 0.62772548 -0.23015933
0.20801185 0.11579365 -0.031298287
0.8235904 0.55647963 -0.14389017
0.91362476 0.63033444 -0.21026242
0.90581805 0.63515484 -0.25404388
0.1909757 0.10585637 -0.031159036
0.91704702 0.62790799 -0.18736261
0.90623289 0.63073945 -0.23112376
0.21100438 0.11880048 -0.032300271
-0.02611593 -0.059798401 0.050936799
0.91165084 0.62730598 -0.20827956
0.89984083 0.63114083 -0.25200388
0.19296446 0.10786694 -0.032160245
0.16092528 0.086949177 -0.029938009
0.91323942 0.63271397 -0.23121925
0.20402347 0.11379026 -0.030259505
-0.02611593 -0.059798401 0.050936799
-0.02611593 -0.059798401 0.050936799
0.89886272 0.62710893 -0.25005785
0.19297925 0.10684902 -0.031178594
0.16888729 0.091973878 -0.032997217
0.13985933 0.074044846 -0.030777309
0.2060231 0.11378308 -0.030297086
-0.02611593 -0.059798401 0.050936799
-0.02611593 -0.059798401 0.050936799
-0.02611593 -0.059798401 0.050936799
0.19098657 0.10383862 -0.030195415
0.16988711 0.091970287 -0.033016007
0.14085916 0.074041255 -0.030796099
