# .PCD v0.7 - Point Cloud Data file format
VERSION 0.7
FIELDS x y z
SIZE 4 4 4
TYPE F F F
COUNT 1 1 1
WIDTH 1391
HEIGHT 1
VIEWPOINT 0 0 0 1 0 0 0
POINTS 1391
DATA ascii
0.81749922 -0.85523593 5.655653
0.81158942 -0.24597666 5.7038012
-0.02611593 -0.059798401 0.050936799
0.88759339 -0.63784516 5.5652423
0.92964989 -0.83886534 5.4997969
-0.02611593 -0.059798401 0.050936799
-0.02611593 -0.059798401 0.050936799
-0.02611593 -0.059798401 0.050936799
1.0326939 -0.82135403 5.3381295
-0.02611593 -0.059798401 0.050936799
-0.02611593 -0.059798401 0.050936799
-0.02611593 -0.059798401 0.050936799
1.1307572 -0.8038429 5.1775556
-0.02611593 -0.059798401 0.050936799
-0.02611593 -0.059798401 0.050936799
-0.02611593 -0.059798401 0.050936799
0.33092344 -0.26785907 1.4729705
-0.02611593 -0.059798401 0.050936799
-0.02611593 -0.059798401 0.050936799
-0.02611593 -0.059798401 0.050936799
-0.02611593 -0.059798401 0.050936799
-0.02611593 -0.059798401 0.050936799
-0.02611593 -0.059798401 0.050936799
-0.02611593 -0.059798401 0.050936799
1.4041897 -0.76145911 4.7640629
-0.02611593 -0.059798401 0.050936799
-0.02611593 -0.059798401 0.050936799
-0.02611593 -0.059798401 0.050936799
1.4908575 -0.74850118 4.6366315
-0.02611593 -0.059798401 0.050936799
-0.02611593 -0.059798401 0.050936799
-0.02611593 -0.059798401 0.050936799
1.5716685 -0.73766607 4.5172739
-0.02611593 -0.059798401 0.050936799
-0.02611593 -0.059798401 0.050936799
-0.02611593 -0.059798401 0.050936799
1.6443576 -0.72467595 4.3911052
-0.02611593 -0.059798401 0.050936799
-0.02611593 -0.059798401 0.050936799
-0.02611593 -0.059798401 0.050936799
1.7203193 -0.71396768 4.279839
-0.02611593 -0.059798401 0.050936799
-0.02611593 -0.059798401 0.050936799
-0.02611593 -0.059798401 0.050936799
1.7964079 -0.70438582 4.1755524
-0.02611593 -0.059798401 0.050936799
-0.02611593 -0.059798401 0.050936799
1.8172805 -0.53974736 4.1371264
1.8602219 -0.69348967 4.0565147
-0.02611593 -0.059798401 0.050936799
-0.02611593 -0.059798401 0.050936799
1.8842695 -0.53204244 4.0279751
1.9303492 -0.68392247 3.95434
-0.02611593 -0.059798401 0.050936799
1.909386 -0.3817054 4.0052161
1.953527 -0.52761543 3.9337263
1.997548 -0.67541659 3.8562021
1.927417 -0.23427042 3.9785366
1.9766884 -0.38032505 3.9139502
2.0166812 -0.52105874 3.8336287
2.059639 -0.66578454 3.7521787
1.9938053 -0.23497656 3.8922517
2.0347567 -0.37667751 3.8098938
2.0778878 -0.515549 3.7365496
2.1260026 -0.65843767 3.6630387
2.0520451 -0.23550928 3.7981198
2.0960641 -0.37427577 3.7187583
2.1443481 -0.51231009 3.6533356
2.1914003 -0.65212333 3.5758991
2.1113226 -0.23608178 3.7059684
2.1584795 -0.37298599 3.6335845
2.2046299 -0.50686908 3.5602736
2.2517269 -0.64471895 3.4848731
2.1707308 -0.23678085 3.6208143
2.2157879 -0.37056991 3.5425246
2.2598903 -0.50239187 3.4662883
2.306947 -0.63618821 3.3879604
2.2270837 -0.23741493 3.5327182
2.2741854 -0.36924767 3.4564259
2.3182995 -0.49807012 3.3802438
2.3653452 -0.6298486 3.300952
2.2804365 -0.23803824 3.4446778
2.3306248 -0.36695459 3.3723819
2.3767464 -0.49378461 3.2961984
2.4207108 -0.62246239 3.212019
2.3369019 -0.23878083 3.3625798
2.3850231 -0.36561802 3.2863586
2.4291382 -0.48942325 3.2092669
2.4792364 -0.61724937 3.1319907
2.3924003 -0.24055587 3.2824814
2.4374404 -0.36429232 3.2013724
2.4835632 -0.48610508 3.1242793
2.5306363 -0.61088473 3.045114
2.4418104 -0.24121907 3.1975152
2.491951 -0.36306426 3.1213467
2.539119 -0.48291713 3.0462701
2.5861104 -0.60460693 2.9621608
2.4963841 -0.24306285 3.1214345
2.5424249 -0.36178571 3.039397
2.5895298 -0.47856671 2.9603758
2.6416738 -0.5994193 2.8841877
2.5509579 -0.24490665 3.0453539
2.5959921 -0.36060831 2.9623892
2.6471748 -0.47647616 2.8873098
2.6941633 -0.59414858 2.8022726
2.5994434 -0.24563864 2.9644051
2.6464994 -0.36036575 2.882421
2.6895308 -0.47204277 2.7985671
2.7385831 -0.5877769 2.7165272
2.6500363 -0.24748616 2.8893991
2.6990669 -0.35918477 2.8054321
2.7400651 -0.46981865 2.7196343
2.7911284 -0.58256048 2.6376109
2.6975739 -0.24926865 2.8114502
2.7476118 -0.35897118 2.7275007
2.7926774 -0.46667421 2.6446807
2.8437073 -0.57838005 2.5606761
2.7430933 -0.25102589 2.7325397
2.7961948 -0.35879377 2.6515687
2.8422303 -0.46446455 2.5667663
2.9552329 -0.58436489 2.5354714
2.7926867 -0.25286981 2.6575522
2.8396885 -0.35750812 2.57075
2.9121277 -0.46467003 2.5074339
3.8641925 -0.72679931 3.1370807
2.8402991 -0.25472465 2.5836024
2.8923454 -0.35741746 2.4987414
3.7705934 -0.57231569 3.0766068
4.3034472 -0.78377402 3.3168867
2.8848748 -0.25653255 2.507709
2.9795234 -0.36197266 2.4550118
4.2850966 -0.62876838 3.322036
4.3865709 -0.77927065 3.2153776
2.9822154 -0.26228631 2.4727707
3.0230174 -0.36068708 2.3741937
4.3702645 -0.62732601 3.223434
4.4514813 -0.77248597 3.1022468
3.0297906 -0.26410496 2.3968215
3.0726521 -0.36156735 2.3012235
4.4443221 -0.62573558 3.119041
4.5244613 -0.76680219 2.9929461
3.0763991 -0.26695606 2.3228722
3.120235 -0.36138636 2.2253103
4.4940782 -0.62075204 2.9981585
4.5954752 -0.76214737 2.8856645
3.1300817 -0.26990461 2.25279
3.161763 -0.36112955 2.1465108
4.5813165 -0.62038898 2.9034996
4.6745253 -0.75755727 2.7802317
3.1736388 -0.27169085 2.1759162
3.2154157 -0.36204225 2.074465
4.6654763 -0.62094265 2.8048806
4.7424641 -0.75281918 2.6690078
3.2222471 -0.27454913 2.1019294
3.2640319 -0.36290091 2.0005143
4.7202835 -0.6170311 2.6868851
4.8083892 -0.74705607 2.5568397
3.2728925 -0.27745074 2.0299039
4.7242608 -0.49253345 2.7150724
4.8043914 -0.61653072 2.5852852
4.8792911 -0.74229258 2.4435599
4.7072039 -0.37294149 2.7425642
4.7841635 -0.49274772 2.6029086
4.6623988 -0.59107745 2.3693306
4.9522481 -0.73759055 2.3332417
4.7731829 -0.37726703 2.6352143
4.8350115 -0.49287546 2.4879155
4.775846 -0.5940243 2.2861252
5.0282192 -0.73391718 2.2238483
4.5635562 -0.36299253 2.3883138
4.7526722 -0.48031935 2.3086236
5.0203185 -0.61250257 2.2592046
5.1041541 -0.73020768 2.1124561
-0.02611593 -0.059798401 0.050936799
5.007237 -0.49892393 2.2865133
5.0902042 -0.61173487 2.1458719
13.43894 -1.7858698 5.0953221
4.7250075 -0.37423581 2.2000237
5.0721345 -0.50015599 2.1742382
5.1510248 -0.60886282 2.0287454
13.639436 -1.7763097 4.7986403
5.0602198 -0.39677823 2.2123442
5.1430464 -0.50242752 2.0628314
13.606293 -1.4858764 4.8955474
13.820738 -1.7644831 4.4913559
5.1250825 -0.40199152 2.0989969
13.566796 -1.2141467 4.9772296
13.806703 -1.4842608 4.5957227
14.03422 -1.7579694 4.1943755
13.510471 -0.96158832 5.0718851
13.751274 -1.219563 4.6825781
14.006145 -1.4836777 4.2978978
14.23145 -1.7491453 3.8837376
13.704072 -0.97819781 4.7858629
13.944686 -1.2269571 4.3847218
14.170377 -1.4807522 3.9887717
14.444839 -1.7425411 3.5817595
13.892623 -0.99373531 4.496954
14.140206 -1.2354667 4.0928087
14.41888 -1.4864345 3.6949165
14.655004 -1.735709 3.2678418
14.072969 -1.0090451 4.1971989
14.345459 -1.2447586 3.7866938
14.585868 -1.4832845 3.3727376
14.847879 -1.7265267 2.9382849
14.28439 -1.0275561 3.9018054
14.552691 -1.2540399 3.4795418
14.786838 -1.4832561 3.0498664
15.07683 -1.7205638 2.6129961
14.48557 -1.045796 3.5936043
14.754795 -1.2631763 3.1654863
15.014771 -1.4863061 2.7254336
15.299558 -1.714362 2.2758238
14.686618 -1.0639093 3.2784054
14.969647 -1.273124 2.8381729
15.218584 -1.4881434 2.3944721
15.524135 -1.708023 1.930617
14.873576 -1.0818819 2.9584718
15.189529 -1.2851257 2.5127285
15.447238 -1.4909257 2.0550261
15.746638 -1.7016042 1.5814488
13.09216 -0.96486932 2.2927155
15.412335 -1.2970657 2.1832294
15.67585 -1.4946716 1.713562
6.1002154 -0.68607724 0.50105923
12.401436 -0.92271757 1.8802705
15.592839 -1.3065478 1.8375612
6.1485491 -0.61728889 0.55841815
5.9694386 -0.66183573 0.34989503
11.536923 -0.8670702 1.4783268
15.821206 -1.320093 1.484921
5.9706602 -0.59476984 0.40210301
6.0018115 -0.65441161 0.20837522
11.527756 -0.87209779 1.2043145
6.0478921 -0.54104686 0.45664734
6.0670576 -0.59764612 0.26319909
6.0831604 -0.65116268 0.065862656
6.108212 -0.49437016 0.51738286
6.0331974 -0.53839898 0.31292158
6.0563784 -0.59101319 0.1194703
6.1754427 -0.64989865 -0.079891667
5.9693689 -0.48709705 0.36606267
6.0255218 -0.53579432 0.17006402
3.8694866 -0.39629039 0.0028975885
3.692198 -0.40747118 -0.11502531
5.9997106 -0.49268165 0.22534585
3.8762252 -0.36591417 0.036332242
5.2317085 -0.5091446 -0.13669556
-0.02611593 -0.059798401 0.050936799
6.0780463 -0.50245595 0.084654726
6.1930914 -0.54725707 -0.11837845
3.6144104 -0.3672789 -0.16385843
-0.02611593 -0.059798401 0.050936799
6.1752992 -0.51322585 -0.060410105
3.6100676 -0.34380773 -0.13334221
4.0620375 -0.40180773 -0.28790587
3.8439648 -0.4030059 -0.39588121
-0.02611593 -0.059798401 0.050936799
4.0508084 -0.37841997 -0.2512601
4.1500506 -0.40624845 -0.39366987
3.8751504 -0.39937001 -0.4934324
-0.02611593 -0.059798401 0.050936799
4.6358428 -0.42393568 -0.40608937
3.8030896 -0.37390837 -0.4476071
3.9352252 -0.39874727 -0.5965808
4.9231973 -0.43138075 -0.38859814
3.8007522 -0.35847914 -0.41527328
1.9449589 -0.22009133 -0.25296956
4.0659866 -0.40310714 -0.7161485
4.7263961 -0.41987354 -0.4847379
1.9243727 -0.21137927 -0.23241955
4.2252092 -0.40191329 -0.70610452
3.4357343 -0.34525004 -0.68129003
-0.02611593 -0.059798401 0.050936799
4.276751 -0.39560401 -0.6789462
3.4522872 -0.33781531 -0.65345603
3.8482826 -0.37359044 -0.86358851
-0.02611593 -0.059798401 0.050936799
3.4697945 -0.33234766 -0.62767613
3.3551042 -0.32727844 -0.71746761
3.6584558 -0.35301089 -0.90967774
4.0792203 -0.3813023 -0.70799899
3.9909909 -0.3738057 -0.82725191
3.6063435 -0.34463623 -0.86353499
3.7462368 -0.35421696 -1.0283833
3.4528453 -0.33538511 -0.67743069
3.9005289 -0.36704001 -0.90546232
3.5011804 -0.33408871 -0.92639655
3.6430857 -0.34067714 -1.0912285
3.4213264 -0.33581188 -0.75787556
3.4450266 -0.3316806 -0.88128638
3.6774905 -0.34621435 -1.0689652
2.0316737 -0.21440993 -0.64262241
3.6396122 -0.35710484 -0.90039581
3.7138493 -0.35372227 -1.048775
3.5823073 -0.33568469 -1.1330142
3.4657621 -0.31770089 -1.2175356
3.7432532 -0.36927602 -1.0245986
3.6156325 -0.34716302 -1.1138394
3.4941335 -0.32719785 -1.1962315
-0.02611593 -0.059798401 0.050936799
3.6499674 -0.36567995 -1.0928102
3.5095329 -0.33968377 -1.1727376
-0.02611593 -0.059798401 0.050936799
0.17431304 -0.073091947 -0.032084376
2.0355794 -0.233403 -0.64403957
-0.02611593 -0.059798401 0.050936799
0.18922752 -0.075073086 -0.036400907
-0.02611593 -0.059798401 0.050936799
-0.02611593 -0.059798401 0.050936799
0.19023822 -0.077094421 -0.035456084
-0.02611593 -0.059798401 0.050936799
0.15230228 -0.071995065 -0.032652624
-0.02611593 -0.059798401 0.050936799
-0.02611593 -0.059798401 0.050936799
0.16322145 -0.072962023 -0.036875982
-0.02611593 -0.059798401 0.050936799
0.1742786 -0.077073179 -0.033156108
0.16821265 -0.074979626 -0.037005972
-0.02611593 -0.059798401 0.050936799
0.1372567 -0.06988731 -0.035333708
-0.02611593 -0.059798401 0.050936799
-0.02611593 -0.059798401 0.050936799
0.13924846 -0.071894147 -0.035407323
-0.02611593 -0.059798401 0.050936799
0.15029085 -0.074987382 -0.032669101
0.15214464 -0.073850013 -0.040685952
-0.02611593 -0.059798401 0.050936799
0.11828282 -0.068837374 -0.033959016
-0.02611593 -0.059798401 0.050936799
-0.02611593 -0.059798401 0.050936799
0.12125961 -0.069829889 -0.035033058
-0.02611593 -0.059798401 0.050936799
0.13027972 -0.073897682 -0.03327493
0.1321522 -0.072778404 -0.040292121
-0.02611593 -0.059798401 0.050936799
0.10527433 -0.066772982 -0.034678351
-0.02611593 -0.059798401 0.050936799
-0.02611593 -0.059798401 0.050936799
0.10628501 -0.068794303 -0.033733528
-0.02611593 -0.059798401 0.050936799
0.11724856 -0.072815023 -0.035011951
0.11517798 -0.071735658 -0.038955003
-0.02611593 -0.059798401 0.050936799
0.091280818 -0.065722905 -0.034397271
-0.02611593 -0.059798401 0.050936799
-0.02611593 -0.059798401 0.050936799
0.095253512 -0.067718834 -0.035508133
-0.02611593 -0.059798401 0.050936799
0.099293232 -0.071786761 -0.032656383
0.10314665 -0.070656575 -0.040710825
-0.02611593 -0.059798401 0.050936799
0.077343471 -0.06472709 -0.031117205
-0.02611593 -0.059798401 0.050936799
-0.02611593 -0.059798401 0.050936799
0.080316357 -0.066719428 -0.03220927
-0.02611593 -0.059798401 0.050936799
0.085318454 -0.070754781 -0.031375639
0.08919058 -0.069642678 -0.038430415
-0.02611593 -0.059798401 0.050936799
0.066386856 -0.063723959 -0.028893173
-0.02611593 -0.059798401 0.050936799
-0.02611593 -0.059798401 0.050936799
0.074242555 -0.066625543 -0.03609518
-0.02611593 -0.059798401 0.050936799
0.077282466 -0.070689887 -0.033224642
0.07817781 -0.068585284 -0.039205357
-0.02611593 -0.059798401 0.050936799
0.060331795 -0.063648157 -0.031779405
-0.02611593 -0.059798401 0.050936799
-0.02611593 -0.059798401 0.050936799
0.062304854 -0.06563691 -0.032852691
-0.02611593 -0.059798401 0.050936799
0.066307127 -0.069668666 -0.032000259
0.068202287 -0.067567661 -0.037999775
-0.02611593 -0.059798401 0.050936799
0.052355908 -0.062637709 -0.030611403
-0.02611593 -0.059798401 0.050936799
-0.02611593 -0.059798401 0.050936799
0.052348047 -0.06463737 -0.030647442
-0.02611593 -0.059798401 0.050936799
0.054369427 -0.068680041 -0.028757777
0.06018503 -0.067520857 -0.038849108
-0.02611593 -0.059798401 0.050936799
0.047300663 -0.062565498 -0.033516429
-0.02611593 -0.059798401 0.050936799
-0.02611593 -0.059798401 0.050936799
0.047292802 -0.064565159 -0.033552468
-0.02611593 -0.059798401 0.050936799
0.051291157 -0.069596745 -0.03271807
0.053148866 -0.067459561 -0.040716901
-0.02611593 -0.059798401 0.050936799
0.036400214 -0.061616637 -0.028293416
-0.02611593 -0.059798401 0.050936799
-0.02611593 -0.059798401 0.050936799
0.04127517 -0.064525537 -0.034439389
-0.02611593 -0.059798401 0.050936799
0.042315453 -0.068582706 -0.031531267
0.046172798 -0.066452697 -0.03956769
-0.02611593 -0.059798401 0.050936799
0.033344589 -0.061551597 -0.031236023
-0.02611593 -0.059798401 0.050936799
-0.02611593 -0.059798401 0.050936799
0.033318013 -0.063533165 -0.032271728
-0.02611593 -0.059798401 0.050936799
0.035335459 -0.068575673 -0.030400075
0.036230791 -0.066471078 -0.036380798
-0.02611593 -0.059798401 0.050936799
0.028330712 -0.060515739 -0.032123722
-0.02611593 -0.059798401 0.050936799
-0.02611593 -0.059798401 0.050936799
0.028300205 -0.063497141 -0.033177428
-0.02611593 -0.059798401 0.050936799
0.031280022 -0.068507053 -0.033323891
0.032179281 -0.06540262 -0.039286606
-0.02611593 -0.059798401 0.050936799
0.024275277 -0.060447115 -0.035047546
-0.02611593 -0.059798401 0.050936799
-0.02611593 -0.059798401 0.050936799
-0.02611593 -0.059798401 0.050936799
-0.02611593 -0.059798401 0.050936799
-0.02611593 -0.059798401 0.050936799
0.025236731 -0.065431766 -0.036156088
-0.02611593 -0.059798401 0.050936799
-0.02611593 -0.059798401 0.050936799
-0.02611593 -0.059798401 0.050936799
-0.02611593 -0.059798401 0.050936799
-0.02611593 -0.059798401 0.050936799
-0.02611593 -0.059798401 0.050936799
-0.02611593 -0.059798401 0.050936799
-0.02611593 -0.059798401 0.050936799
-0.02611593 -0.059798401 0.050936799
-0.02611593 -0.059798401 0.050936799
-0.02611593 -0.059798401 0.050936799
-0.02611593 -0.059798401 0.050936799
-0.02611593 -0.059798401 0.050936799
-0.02611593 -0.059798401 0.050936799
-0.02611593 -0.059798401 0.050936799
-0.02611593 -0.059798401 0.050936799
-0.02611593 -0.059798401 0.050936799
-0.02611593 -0.059798401 0.050936799
-0.02611593 -0.059798401 0.050936799
-0.02611593 -0.059798401 0.050936799
-0.02611593 -0.059798401 0.050936799
-0.02611593 -0.059798401 0.050936799
-0.02611593 -0.059798401 0.050936799
-0.02611593 -0.059798401 0.050936799
-0.02611593 -0.059798401 0.050936799
-0.02611593 -0.059798401 0.050936799
-0.02611593 -0.059798401 0.050936799
-0.02611593 -0.059798401 0.050936799
-0.02611593 -0.059798401 0.050936799
-0.02611593 -0.059798401 0.050936799
-0.02611593 -0.059798401 0.050936799
-0.02611593 -0.059798401 0.050936799
-0.02611593 -0.059798401 0.050936799
-0.02611593 -0.059798401 0.050936799
-0.02611593 -0.059798401 0.050936799
-0.02611593 -0.059798401 0.050936799
-0.02611593 -0.059798401 0.050936799
-0.02611593 -0.059798401 0.050936799
-0.02611593 -0.059798401 0.050936799
-0.02611593 -0.059798401 0.050936799
-0.02611593 -0.059798401 0.050936799
-0.02611593 -0.059798401 0.050936799
-0.02611593 -0.059798401 0.050936799
-0.02611593 -0.059798401 0.050936799
-0.02611593 -0.059798401 0.050936799
-0.02611593 -0.059798401 0.050936799
-0.02611593 -0.059798401 0.050936799
-0.02611593 -0.059798401 0.050936799
-0.02611593 -0.059798401 0.050936799
-0.02611593 -0.059798401 0.050936799
-0.02611593 -0.059798401 0.050936799
-0.02611593 -0.059798401 0.050936799
-0.02611593 -0.059798401 0.050936799
-0.02611593 -0.059798401 0.050936799
-0.02611593 -0.059798401 0.050936799
-0.02611593 -0.059798401 0.050936799
-0.02611593 -0.059798401 0.050936799
-0.02611593 -0.059798401 0.050936799
-0.02611593 -0.059798401 0.050936799
-0.02611593 -0.059798401 0.050936799
-0.02611593 -0.059798401 0.050936799
-0.02611593 -0.059798401 0.050936799
-0.02611593 -0.059798401 0.050936799
-0.02611593 -0.059798401 0.050936799
-0.02611593 -0.059798401 0.050936799
-0.02611593 -0.059798401 0.050936799
-0.02611593 -0.059798401 0.050936799
-0.02611593 -0.059798401 0.050936799
-0.02611593 -0.059798401 0.050936799
-0.02611593 -0.059798401 0.050936799
-0.02611593 -0.059798401 0.050936799
-0.02611593 -0.059798401 0.050936799
-0.02611593 -0.059798401 0.050936799
-0.02611593 -0.059798401 0.050936799
-0.02611593 -0.059798401 0.050936799
-0.02611593 -0.059798401 0.050936799
-0.02611593 -0.059798401 0.050936799
-0.02611593 -0.059798401 0.050936799
-0.02611593 -0.059798401 0.050936799
-0.02611593 -0.059798401 0.050936799
-0.02611593 -0.059798401 0.050936799
-0.02611593 -0.059798401 0.050936799
-0.02611593 -0.059798401 0.050936799
-0.02611593 -0.059798401 0.050936799
-0.02611593 -0.059798401 0.050936799
-0.02611593 -0.059798401 0.050936799
-0.02611593 -0.059798401 0.050936799
-0.02611593 -0.059798401 0.050936799
-0.02611593 -0.059798401 0.050936799
-0.02611593 -0.059798401 0.050936799
-0.02611593 -0.059798401 0.050936799
-0.02611593 -0.059798401 0.050936799
-0.02611593 -0.059798401 0.050936799
-0.02611593 -0.059798401 0.050936799
-0.02611593 -0.059798401 0.050936799
-0.02611593 -0.059798401 0.050936799
-0.02611593 -0.059798401 0.050936799
-0.02611593 -0.059798401 0.050936799
-0.02611593 -0.059798401 0.050936799
-0.02611593 -0.059798401 0.050936799
-0.02611593 -0.059798401 0.050936799
-0.02611593 -0.059798401 0.050936799
-0.02611593 -0.059798401 0.050936799
-0.02611593 -0.059798401 0.050936799
-0.02611593 -0.059798401 0.050936799
-0.02611593 -0.059798401 0.050936799
-0.02611593 -0.059798401 0.050936799
-0.02611593 -0.059798401 0.050936799
-0.02611593 -0.059798401 0.050936799
-0.02611593 -0.059798401 0.050936799
-0.02611593 -0.059798401 0.050936799
-0.02611593 -0.059798401 0.050936799
-0.02611593 -0.059798401 0.050936799
-0.02611593 -0.059798401 0.050936799
-0.02611593 -0.059798401 0.050936799
-0.02611593 -0.059798401 0.050936799
-0.02611593 -0.059798401 0.050936799
-0.02611593 -0.059798401 0.050936799
-0.02611593 -0.059798401 0.050936799
-0.02611593 -0.059798401 0.050936799
-0.02611593 -0.059798401 0.050936799
-0.02611593 -0.059798401 0.050936799
-0.02611593 -0.059798401 0.050936799
-0.02611593 -0.059798401 0.050936799
-0.02611593 -0.059798401 0.050936799
-0.02611593 -0.059798401 0.050936799
-0.02611593 -0.059798401 0.050936799
-0.02611593 -0.059798401 0.050936799
-0.02611593 -0.059798401 0.050936799
-0.02611593 -0.059798401 0.050936799
-0.02611593 -0.059798401 0.050936799
-0.02611593 -0.059798401 0.050936799
-0.02611593 -0.059798401 0.050936799
-0.02611593 -0.059798401 0.050936799
-0.02611593 -0.059798401 0.050936799
-0.02611593 -0.059798401 0.050936799
-0.02611593 -0.059798401 0.050936799
-0.02611593 -0.059798401 0.050936799
-0.02611593 -0.059798401 0.050936799
-0.02611593 -0.059798401 0.050936799
-0.02611593 -0.059798401 0.050936799
-0.02611593 -0.059798401 0.050936799
-0.02611593 -0.059798401 0.050936799
-0.02611593 -0.059798401 0.050936799
-0.02611593 -0.059798401 0.050936799
-0.02611593 -0.059798401 0.050936799
-0.02611593 -0.059798401 0.050936799
-0.02611593 -0.059798401 0.050936799
-0.02611593 -0.059798401 0.050936799
-0.02611593 -0.059798401 0.050936799
-0.02611593 -0.059798401 0.050936799
-0.02611593 -0.059798401 0.050936799
-0.02611593 -0.059798401 0.050936799
-0.02611593 -0.059798401 0.050936799
-0.02611593 -0.059798401 0.050936799
-0.02611593 -0.059798401 0.050936799
-0.02611593 -0.059798401 0.050936799
-0.02611593 -0.059798401 0.050936799
-0.02611593 -0.059798401 0.050936799
-0.02611593 -0.059798401 0.050936799
-0.02611593 -0.059798401 0.050936799
-0.02611593 -0.059798401 0.050936799
-0.02611593 -0.059798401 0.050936799
-0.02611593 -0.059798401 0.050936799
-0.02611593 -0.059798401 0.050936799
-0.02611593 -0.059798401 0.050936799
-0.02611593 -0.059798401 0.050936799
-0.069812924 -0.063018806 -0.038333591
-0.02611593 -0.059798401 0.050936799
-0.02611593 -0.059798401 0.050936799
-0.02611593 -0.059798401 0.050936799
-0.02611593 -0.059798401 0.050936799
-0.02611593 -0.059798401 0.050936799
-0.02611593 -0.059798401 0.050936799
-0.02611593 -0.059798401 0.050936799
-0.073770814 -0.062040795 -0.036241084
-0.02611593 -0.059798401 0.050936799
-0.02611593 -0.059798401 0.050936799
-0.02611593 -0.059798401 0.050936799
-0.02611593 -0.059798401 0.050936799
-0.02611593 -0.059798401 0.050936799
-0.02611593 -0.059798401 0.050936799
-0.079766706 -0.066036671 -0.035200752
-0.077713922 -0.062080704 -0.033166945
-0.02611593 -0.059798401 0.050936799
-0.02611593 -0.059798401 0.050936799
-0.02611593 -0.059798401 0.050936799
-0.02611593 -0.059798401 0.050936799
-0.02611593 -0.059798401 0.050936799
-0.02611593 -0.059798401 0.050936799
-0.02611593 -0.059798401 0.050936799
-0.081675746 -0.062102523 -0.031092446
-0.02611593 -0.059798401 0.050936799
-0.02611593 -0.059798401 0.050936799
-0.02611593 -0.059798401 0.050936799
-0.02611593 -0.059798401 0.050936799
-0.02611593 -0.059798401 0.050936799
-0.02611593 -0.059798401 0.050936799
-0.089708708 -0.066055052 -0.032013863
-0.090767704 -0.061979782 -0.035921644
-0.02611593 -0.059798401 0.050936799
-0.02611593 -0.059798401 0.050936799
-0.02611593 -0.059798401 0.050936799
-0.02611593 -0.059798401 0.050936799
-0.087606691 -0.059135772 -0.027926672
-0.02611593 -0.059798401 0.050936799
-0.093651809 -0.066094957 -0.028939717
-0.096747875 -0.061976336 -0.034809243
-0.02611593 -0.059798401 0.050936799
-0.089617193 -0.057110846 -0.028852712
-0.02611593 -0.059798401 0.050936799
-0.02611593 -0.059798401 0.050936799
-0.095661402 -0.059052791 -0.030775327
-0.02611593 -0.059798401 0.050936799
-0.10065053 -0.066069834 -0.028808184
-0.10578761 -0.062907688 -0.036657471
-0.02611593 -0.059798401 0.050936799
-0.093579009 -0.057132665 -0.026778232
-0.02611593 -0.059798401 0.050936799
-0.02611593 -0.059798401 0.050936799
-0.099604495 -0.059092708 -0.027701188
-0.02611593 -0.059798401 0.050936799
-0.10966761 -0.066019446 -0.029638734
-0.11074532 -0.061926089 -0.034546174
-0.02611593 -0.059798401 0.050936799
-0.10159235 -0.056086034 -0.027609546
-0.02611593 -0.059798401 0.050936799
-0.02611593 -0.059798401 0.050936799
-0.1086403 -0.059024226 -0.029531397
-0.02611593 -0.059798401 0.050936799
-0.11868468 -0.065969065 -0.030469272
-0.1197476 -0.062893622 -0.03439508
-0.02611593 -0.059798401 0.050936799
-0.10759125 -0.056064501 -0.027496804
-0.02611593 -0.059798401 0.050936799
-0.02611593 -0.059798401 0.050936799
-0.11765738 -0.058973838 -0.030361935
-0.02611593 -0.059798401 0.050936799
-0.12564595 -0.065980114 -0.028338417
-0.12772742 -0.062882997 -0.033245094
-0.02611593 -0.059798401 0.050936799
-0.11151562 -0.0561225 -0.023422997
-0.02611593 -0.059798401 0.050936799
-0.02611593 -0.059798401 0.050936799
-0.12260029 -0.059010163 -0.027269002
-0.02611593 -0.059798401 0.050936799
-0.13564806 -0.066944055 -0.028168533
-0.13874413 -0.062825434 -0.034038059
-0.02611593 -0.059798401 0.050936799
-0.12256978 -0.056028757 -0.026215285
-0.02611593 -0.059798401 0.050936799
-0.02611593 -0.059798401 0.050936799
-0.13463552 -0.058930915 -0.029042844
-0.02611593 -0.059798401 0.050936799
-0.14056832 -0.065998636 -0.024057917
-0.14770503 -0.062829308 -0.031869624
-0.02611593 -0.059798401 0.050936799
-0.13358648 -0.05597119 -0.02700825
-0.02611593 -0.059798401 0.050936799
-0.02611593 -0.059798401 0.050936799
-0.13955975 -0.058985326 -0.024950247
-0.02611593 -0.059798401 0.050936799
-0.15762529 -0.066883191 -0.026755482
-0.1556474 -0.062854864 -0.028720316
-0.02611593 -0.059798401 0.050936799
-0.14356594 -0.055953391 -0.025820684
-0.02611593 -0.059798401 0.050936799
-0.02611593 -0.059798401 0.050936799
-0.15763132 -0.05884837 -0.028610662
-0.02611593 -0.059798401 0.050936799
-0.1706042 -0.066854618 -0.025511544
-0.1747001 -0.062732413 -0.03136228
-0.02611593 -0.059798401 0.050936799
-0.15861934 -0.05584529 -0.028537814
-0.02611593 -0.059798401 0.050936799
-0.02611593 -0.059798401 0.050936799
-0.16961041 -0.058823392 -0.027385507
-0.02611593 -0.059798401 0.050936799
-0.19567844 -0.067692369 -0.029058438
-0.1957337 -0.062620863 -0.032966997
-0.02611593 -0.059798401 0.050936799
-0.16957989 -0.05584199 -0.02633179
-0.02611593 -0.059798401 0.050936799
-0.02611593 -0.059798401 0.050936799
-0.18560749 -0.05876597 -0.027084857
-0.02611593 -0.059798401 0.050936799
-0.21364164 -0.068663776 -0.026738908
-0.21975195 -0.063516468 -0.033533704
-0.02611593 -0.059798401 0.050936799
-0.18557698 -0.055784568 -0.02603114
-0.02611593 -0.059798401 0.050936799
-0.02611593 -0.059798401 0.050936799
-0.21365853 -0.058611214 -0.029557709
-0.02611593 -0.059798401 0.050936799
-0.24667697 -0.069509 -0.028136156
-0.24172921 -0.063455604 -0.032120652
-0.02611593 -0.059798401 0.050936799
-0.20657313 -0.055709198 -0.025636539
-0.02611593 -0.059798401 0.050936799
-0.02611593 -0.059798401 0.050936799
-0.24067231 -0.058496222 -0.030050032
-0.02611593 -0.059798401 0.050936799
-1.0665232 -0.10390991 -0.2714912
-0.26566863 -0.063423738 -0.028670691
-0.02611593 -0.059798401 0.050936799
-0.2376197 -0.054543849 -0.028034996
-1.0790825 -0.10227964 -0.24821869
-0.02611593 -0.059798401 0.050936799
-0.26159355 -0.058493212 -0.025656778
-0.02611593 -0.059798401 0.050936799
-1.0856279 -0.10168883 -0.22407728
-1.0507834 -0.077583365 -0.2372981
-0.02611593 -0.059798401 0.050936799
-0.23138133 -0.055800367 -0.015170168
-1.0921732 -0.10109802 -0.19993588
-1.0694054 -0.077876963 -0.21694784
-1.0566623 -0.05660158 -0.23480766
-0.02611593 -0.059798401 0.050936799
-1.1027141 -0.099493012 -0.17570126
-1.0779693 -0.077260874 -0.19376852
-1.0592124 -0.057024952 -0.21075937
-1.0454814 -0.038752653 -0.22869202
-1.1102594 -0.098898605 -0.15154105
-1.087533 -0.076641202 -0.17057037
-1.0687801 -0.05740511 -0.18757927
-1.038981 -0.040262423 -0.20183197
-1.1288213 -0.098246634 -0.1281738
-1.1051177 -0.076974563 -0.1482396
-1.0662936 -0.057882603 -0.16162567
-1.0616435 -0.041505311 -0.18342391
-0.02611593 -0.059798401 0.050936799
-1.1106446 -0.076405428 -0.12311733
-1.0879151 -0.058165427 -0.14121906
-1.067197 -0.042917747 -0.1593373
-1.1468699 -0.09608341 -0.077779666
-1.1221931 -0.076796494 -0.098899975
-1.1004821 -0.05853482 -0.11798257
-1.0627297 -0.043384328 -0.13442092
-1.1483788 -0.095546722 -0.051732883
-1.1357559 -0.076162465 -0.075626679
-1.1160673 -0.05887536 -0.095689394
-1.0873547 -0.04465621 -0.11397596
-1.1538872 -0.094995663 -0.025610939
-1.1472856 -0.076571628 -0.05040966
-1.135633 -0.059219629 -0.07232137
-1.1069616 -0.045964137 -0.09262529
-1.1684123 -0.094394237 -0.0003195256
-1.1437955 -0.076052874 -0.024456821
-1.1291473 -0.059711479 -0.046442933
-1.1124926 -0.046394829 -0.067521021
-1.1979349 -0.093738966 0.025253735
-1.1523031 -0.075491063 0.0017214939
-1.1316599 -0.060171027 -0.020395368
-1.1180462 -0.047807261 -0.043434426
-0.02611593 -0.059798401 0.050936799
-1.1688319 -0.075882278 0.027032457
-1.1442121 -0.06155834 0.0038227439
-1.122581 -0.049241375 -0.018366963
-1.2099284 -0.091651537 0.078534104
-1.1993394 -0.076241337 0.053606156
-1.1507241 -0.062003534 0.02994547
-1.1431319 -0.050599974 0.0060014874
-1.2143992 -0.091140255 0.10663658
-1.2098469 -0.075672351 0.079822063
-1.1702524 -0.06238398 0.055312812
-1.1396494 -0.052080888 0.031918284
-1.2148858 -0.089625418 0.13368227
-1.2093413 -0.076160759 0.10681291
-1.1977793 -0.062735714 0.080830477
-1.1791966 -0.053371295 0.056643754
-1.2203565 -0.089110546 0.16180354
-1.2218107 -0.075620756 0.13506572
-1.2132559 -0.064184614 0.10910362
-0.02611593 -0.059798401 0.050936799
-1.2178434 -0.08760646 0.18879282
-1.2262856 -0.076109298 0.16315019
-1.2257292 -0.064644456 0.1373384
-1.2071882 -0.056243688 0.11113434
-0.02611593 -0.059798401 0.050936799
-1.2187774 -0.075623006 0.19002751
-1.2162255 -0.065165155 0.16416013
-0.02611593 -0.059798401 0.050936799
-1.2476879 -0.086598977 0.25039071
-1.226229 -0.075119048 0.21918601
-1.2276803 -0.065646678 0.1933758
-1.2271397 -0.058181137 0.16749194
-0.02611593 -0.059798401 0.050936799
-1.2306851 -0.075625688 0.24827015
-1.2291597 -0.067145824 0.22138587
-1.2306187 -0.059673108 0.19553959
-0.02611593 -0.059798401 0.050936799
-1.2700225 -0.076115243 0.2840099
-1.2286354 -0.067652315 0.24937639
-1.2231185 -0.061186463 0.22238091
-0.02611593 -0.059798401 0.050936799
-0.02611593 -0.059798401 0.050936799
-1.2689766 -0.06913811 0.28511691
-1.2265826 -0.063696347 0.25141019
-1.5242064 -0.087904558 0.43860805
-0.02611593 -0.059798401 0.050936799
-0.02611593 -0.059798401 0.050936799
-0.02611593 -0.059798401 0.050936799
-1.5026033 -0.086559109 0.47023863
-1.5291326 -0.078924321 0.44086349
-0.02611593 -0.059798401 0.050936799
-0.02611593 -0.059798401 0.050936799
-3.0950766 -0.11281411 0.99775785
-6.2373943 -0.1422089 1.815336
-1.5280571 -0.073983021 0.44393378
-0.02611593 -0.059798401 0.050936799
-3.1045609 -0.11022243 1.0780096
-3.0850499 -0.10083394 0.99678653
-3.1430416 -0.092635669 0.9430024
-1.5339772 -0.073034018 0.44806319
-3.1716456 -0.1088023 1.1803259
-3.1144304 -0.10127852 1.0833579
-3.0839105 -0.093947262 1.0028918
-3.1409152 -0.093769297 0.94994444
-3.2495639 -0.10850533 1.2918279
-3.1785233 -0.10186881 1.1855819
-3.1162832 -0.097398646 1.0904652
-3.0827951 -0.098076791 1.0097986
-3.3115144 -0.10622993 1.4010659
-3.2524686 -0.10356776 1.2959729
-3.1863122 -0.10103926 1.1967466
-3.1320419 -0.10359345 1.104653
-3.3961463 -0.10517934 1.5277125
-3.3213549 -0.1043391 1.4092873
-3.2612274 -0.10477045 1.3091197
-3.197098 -0.10923357 1.2098048
-3.4816613 -0.10323386 1.6603937
-3.4039989 -0.10629518 1.5358421
-3.3251264 -0.10855922 1.4222859
-3.2710104 -0.11698578 1.3230866
-4.796958 -0.11648747 2.4050322
-3.4845457 -0.10734904 1.6673757
-3.4097631 -0.1135257 1.5498239
-3.3418267 -0.12383935 1.4413286
-4.6597047 -0.11218855 2.4695621
-4.8354659 -0.12685229 2.4335754
-3.4863639 -0.11855706 1.679211
-3.4165332 -0.13178694 1.5656257
-4.5918169 -0.10723551 2.5684142
-4.6466837 -0.12530535 2.4730821
-5.0433044 -0.15022938 2.5550852
-3.5020127 -0.13991213 1.7021254
-4.7426691 -0.10564157 2.7903428
-4.6204143 -0.12558059 2.5936263
-4.9445477 -0.15329581 2.6482122
-5.0657864 -0.18677384 2.5898566
-3.2952502 -0.088989019 2.0502934
-3.4018934 -0.10904426 2.0209172
-4.8408322 -0.15734382 2.739228
-4.9303479 -0.1926831 2.66624
-3.2271233 -0.086315498 2.1090863
-3.2773092 -0.10806848 2.0506124
-3.3719478 -0.13118437 2.0219567
-4.8157406 -0.19967963 2.7519965
-3.1906161 -0.083888918 2.1884735
-3.2081907 -0.1073982 2.1093504
-3.2602608 -0.13326995 2.0578399
-4.6992269 -0.20659292 2.8327177
-3.2459123 -0.082268171 2.332587
-3.1805813 -0.10804734 2.1948507
-3.2029829 -0.13571891 2.1257463
-4.5729022 -0.21336117 2.903254
-2.6125185 -0.076288514 1.9737146
-3.2368181 -0.11049469 2.3429096
-3.1862149 -0.13949087 2.220396
-4.4634633 -0.22017696 2.9801078
-2.6275899 -0.07407327 2.0760715
-2.5798099 -0.10122181 1.9626474
-3.3164659 -0.14762691 2.4227562
-4.3471146 -0.22592759 3.0518494
-2.5716147 -0.072211802 2.1270747
-2.5031793 -0.10010993 1.9952439
-2.5598152 -0.13039719 1.9677471
-3.3210313 -0.19519791 2.4549923
-2.4329653 -0.069385558 2.1065228
-2.4531922 -0.10024468 2.0473232
-2.4812152 -0.1322739 1.9992522
-2.5654097 -0.17091152 1.9971288
-1.9059194 -0.065681286 1.7305948
-2.4219017 -0.10060066 2.1157541
-2.441047 -0.1345533 2.06148
-2.5744798 -0.17775247 2.1012101
-1.8533781 -0.064392827 1.7586437
-1.8939154 -0.092828289 1.7358806
-2.4255073 -0.13910443 2.1441348
-3.9128566 -0.25169176 3.3323481
-1.8362085 -0.062572286 1.8203762
-1.8423404 -0.092572264 1.7659298
-1.8808335 -0.12406865 1.7460741
-1.9163765 -0.15853913 1.7241086
-2.0015333 -0.061431017 2.0705769
-1.8938965 -0.094730034 1.8969004
-1.832191 -0.12587388 1.7801422
-1.868704 -0.16237661 1.7601588
-2.2047384 -0.059217375 2.3805268
-2.0679398 -0.098845035 2.1631749
-1.9573677 -0.13410021 1.9864069
-1.84754 -0.16658749 1.8227075
-3.3214405 -0.055271804 3.7369654
-2.2768943 -0.10487984 2.4880881
-2.1351755 -0.14545293 2.2666256
-2.0226755 -0.18466033 2.0867491
-3.2262998 -0.052713271 3.7962503
-3.2864861 -0.12762032 3.7480059
-3.3524053 -0.20175928 3.7138875
-2.2346511 -0.205718 2.4134476
-3.1292157 -0.050107654 3.8524992
-3.1952255 -0.12817356 3.8143098
-3.2523081 -0.20519957 3.7719707
-3.3044229 -0.2902422 3.7293937
-3.0390182 -0.047585454 3.9148772
-3.099097 -0.12861811 3.873522
-3.1541541 -0.20868698 3.8330908
-3.2140543 -0.29691741 3.8026061
-2.9478204 -0.045066826 3.9772363
-2.9990628 -0.12898657 3.9276607
-3.0599246 -0.21223238 3.8982847
-3.1139128 -0.30341148 3.8636341
-2.8527734 -0.042417858 4.0315232
-2.9088395 -0.12950003 3.9919844
-2.9667366 -0.21673784 3.9614797
-3.0137897 -0.30988747 3.9236629
-2.7635944 -0.039873976 4.0929203
-2.8186347 -0.12999541 4.0553074
-2.8695822 -0.22022162 4.0226188
-2.9195533 -0.31645042 3.9898021
-2.673434 -0.037315588 4.1532993
-2.725472 -0.1314652 4.1165576
-2.7763524 -0.22376344 4.087831
-2.8213549 -0.32299161 4.0538669
-2.5803308 -0.034713697 4.2106223
-2.6312683 -0.13197492 4.1798058
-2.6801982 -0.22724366 4.1489882
-2.7192698 -0.32943857 4.1118588
-2.4920993 -0.033220328 4.2750192
-2.5371766 -0.1323761 4.2370563
-2.5830438 -0.23072746 4.2101274
-2.6259959 -0.33603412 4.180016
-2.3979769 -0.030640118 4.3333235
-2.4430327 -0.13383141 4.2972884
-2.4878936 -0.23520392 4.2712855
-2.5278387 -0.34353891 4.2420635
-2.3049109 -0.028002053 4.3886476
-2.3527348 -0.13441722 4.3656096
-2.3936641 -0.23874933 4.3364792
-2.4277158 -0.35001487 4.3020926
-2.2166607 -0.026526768 4.4540439
-2.2615154 -0.1359341 4.4298964
-2.2956073 -0.24314609 4.3925829
-2.3333895 -0.35766816 4.3732119
-2.1235385 -0.023942966 4.5123668
-2.1634808 -0.13629538 4.4840732
-2.2042503 -0.24780717 4.4648123
-2.2371347 -0.36425638 4.4403138
-2.0284019 -0.022384264 4.5716338
-2.0682998 -0.13779044 4.5462847
-2.1041152 -0.25128365 4.5248947
-2.134016 -0.37174293 4.500268
-1.9361898 -0.020887159 4.6349564
-1.9730625 -0.13933976 4.6114964
-2.0049844 -0.25575638 4.5849786
-2.0367093 -0.37938887 4.5703316
-0.98991078 -0.038411882 2.5152035
-1.8749716 -0.13975531 4.6686716
-1.9096279 -0.26043183 4.6571331
-1.935534 -0.38692254 4.6333222
-0.90976804 -0.037888579 2.4686971
-1.7786973 -0.1413444 4.7358627
-1.8075536 -0.26486105 4.7141614
-1.8304119 -0.39341646 4.6932564
-0.82698566 -0.038032178 2.4031222
-1.6785733 -0.14280313 4.7949815
-1.7053815 -0.26838088 4.7762055
-1.7271996 -0.40099347 4.7582092
-0.75482279 -0.037498251 2.3577654
-1.5793366 -0.14436683 4.8601179
-1.60312 -0.272991 4.8432302
-1.6248789 -0.40967527 4.8291607
-0.68092632 -0.037718084 2.2983577
-1.4809877 -0.14603545 4.9312706
-1.5008624 -0.27860096 4.9102373
-1.5166864 -0.41725212 4.8930192
-0.61480379 -0.038126271 2.2510965
-1.3749397 -0.14744335 4.9862776
-1.3966012 -0.28321823 4.9772239
-1.412291 -0.42601344 4.9679317
-0.55073303 -0.037473187 2.2008915
-1.2716478 -0.14907566 5.0543375
-1.2902279 -0.28795126 5.0501719
-1.3048964 -0.43478554 5.0427876
-0.48872209 -0.037758488 2.1477072
-1.1691686 -0.15088527 5.1324124
-1.1839147 -0.29362983 5.1201029
-1.1945957 -0.44347793 5.1125889
-1.0469804 -0.0049148574 5.2197948
-1.0608963 -0.15251744 5.199379
-1.0726734 -0.29825416 5.1859579
-1.0821309 -0.4533402 5.1913319
-0.93786097 -0.0023884773 5.2778168
-0.95156795 -0.15420744 5.2693248
-0.96121156 -0.30409539 5.2637925
-0.96775621 -0.46211934 5.2650571
-1.4070377 0.040695995 9.1496925
-1.430618 -0.22762814 9.170289
-1.4426341 -0.49156183 9.1667376
-1.4410409 -0.76821798 9.1446953
-1.1504607 0.037840962 8.7527027
-1.1641384 -0.22139396 8.7662745
-1.1694722 -0.47501078 8.7437792
-1.1647842 -0.74173367 8.7248602
-0.91803253 0.035261452 8.401186
-0.92416722 -0.2155332 8.3887596
-0.92337722 -0.46126336 8.371294
-0.91000313 -0.71667671 8.3334103
-0.70247418 0.031616524 8.0569668
-0.70166844 -0.21011433 8.0395737
-0.6969226 -0.44778788 8.018178
-0.67871624 -0.69302195 7.9693847
-0.50408095 0.029239953 7.7571082
-0.50036055 -0.20539434 7.7337861
-0.48794043 -0.43475425 7.6933913
-0.46861321 -0.67308348 7.6497035
-0.32234752 0.026598781 7.4755626
-0.31288552 -0.20178673 7.4372411
-0.29821366 -0.42437208 7.4089303
-0.27324533 -0.65334457 7.3442993
-0.1534058 0.023805276 7.2052574
-0.13884234 -0.19767171 7.1709666
-0.12033486 -0.41409159 7.1326923
-0.095230594 -0.63717365 7.0741673
0.0049911886 0.021616928 6.9591689
0.02163402 -0.19392252 6.927947
0.042902403 -0.40410089 6.87573
0.072010785 -0.62118024 6.8162379
0.151821 0.019055635 6.7362981
0.17207086 -0.19110109 6.6830988
0.19356875 -0.39547947 6.6419859
0.22586863 -0.60673338 6.5915422
0.29086214 0.017323874 6.524591
0.31231868 -0.18801817 6.4814606
0.33855057 -0.38814384 6.4253306
0.36976185 -0.59328663 6.3690166
0.42129815 0.015244551 6.3340473
0.44553035 -0.18487394 6.2779546
0.47178185 -0.38000047 6.2219143
0.50689578 -0.58104974 6.1595988
0.54277325 0.013161346 6.1456714
0.57000184 -0.1829505 6.0885944
0.59825397 -0.37306696 6.0316072
0.63433117 -0.56906641 5.9663644
0.65924919 0.011096105 5.9573894
0.68766582 -0.18018299 5.9093809
0.71774203 -0.36712629 5.8424134
0.75382417 -0.55710864 5.776279
0.76914233 0.00965783 5.7912493
0.80051404 -0.17857827 5.7402396
-0.02611593 -0.059798401 0.050936799
-0.02611593 -0.059798401 0.050936799
0.87316364 0.0071146637 5.6322017
-0.02611593 -0.059798401 0.050936799
0.17294461 -0.12096151 1.1814866
0.17936738 -0.1575643 1.1576962
-0.02611593 -0.059798401 0.050936799
0.19003063 -0.08397454 1.1788349
0.19434538 -0.11946178 1.1491022
0.20195521 -0.15624903 1.1352895
1.0708191 0.0044884011 5.3463573
0.2104277 -0.083471052 1.1464512
0.21592946 -0.11914279 1.1266962
0.2245391 -0.15593363 1.1128649
0.28000715 -0.043980837 1.3819426
0.26238441 -0.085549854 1.2504761
0.24075638 -0.1190697 1.1172295
0.24930987 -0.15580627 1.1003991
1.2475308 0.00088343769 5.0638876
0.27529591 -0.084550932 1.1922326
0.26241532 -0.11882305 1.0988221
0.27309951 -0.15569343 1.0889518
1.3290284 -0.0010296106 4.9302816
0.28826362 -0.08360628 1.1369882
0.28516772 -0.11867044 1.0853944
0.29792643 -0.15562037 1.0794852
1.4128478 -0.0022574961 4.8136511
0.32592696 -0.085390106 1.1722628
0.30793887 -0.11853592 1.0729665
0.32597354 -0.15677494 1.0819401
1.4884963 -0.0042937174 4.6881552
0.37187356 -0.08647415 1.2224
0.34022862 -0.11994002 1.0883415
0.35400191 -0.15791143 1.0833951
1.5634108 -0.0055797547 4.5766912
0.35549834 -0.084126592 1.095706
0.3703503 -0.12117413 1.0947576
0.38508201 -0.1601128 1.0877749
-0.02611593 -0.059798401 0.050936799
0.42135498 -0.087165013 1.1944515
0.40252775 -0.12246971 1.1041348
0.4245351 -0.16270465 1.1119976
0.46810704 -0.045871407 1.2793518
0.41780138 -0.085656449 1.1115172
0.44299933 -0.12508324 1.1293384
1.8274649 -0.46368766 4.1323104
1.7764901 -0.010720238 4.2605023
1.8164999 -0.16150653 4.1829987
1.8524699 -0.30822489 4.1026444
1.8995761 -0.4581269 4.030026
1.839388 -0.011945128 4.1482644
1.8773874 -0.16070649 4.0698347
1.9195553 -0.30462778 3.9994183
1.9624869 -0.45133507 3.9169326
1.9004551 -0.013325624 4.0450606
1.9425926 -0.16022831 3.9735904
1.9847124 -0.30209568 3.9002106
2.0286701 -0.44682497 3.8187418
1.9626715 -0.014854431 3.949836
2.0047274 -0.15866718 3.8734214
2.0489295 -0.29861444 3.8040385
2.0918577 -0.4413043 3.7206254
2.022922 -0.01741207 3.8566301
2.0680451 -0.15829037 3.7832119
2.1132364 -0.29622346 3.7128468
2.1613026 -0.43705821 3.6363735
2.080106 -0.017886933 3.7595179
2.1293819 -0.15792446 3.6940398
2.1735251 -0.29380006 3.6207309
2.218473 -0.43149793 3.53737
2.1456778 -0.019770198 3.6832304
2.1887231 -0.15655155 3.6049235
2.2287252 -0.29026836 3.5237281
2.2777321 -0.42703506 3.4433095
2.1999331 -0.02130647 3.5901549
2.245024 -0.15613152 3.5138462
2.2922194 -0.2880547 3.4425521
2.3340485 -0.42261574 3.3523045
2.252208 -0.022853658 3.4981172
2.3014367 -0.15582004 3.4287667
2.3496025 -0.28571096 3.3554904
2.3914392 -0.41827238 3.2652788
2.3087289 -0.023650531 3.4190178
2.3578534 -0.15450871 3.3437054
2.3998742 -0.28323358 3.2625628
2.4489236 -0.41401938 3.1832516
2.3642278 -0.025425561 3.3389194
2.4082298 -0.1541395 3.2567394
2.4584255 -0.28105623 3.1844792
2.5053518 -0.40970856 3.0982442
2.410578 -0.027023558 3.250993
2.4606996 -0.15386793 3.1747341
2.5118654 -0.27875239 3.1004918
2.5587995 -0.40540507 3.014293
2.4671705 -0.028892621 3.1758742
2.5162621 -0.15369755 3.0976708
2.5602498 -0.27637634 3.0135996
2.6173735 -0.40224597 2.9372272
2.5207486 -0.029732995 3.0998299
2.568773 -0.15246232 3.017683
2.6178389 -0.27423155 2.9375343
2.668803 -0.39791724 2.8523142
2.5671737 -0.031403363 3.015902
2.619262 -0.15220164 2.9367149
2.6611912 -0.2708016 2.8487546
2.7152147 -0.39355242 2.766495
2.6177483 -0.033232789 2.9398963
2.6677883 -0.15196998 2.8577838
2.7127585 -0.26961702 2.7717845
2.7667191 -0.38929603 2.68558
2.6724195 -0.034167208 2.8688319
2.717371 -0.15179616 2.7818329
2.7704597 -0.26758081 2.7017174
2.8193316 -0.38615155 2.6106267
2.7189951 -0.035982281 2.7929013
2.7740643 -0.151756 2.7117484
2.8129015 -0.26523751 2.6179366
2.8647993 -0.38183746 2.5278254
2.761477 -0.037692554 2.7120473
2.8124657 -0.150362 2.6260254
2.8604548 -0.26302063 2.54006
2.962081 -0.38351956 2.4889605
2.8100934 -0.038551152 2.6380966
2.8590491 -0.1501774 2.5501308
2.9628291 -0.26481116 2.5060992
3.0045116 -0.3791585 2.4042161
2.855669 -0.040362652 2.5621846
2.9594419 -0.15197879 2.5172079
3.0134003 -0.26262316 2.4291661
3.0499797 -0.37484434 2.3214147
2.9358075 -0.040839173 2.51566
3.0090287 -0.15080515 2.4412746
3.0548613 -0.26029435 2.3464038
3.1035922 -0.37170351 2.2464426
2.9996793 -0.043004688 2.4554045
3.0586483 -0.1506675 2.3673232
3.1115401 -0.25923625 2.2753377
3.1521492 -0.36849043 2.1685648
3.0442777 -0.043830849 2.3805292
3.1093059 -0.15056965 2.295352
3.1560755 -0.25699058 2.1965177
3.2007248 -0.36529547 2.0916872
3.0908716 -0.045664012 2.3055983
3.1568887 -0.15038866 2.2194388
3.2066805 -0.25583863 2.1215661
3.2593739 -0.36220875 2.0186203
3.1415396 -0.047583897 2.234591
3.2044716 -0.15020765 2.1435254
3.2623444 -0.25375903 2.0495367
4.7116842 -0.48586786 2.7364354
3.1891747 -0.048457004 2.1616585
3.2581284 -0.15012054 2.0714979
4.692821 -0.3313289 2.7675948
4.7775717 -0.4800685 2.622268
3.237787 -0.050315432 2.0876896
4.6778798 -0.18676648 2.7964993
4.7688594 -0.32972756 2.6621642
4.5951557 -0.45405567 2.3840733
4.6559172 -0.048177883 2.8254273
4.7428226 -0.18603507 2.6862593
4.6116424 -0.31403795 2.4363151
4.7307935 -0.45526272 2.310487
4.7260008 -0.049608774 2.7230546
4.8199096 -0.18649125 2.5837731
4.6262364 -0.30876601 2.3070934
4.966176 -0.46358377 2.2769182
4.8011169 -0.052093629 2.6225691
4.7183175 -0.18164849 2.3926978
4.6832261 -0.30604237 2.1990392
5.071382 -0.4612495 2.1799579
-0.02611593 -0.059798401 0.050936799
4.7561159 -0.18067548 2.2749679
5.0466599 -0.31886789 2.2210102
5.1553702 -0.45762292 2.0714142
-0.02611593 -0.059798401 0.050936799
5.0309186 -0.18553513 2.2627308
5.120605 -0.31716895 2.1106191
13.559243 -1.0770512 4.9748507
4.9910054 -0.05897034 2.2967789
5.0968056 -0.18475303 2.149473
13.498836 -0.71998072 5.0984821
13.765799 -1.0665672 4.6810737
5.0761204 -0.06149108 2.1961057
5.1536345 -0.18488421 2.0333674
13.692359 -0.71343142 4.8038778
13.957157 -1.0538307 4.3766179
5.1420374 -0.062744819 2.0848112
13.62969 -0.38520426 4.9190269
13.886846 -0.70684946 4.5072551
14.166491 -1.0421406 4.070806
13.565104 -0.07411176 5.0419054
13.818227 -0.38467208 4.6264081
14.081255 -0.70019507 4.2066331
14.374791 -1.0294108 3.763032
13.746708 -0.080643713 4.7542901
14.003601 -0.38296652 4.3248653
14.290641 -0.69457638 3.9047124
14.585975 -1.0175833 3.4491858
13.939279 -0.086179145 4.4644856
14.203057 -0.38340127 4.0280232
14.486807 -0.68769413 3.591058
14.750862 -1.0022836 3.1192636
14.133698 -0.091577061 4.1666474
14.406406 -0.38274205 3.7251248
14.621675 -0.6782856 3.2615912
13.241954 -0.88277245 2.4774587
14.321039 -0.097877309 3.8649235
14.563373 -0.38053802 3.4021163
13.480762 -0.61531252 2.6798942
12.533854 -0.81711143 2.040756
14.53034 -0.10422034 3.5607872
14.41712 -0.37200272 3.0158782
12.776308 -0.57240862 2.2287066
11.946768 -0.76091075 1.6586349
14.587934 -0.11031579 3.2204833
13.569633 -0.34964487 2.5149801
12.147835 -0.53574991 1.8300016
11.508481 -0.7150718 1.319555
13.884623 -0.11375992 2.7324233
12.898398 -0.33116287 2.0797343
11.57907 -0.50200808 1.4691381
15.841363 -0.93492776 1.4194888
13.170995 -0.11581611 2.2805939
12.29105 -0.31377527 1.6912882
11.076941 -0.47113585 1.141987
6.0069027 -0.38232961 0.42727584
12.565287 -0.11816095 1.8767552
11.742414 -0.29930097 1.3407032
6.1027908 -0.28013182 0.50735635
6.0542769 -0.37395954 0.28549218
12.008324 -0.12040177 1.5120189
11.267344 -0.28564939 1.0197359
5.9729776 -0.26990956 0.35692069
6.0446129 -0.36333093 0.14181669
11.492922 -0.12133276 1.176538
6.0086284 -0.17829555 0.42693415
6.008358 -0.26551384 0.21629015
3.8742731 -0.2485289 0.016485438
6.0994477 -0.094076715 0.50678426
6.0549946 -0.17693877 0.28604287
6.0887289 -0.26127955 0.074814022
-0.02611593 -0.059798401 0.050936799
5.9776044 -0.095899247 0.35698178
6.0493321 -0.1753592 0.14412935
3.8947265 -0.18585509 -0.024777781
3.6161633 -0.2234879 -0.15128595
6.0059948 -0.098513365 0.21835592
3.8797464 -0.13258466 0.019481301
3.6761725 -0.17450407 -0.10750858
-0.02611593 -0.059798401 0.050936799
3.8818297 -0.086464517 0.068293102
3.9530253 -0.13220756 -0.072915167
-0.02611593 -0.059798401 0.050936799
-0.02611593 -0.059798401 0.050936799
6.1826615 -0.10408182 -0.066148877
3.6125865 -0.12552638 -0.14744565
-0.02611593 -0.059798401 0.050936799
3.8079269 -0.21314909 -0.43378499
3.6175625 -0.087343298 -0.10283301
3.7008624 -0.12520312 -0.24012399
3.8059921 -0.16699649 -0.38589773
1.9314305 -0.1341823 -0.24415925
-0.02611593 -0.059798401 0.050936799
3.8289731 -0.12687835 -0.34158725
3.8481908 -0.16441803 -0.48267391
4.2271271 -0.21612941 -0.69277531
-0.02611593 -0.059798401 0.050936799
3.8043149 -0.12418604 -0.43010688
-0.02611593 -0.059798401 0.050936799
3.491926 -0.18301782 -0.64939666
3.8192844 -0.092055909 -0.3847906
1.929633 -0.092218451 -0.24136558
3.9682963 -0.1601188 -0.69191581
3.9544275 -0.19243236 -0.83829021
3.8684435 -0.094483629 -0.48278815
4.2086029 -0.12920265 -0.68385297
3.5461254 -0.14531706 -0.69974649
3.3732648 -0.16696273 -0.79293323
3.9574263 -0.096892104 -0.59053421
3.4254673 -0.11504217 -0.63291717
3.5076647 -0.14075576 -0.77797043
3.5289142 -0.16528673 -0.91986012
4.0981188 -0.099215858 -0.71425229
3.3780944 -0.11253867 -0.70600969
3.4811454 -0.13618323 -0.85941887
2.651114 -0.1349519 -0.74681795
4.0125494 -0.10039441 -0.79669952
3.4511819 -0.11298051 -0.80842084
3.7063212 -0.13732381 -1.0117069
2.5583909 -0.12688124 -0.78594923
3.9190798 -0.10063485 -0.87398005
3.4853737 -0.11237299 -0.90508276
2.6088526 -0.11246121 -0.76462591
2.44293 -0.11998114 -0.81067109
3.495259 -0.097203925 -0.86097848
2.6413321 -0.098994479 -0.74198276
2.4177613 -0.10563203 -0.76892614
-0.02611593 -0.059798401 0.050936799
3.7542441 -0.10230305 -1.0229745
2.5406468 -0.09594854 -0.77805477
2.3768589 -0.10260245 -0.81712186
0.18630874 -0.064100362 -0.034147013
2.5959828 -0.089454636 -0.76196796
2.4291096 -0.094007678 -0.80594081
-0.02611593 -0.059798401 0.050936799
-0.02611593 -0.059798401 0.050936799
2.3571613 -0.087723687 -0.75046128
-0.02611593 -0.059798401 0.050936799
