# .PCD v0.7 - Point Cloud Data file format
VERSION 0.7
FIELDS x y z
SIZE 4 4 4
TYPE F F F
COUNT 1 1 1
WIDTH 1384
HEIGHT 1
VIEWPOINT 0 0 0 1 0 0 0
POINTS 1384
DATA ascii
-0.99508148 0.026911968 -0.22044507
-0.99966598 0.021470012 -0.25046784
-1.025718 0.037758537 -0.14965126
-1.0111935 0.03213986 -0.17403311
-1.0197548 0.027694006 -0.20296302
-1.0183107 0.020194678 -0.23113526
-1.0423324 0.039457425 -0.12930256
-1.0328299 0.032874953 -0.15460812
-1.0233271 0.026292482 -0.17991368
-1.0198876 0.017786147 -0.20814154
-1.0458784 0.040037476 -0.10521751
-1.0414164 0.032509293 -0.13244645
-1.0369314 0.025962858 -0.15865774
-1.0294778 0.016424254 -0.18597908
-1.0514468 0.03964296 -0.082112558
-1.0479845 0.032118369 -0.10932271
-1.0435224 0.024590191 -0.13655168
-1.0480999 0.016130662 -0.16562885
-1.0700424 0.041330941 -0.06072662
-1.0515531 0.031716678 -0.086255357
-1.0530938 0.023210194 -0.11338957
-1.0596936 0.013776108 -0.14344686
-1.0836011 0.042964797 -0.037435308
-1.0651346 0.032368794 -0.063981734
-1.0586619 0.02281568 -0.090284623
-1.0592521 0.011342309 -0.11949103
-1.0951644 0.043591641 -0.014199607
-1.0857149 0.033046022 -0.041576557
-1.0682522 0.021453785 -0.068122208
-1.0608064 0.0099155186 -0.0954796
-1.107705 0.045203827 0.010072574
-1.1102906 0.034737453 -0.019078217
-1.0848147 0.022098573 -0.044792533
-1.073396 0.0085643847 -0.073260784
-1.133239 0.047862485 0.034607049
-1.1278341 0.035367753 0.0052698925
-1.094386 0.020718591 -0.021630444
-1.0729357 0.0061124968 -0.048305303
-1.1457608 0.049456567 0.059878889
-1.1403785 0.035980094 0.029524062
-1.113933 0.02035623 0.0027372316
-1.1145498 0.006901281 -0.027504861
-1.1593047 0.050072517 0.084151842
-1.1468904 0.0355349 0.055646785
-1.1344759 0.020997284 0.02714172
-1.1140894 0.0044493973 -0.0025493726
-1.172789 0.051634014 0.1114418
-1.1614157 0.036136337 0.08093819
-1.1510047 0.020606069 0.052452683
-1.1366398 0.0030979703 0.021856658
-1.1832923 0.05320283 0.13767573
-1.176922 0.036723271 0.10724804
-1.1535589 0.019182876 0.076482899
-0.02611593 -0.059798401 0.050936799
-1.1967576 0.054746252 0.16596533
-1.1764352 0.036252957 0.13323922
-1.1770449 0.019780427 0.10394274
-1.156689 0.00025114184 0.073197939
-1.2052279 0.055271879 0.19414298
-1.1959034 0.036818072 0.16162357
-1.1735626 0.018299524 0.12985954
-1.1462307 -0.002236635 0.097965524
-1.2246695 0.057818562 0.22356302
-1.214349 0.038361344 0.19100678
-1.1850362 0.017836096 0.15807554
-0.02611593 -0.059798401 0.050936799
-1.2211645 0.057319392 0.25049749
-0.02611593 -0.059798401 0.050936799
-1.1965137 0.016372839 0.18627352
-0.02611593 -0.059798401 0.050936799
-0.02611593 -0.059798401 0.050936799
-1.2212992 0.037377067 0.24713814
-1.230919 0.017937344 0.21795672
-0.02611593 -0.059798401 0.050936799
-0.02611593 -0.059798401 0.050936799
-1.2676009 0.040893864 0.28408116
-0.02611593 -0.059798401 0.050936799
-0.02611593 -0.059798401 0.050936799
-1.2783022 0.064774983 0.34873545
-0.02611593 -0.059798401 0.050936799
-1.2458153 0.015927689 0.27721936
-1.2275575 -0.0095210541 0.24240537
-0.02611593 -0.059798401 0.050936799
-1.3202647 0.043820743 0.3551442
-0.02611593 -0.059798401 0.050936799
-0.02611593 -0.059798401 0.050936799
-0.02611593 -0.059798401 0.050936799
-1.3286226 0.044237841 0.38931984
-0.02611593 -0.059798401 0.050936799
-0.02611593 -0.059798401 0.050936799
-3.0887117 0.24916066 1.0011877
-6.2323341 0.43488118 1.8146799
-0.02611593 -0.059798401 0.050936799
-0.02611593 -0.059798401 0.050936799
-3.109138 0.25173753 1.084645
-3.0940034 0.18422583 0.99811107
-1.3639691 0.017647911 0.42951423
-0.02611593 -0.059798401 0.050936799
-3.1752143 0.260171 1.1860691
-3.1114383 0.18479228 1.081476
-3.0962932 0.11526284 0.99590576
-6.2704992 0.15111654 1.807259
-3.2511346 0.26949546 1.2956963
-3.1725538 0.18822671 1.1817164
-3.1077592 0.11282636 1.0781043
-3.0946517 0.038323015 0.99148172
-3.3021424 0.27680284 1.4008191
-3.251452 0.19352643 1.2933273
-3.1748292 0.11322855 1.1814022
-3.109107 0.033879563 1.0747002
-3.3957295 0.28888386 1.5278329
-3.3113952 0.1977943 1.4025638
-3.248744 0.11451102 1.292847
-3.1801167 0.030224441 1.182
-3.4753046 0.29989675 1.6555653
-3.391083 0.20389846 1.5252078
-3.3146455 0.11474683 1.4051232
-3.2600086 0.027492939 1.2954849
-4.7900934 0.43970758 2.3979621
-3.4855211 0.21082114 1.6611471
-3.393316 0.11581207 1.5296576
-3.3189313 0.022704486 1.4075394
-4.6658177 0.42998317 2.4664829
-4.7815418 0.31164277 2.3984857
-3.4807935 0.11772855 1.6643758
-3.4035268 0.018701661 1.5370947
-4.579216 0.42510489 2.5518022
-4.6503091 0.30092958 2.4648573
-4.7768927 0.17948446 2.4050102
-3.4900053 0.015597308 1.6727035
-3.4452329 0.30702841 2.0302582
-4.5973263 0.29581153 2.5708089
-4.647603 0.16872421 2.4744186
-4.7534847 0.034441069 2.4009471
-4.6522403 0.44070482 2.8675587
-3.4503996 0.2068463 2.0405462
-4.599534 0.16153398 2.5854263
-4.6390204 0.024571668 2.4796522
-3.5352128 0.32260853 2.2953146
-4.64359 0.29949754 2.875845
-3.4426227 0.10265438 2.0485187
-4.6443272 0.015978489 2.6246452
-3.3504779 0.30611014 2.2825532
-3.4938514 0.20965791 2.2824926
-4.6219912 0.15528026 2.881834
-3.4279568 -0.010488778 2.0521986
-4.3312092 0.41855428 3.0832202
-4.4110141 0.28108793 3.0142047
-3.3062148 0.089787394 2.1777759
-4.6033826 -0.00097845495 2.8906622
-2.6067522 0.22905773 1.9561241
-4.2997131 0.27239192 3.083987
-4.3902688 0.13572967 3.0281913
-3.2203045 -0.025908168 2.1410623
-2.762753 0.24988344 2.1664932
-2.5998557 0.14081238 1.9674026
-3.2537384 0.082229584 2.3637197
-3.3140926 -0.030652933 2.3137908
-4.021471 0.39773247 3.2831123
-2.7430291 0.15171978 2.1703491
-2.594873 0.050484158 1.9836807
-3.3139553 -0.036725316 2.4287174
-3.9143906 0.3902677 3.3409922
-3.9849653 0.24953437 3.2847488
-2.7252114 0.053472865 2.1792414
-2.5692027 -0.046646923 1.9844434
-1.9152507 0.16153306 1.7228768
-2.4105365 0.12682775 2.0916471
-3.9611166 0.1020572 3.3046412
-2.5033917 -0.05269336 2.0281167
-1.8715924 0.15872788 1.7580206
-1.9052998 0.087274611 1.7343512
-2.4074078 0.035362143 2.115942
-2.475004 -0.05714643 2.10253
-1.8210477 0.1560061 1.7870349
-1.8547362 0.084534734 1.7643651
-1.8893874 0.013030794 1.7437134
-2.4869015 -0.063139573 2.2156825
-1.947118 0.17477874 1.9938049
-1.8385034 0.08328703 1.8300607
-1.8397528 0.0092223287 1.7777267
-1.8675519 -0.066179439 1.7498739
-2.1111696 0.19773181 2.2543797
-2.0086639 0.097335503 2.0865877
-1.9128587 0.01072678 1.9321752
-1.824785 -0.070089407 1.7910163
-3.3492289 0.35716018 3.7229414
-2.2166741 0.11543774 2.4039173
-2.0936594 0.015436385 2.2097394
-1.9891149 -0.0749688 2.0420899
-3.2522137 0.35180333 3.7770467
-3.3094027 0.20462641 3.7424431
-3.3627005 0.058543518 3.7017848
-2.1932802 -0.081822395 2.3558948
-3.1620622 0.34734482 3.8382988
-3.2172177 0.19912472 3.805639
-3.2674832 0.051995039 3.7669058
-3.3207748 -0.10212269 3.7281024
-3.0729144 0.34189007 3.8995516
-3.1210942 0.19266307 3.8657429
-3.1732464 0.045432061 3.833045
-3.2244825 -0.10874711 3.7972033
-2.9817629 0.33742797 3.9607852
-3.0269511 0.18619055 3.9268837
-3.0750856 0.038927093 3.8951104
-3.1242847 -0.11529544 3.8612306
-2.8926115 0.33297303 4.0220561
-2.9328232 0.18073595 3.9870431
-2.9750001 0.032487281 3.95314
-3.0241203 -0.12080776 3.9232764
-2.8024974 0.3285507 4.0813093
-2.8387511 0.17533562 4.0442038
-2.8808157 0.026978411 4.0162978
-2.9268694 -0.12839943 3.9903409
-2.7075381 0.32325533 4.1324525
-2.7495058 0.17079026 4.1104727
-2.7905409 0.02039361 4.0845122
-2.825799 -0.13382488 4.04737
-2.6184051 0.31881845 4.1927242
-2.6534531 0.16540082 4.1665964
-2.691489 0.014993399 4.1405792
-2.7285633 -0.14039862 4.1134529
-2.5292871 0.31539959 4.2520137
-2.556438 0.16004395 4.2207017
-2.5972335 0.0084123537 4.2077179
-2.6303647 -0.14693978 4.1775179
-2.4352713 0.31005347 4.3061752
-2.4681926 0.1555022 4.2869897
-2.5020871 0.0029360503 4.2688584
-2.5302229 -0.15343383 4.2385459
-2.3489654 0.30646446 4.3755178
-2.3730648 0.15004399 4.3471298
-2.4049408 -0.0025473982 4.3299608
-2.4358516 -0.15912361 4.3117008
-2.2559457 0.30212182 4.4297161
-2.2808385 0.14550595 4.4123435
-2.3068509 -0.0079801828 4.3880453
-2.33571 -0.16561767 4.3727293
-2.1609263 0.29777193 4.4838767
-2.1886687 0.14102218 4.4745574
-2.2116292 -0.013528839 4.4531851
-2.2365079 -0.17116258 4.4367933
-2.0755973 0.29516825 4.5542555
-2.0935369 0.13656378 4.5347161
-2.1153519 -0.019135334 4.5213037
-2.1392117 -0.17679076 4.5058932
-1.9805405 0.29078221 4.6104159
-1.9993302 0.13203666 4.5988922
-2.0191267 -0.023687735 4.5864415
-2.0360332 -0.18333177 4.5688643
-1.0183588 0.12475491 2.5136876
-1.0276723 0.039783578 2.5133245
-1.9180185 -0.029149383 4.6454701
-1.9328877 -0.18883678 4.6298547
-0.93063134 0.115613 2.446857
-0.94362885 0.034365918 2.462636
-0.96438146 -0.047087613 2.4915607
-1.8325361 -0.19452998 4.7018971
-0.85353827 0.10816652 2.3992627
-0.86168247 0.028046034 2.4069686
-1.7165775 -0.040286157 4.7755413
-1.7273165 -0.20011452 4.7668481
-0.7785424 0.099817827 2.3466899
-0.78848338 0.023522951 2.3645017
-1.6143533 -0.044860084 4.8405662
-1.6201385 -0.20666988 4.8297443
-0.70565456 0.092584684 2.2881744
-0.80392826 0.029233571 2.6059761
-1.5083398 -0.05024923 4.8945026
-1.5148774 -0.21129075 4.8967123
-0.63951808 0.086141333 2.2428041
-0.72880828 0.023775838 2.5594552
-1.3806037 -0.054490864 4.8800292
-1.4095267 -0.21700191 4.9686613
-0.57636243 0.079690658 2.1984901
-0.61468166 0.014026638 2.3540723
-1.3015362 -0.059747972 5.0435095
-1.2982333 -0.22268033 5.0374985
-0.5180521 0.074113056 2.1622851
-0.51432377 0.0051104464 2.1609666
-1.1942381 -0.064412206 5.1124392
-1.1897146 -0.22856507 5.1183872
-0.46077898 0.068575218 2.1240997
-0.45789286 0.001431141 2.1308331
-1.0847943 -0.070228159 5.189311
-1.0743657 -0.23431212 5.1901479
-0.40550551 0.063044563 2.0859518
-0.42152858 0.00098485127 2.2031689
-0.97145987 -0.074950114 5.2601275
-0.95996046 -0.24010986 5.2649269
-0.35417515 0.057473969 2.0508783
-0.35985556 -0.0039920807 2.1329005
-1.4683919 -0.094180234 9.2104225
-1.4277626 -0.38009188 9.1384659
-0.30568665 0.053769123 2.0238943
-0.30214041 -0.0079910159 2.0647244
-1.1941146 -0.10082783 8.798027
-1.1487379 -0.36945283 8.7092896
-0.26421124 0.052151818 2.0490971
-0.25696531 -0.0093332287 2.0738575
-0.94428205 -0.10591066 8.4151278
-0.89583206 -0.36056685 8.3275852
-0.22512838 0.051966116 2.1063812
-0.76524168 0.13307767 8.157012
-0.71506715 -0.11028007 8.0526352
-0.66360027 -0.35091323 7.9632883
-0.183117 0.052841824 2.1596286
-0.55656463 0.11629727 7.8216877
-0.50492734 -0.11446423 7.7395186
-0.45234251 -0.34417522 7.6543503
-0.13990378 0.052515123 2.2238352
-0.3649137 0.10265826 7.537756
-0.31257826 -0.11878277 7.4377375
-0.2582649 -0.33619547 7.335753
-0.24853781 0.31048852 7.3572764
-0.18814769 0.088964537 7.2601051
-0.13386306 -0.12139507 7.1552477
-0.080173254 -0.32913148 7.0714564
-0.084239215 0.28830016 7.109714
-0.0239034 0.076864883 7.0077257
0.029398054 -0.12447456 6.9020495
0.085901916 -0.32200637 6.8063865
0.066182174 0.26805317 6.8684497
0.12762803 0.065540403 6.7706032
0.18420377 -0.12804633 6.6780109
0.23852259 -0.3153556 6.570569
0.21017438 0.24928823 6.6573434
0.27159548 0.054828428 6.5566416
0.32701951 -0.12957537 6.4542332
0.38357139 -0.31009197 6.3578763
0.34422851 0.2315048 6.449441
0.40668085 0.045040034 6.348865
0.46237969 -0.13160028 6.2595963
0.5199067 -0.30406758 6.1603665
0.47051272 0.21453284 6.2537036
0.53407115 0.035990767 6.1572509
0.59051257 -0.13438283 6.0530772
0.64703369 -0.29881167 5.9520102
0.58993316 0.19845916 6.0651131
0.6534068 0.027024448 5.9627891
0.70901078 -0.13547352 5.8657756
0.7687797 -0.29413125 5.7767563
0.70458311 0.18318626 5.8886304
0.76499122 0.018851556 5.7814903
0.82494026 -0.13696949 5.7015219
-0.02611593 -0.059798401 0.050936799
0.81048596 0.16971013 5.7253485
0.87627631 0.012012579 5.6372342
-0.02611593 -0.059798401 0.050936799
0.18368322 -0.10569602 1.1645561
-0.02611593 -0.059798401 0.050936799
-0.02611593 -0.059798401 0.050936799
1.0349156 -0.13999103 5.379427
0.20621094 -0.10532634 1.1391324
1.0129005 0.14421456 5.4309974
1.0776219 -0.0023727268 5.3371024
-0.02611593 -0.059798401 0.050936799
0.2255372 -0.10374708 1.1027868
0.26108405 -0.010863991 1.3798952
0.28184521 -0.046842795 1.3738536
0.24323925 -0.077391535 1.1349429
0.25253227 -0.10384398 1.1022794
0.29531732 -0.012221001 1.3922338
1.260301 -0.013997875 5.0543761
0.31962949 -0.081945561 1.3154916
0.27632189 -0.10373113 1.0908321
1.2799233 0.11074134 5.0102501
1.340386 -0.020526595 4.8997064
0.34306341 -0.081489027 1.2850507
0.304369 -0.10488572 1.093287
1.3614228 0.09979368 4.8784819
1.4262868 -0.024851609 4.7879815
0.37829652 -0.082849622 1.2973706
0.33025196 -0.1048705 1.0868005
1.4433235 0.090465792 4.7677417
1.5049602 -0.029934246 4.6643748
0.40915582 -0.083834082 1.2897725
0.36032137 -0.10505052 1.0902354
1.5190192 0.081358418 4.6461182
1.5807281 -0.035096563 4.5458226
0.36851171 -0.080173932 1.0955338
0.39248398 -0.10532817 1.098631
-0.02611593 -0.059798401 0.050936799
-0.02611593 -0.059798401 0.050936799
0.45836034 -0.083253793 1.2468472
0.42979157 -0.1067683 1.1149119
0.37664646 -0.031156709 1.0932674
0.47706613 -0.055902004 1.2790025
1.7833592 -0.14514714 4.2259297
1.8423678 -0.24281166 4.1380286
0.48225403 -0.026997237 1.28343
1.7965692 -0.048047483 4.2184362
1.8492835 -0.14440122 4.1146717
1.9093034 -0.23906983 4.0268054
1.8008107 0.047048613 4.2130752
1.86253 -0.052354991 4.1100869
1.9153346 -0.14478175 4.0103927
1.9732586 -0.23533534 3.9166381
1.8638309 0.038680211 4.1087089
1.9256074 -0.055760421 4.0078096
1.9804422 -0.14521296 3.9091313
2.039438 -0.23182508 3.8184295
1.9259117 0.031260967 4.0073776
1.9845881 -0.060060874 3.9005911
2.0456846 -0.14477098 3.8148859
2.104692 -0.2283836 3.7242377
1.9860115 0.023830794 3.9070842
2.0499501 -0.062744997 3.8132892
2.1120358 -0.14544094 3.7266016
2.1658723 -0.22485539 3.626123
2.0473022 0.017215982 3.8167863
2.1122336 -0.066345826 3.7220271
2.1702421 -0.14493763 3.6304884
2.2282209 -0.2214936 3.5369861
2.1096635 0.0095253885 3.7304504
2.1684062 -0.069816589 3.6248798
2.231575 -0.14557156 3.5412984
2.2874951 -0.21804866 3.4439073
2.1638806 0.0030080602 3.6362855
2.2298436 -0.072558701 3.5416515
2.2888939 -0.14517321 3.4512017
2.3427887 -0.21460748 3.351903
2.2253628 -0.0027878284 3.5560026
2.285203 -0.076206759 3.4545197
2.3421576 -0.14470623 3.3581815
2.4032876 -0.21138321 3.2708013
2.277674 -0.0093884319 3.4668734
2.3405857 -0.078873083 3.3684051
2.3965707 -0.14438756 3.2731397
2.4586749 -0.20803246 3.1837952
2.3311009 -0.015101321 3.3837414
2.3970428 -0.081615344 3.2862706
2.4550953 -0.14419179 3.1940205
2.5130811 -0.20469621 3.0978079
2.3885837 -0.020882837 3.3035336
2.4474263 -0.084263712 3.2002501
2.510546 -0.14391287 3.1109593
2.5685806 -0.20145398 3.0168002
2.4369519 -0.027523361 3.2174788
2.5029397 -0.087056667 3.1211338
2.5609822 -0.14259809 3.0270104
2.6220245 -0.19815034 2.9328308
2.4914536 -0.033312198 3.1383266
2.5564349 -0.089824334 3.041055
2.6154475 -0.14333352 2.9449494
2.6745059 -0.19487926 2.8508794
2.5439973 -0.038130209 3.0612295
2.6079531 -0.091603085 2.9620314
2.6649592 -0.14208753 2.8650179
2.7331173 -0.19175632 2.7758133
2.5955558 -0.043962553 2.9851332
2.6523373 -0.094229929 2.8761237
2.7134669 -0.14183778 2.7850873
2.7714741 -0.18730856 2.6871455
2.6410258 -0.048683088 2.9041688
2.7090795 -0.096243702 2.8090022
2.7639971 -0.14061344 2.7061365
2.8219934 -0.18406649 2.6072311
2.6956961 -0.054634728 2.8340139
2.7575753 -0.098993428 2.7290173
2.8145797 -0.14044322 2.6301668
2.8735685 -0.18088228 2.530297
2.7361107 -0.059283059 2.7501447
2.7990203 -0.10066394 2.6461833
2.8641245 -0.14023323 2.5522168
2.9759548 -0.17967327 2.4963906
2.7846701 -0.065104634 2.6741045
2.8516319 -0.10253673 2.5721393
2.9583731 -0.14086853 2.5114267
3.0183256 -0.17625776 2.4086292
2.8352702 -0.069969736 2.600044
2.9174809 -0.10569116 2.5108285
3.0038853 -0.13960817 2.4315701
3.0729604 -0.17213875 2.3346555
2.8818338 -0.074784301 2.5240593
3.0005922 -0.10816003 2.4632115
3.0625601 -0.13955711 2.3604486
3.1184616 -0.16886064 2.2538357
2.9701426 -0.079469755 2.487309
3.052264 -0.10908367 2.3922033
3.1061287 -0.13834384 2.2836289
3.1690934 -0.16572711 2.1799195
3.0228171 -0.084414385 2.4172096
3.0937467 -0.11079035 2.3113685
3.1536784 -0.13712685 2.205734
3.2257652 -0.16165145 2.1079078
3.0703804 -0.089232549 2.3412058
3.1453815 -0.11167781 2.2383609
3.2063017 -0.13600014 2.1317441
3.2824144 -0.15855753 2.0348783
3.1159627 -0.094061613 2.2662399
3.1949706 -0.11452158 2.1633556
3.2548842 -0.13582274 2.0558121
4.7178297 -0.19393545 2.7416029
3.1645448 -0.098901451 2.1912174
3.245564 -0.1163691 2.0883493
4.6805878 -0.16541904 2.7768281
4.7887874 -0.18922625 2.6313224
3.2141824 -0.10379913 2.119175
4.6574726 -0.14209671 2.8196974
4.7626767 -0.16489333 2.6742659
-0.02611593 -0.059798401 0.050936799
3.263783 -0.10866065 2.0451331
4.7305145 -0.14450203 2.7152507
4.814477 -0.16297072 2.5562906
-0.02611593 -0.059798401 0.050936799
4.6975603 -0.13334078 2.7690878
4.8015571 -0.14690016 2.610842
4.7330728 -0.15738082 2.3748546
5.0006685 -0.17309538 2.3005352
4.7726426 -0.13980685 2.6675308
-0.02611593 -0.059798401 0.050936799
-0.02611593 -0.059798401 0.050936799
5.0816655 -0.16745842 2.1920838
4.8012466 -0.14563753 2.5408468
-0.02611593 -0.059798401 0.050936799
5.048573 -0.15817018 2.2388871
5.1364617 -0.16152914 2.0731244
4.7400279 -0.14933495 2.3708687
5.0124788 -0.15388843 2.2866566
5.1134634 -0.15638466 2.1256661
13.575668 -0.30962628 5.010437
-0.02611593 -0.059798401 0.050936799
5.0824313 -0.1551927 2.1772864
13.485082 -0.30659068 5.1392312
13.780202 -0.29509968 4.7147703
5.0414672 -0.16607134 2.2348759
5.1452656 -0.15836298 2.0620134
13.684714 -0.30117118 4.8504939
13.962594 -0.27934954 4.4115372
5.1214552 -0.17246492 2.1282265
13.591149 -0.32122946 4.9849286
13.866057 -0.29741544 4.5470638
14.168019 -0.26371813 4.1098719
13.485929 -0.36967403 5.1430755
13.767591 -0.32658082 4.6884279
14.06552 -0.29183316 4.2493296
14.367259 -0.24788429 3.798322
13.674512 -0.38624749 4.8561478
13.976098 -0.33311924 4.3953061
14.268904 -0.2871927 3.9475029
14.568481 -0.2310397 3.4857535
13.857966 -0.40267637 4.5623164
14.172482 -0.33848816 4.0954309
14.465062 -0.28231007 3.6338127
14.531627 -0.21225922 3.1176586
14.060351 -0.42111886 4.2650928
14.362733 -0.3437089 3.7886703
14.553762 -0.27457339 3.2961774
13.712962 -0.18582524 2.6062908
14.24865 -0.43842083 3.9631522
14.568884 -0.34989643 3.4765928
14.03006 -0.25820619 2.8351221
13.026638 -0.16218174 2.1654189
14.454946 -0.45578742 3.6608732
14.579202 -0.35153449 3.1212497
13.339356 -0.24020362 2.3752236
12.403043 -0.14148396 1.7633325
14.514456 -0.46883458 3.3174067
13.691362 -0.33470646 2.6030009
12.69645 -0.22314757 1.9574277
11.85125 -0.12383658 1.4038608
13.813 -0.46110684 2.8195105
12.989941 -0.32195297 2.1592138
12.105237 -0.20896158 1.5766244
11.33909 -0.10594437 1.0776629
13.049117 -0.44867846 2.3518789
12.385438 -0.3104485 1.7636057
11.569763 -0.19569653 1.2347739
6.0334926 -0.076851264 0.45331258
12.350136 -0.43836597 1.9320099
11.833614 -0.30079973 1.40399
6.1338553 -0.12771772 0.53454095
6.0508685 -0.069373332 0.31207469
11.72199 -0.42811888 1.5558283
11.326424 -0.2909241 1.077554
5.9729524 -0.12231102 0.38059911
6.0372357 -0.060766228 0.1704376
11.187591 -0.41994703 1.2188673
6.0341702 -0.18292727 0.45638222
6.0103273 -0.11892227 0.23991296
3.883348 -0.055897955 0.036806919
6.1276107 -0.26194471 0.54723418
6.0505142 -0.1834444 0.31501889
6.0807157 -0.11567006 0.09960638
-0.02611593 -0.059798401 0.050936799
5.9596748 -0.26049414 0.39235207
6.0387855 -0.18478848 0.17016506
6.1750212 -0.11343145 -0.045167841
3.6021607 -0.046753589 -0.13182025
6.018044 -0.26721525 0.25309047
3.8730388 -0.13986586 0.036480937
3.8046889 -0.090176888 -0.097385928
4.0620441 -0.039423063 -0.25033808
6.0793576 -0.27389285 0.11077351
3.9193184 -0.14039169 -0.05542621
-0.02611593 -0.059798401 0.050936799
-0.02611593 -0.059798401 0.050936799
3.8770909 -0.19918624 -0.0026812498
3.6268106 -0.13482834 -0.13387564
-0.02611593 -0.059798401 0.050936799
3.8040025 -0.030505955 -0.41140014
-0.02611593 -0.059798401 0.050936799
3.6901205 -0.13645118 -0.2241209
-0.02611593 -0.059798401 0.050936799
1.929998 -0.042389758 -0.23146772
-0.02611593 -0.059798401 0.050936799
3.8312252 -0.13917291 -0.32584649
3.8388448 -0.079704113 -0.46396023
4.2852097 -0.014657763 -0.67421198
-0.02611593 -0.059798401 0.050936799
3.802537 -0.13944766 -0.41534469
1.9284428 -0.068947442 -0.25592732
3.4531057 -0.018408824 -0.6176815
-0.02611593 -0.059798401 0.050936799
1.9387312 -0.10037602 -0.23468122
4.1234894 -0.075580999 -0.69929469
3.5451946 -0.012901779 -0.72134113
3.8503761 -0.21277882 -0.4635832
4.2317901 -0.14753538 -0.67061424
3.5168333 -0.071619928 -0.67585689
3.4201205 -0.0093898438 -0.77795506
1.9272095 -0.13796829 -0.25515246
3.4276667 -0.13129988 -0.61924779
3.9304993 -0.069969013 -0.85763359
3.4752533 -0.003786182 -0.8789202
4.1269026 -0.22958726 -0.70114511
3.4230902 -0.13076948 -0.70318103
3.5036414 -0.066491157 -0.84657496
2.6400073 -0.013327528 -0.72240162
3.4545281 -0.2045738 -0.66609204
3.4533503 -0.13221961 -0.79580516
3.7288325 -0.063632429 -0.99879098
2.5442986 -0.011281279 -0.75958538
3.9348216 -0.22790582 -0.86357343
3.4447746 -0.13167484 -0.87966317
2.6082814 -0.06068353 -0.75167423
2.4168575 -0.0093734274 -0.78217244
3.4233978 -0.20846932 -0.83163583
2.6603408 -0.1151323 -0.7386294
2.4479966 -0.058801953 -0.76564395
3.1428516 0.0097309928 -1.1125314
3.7390633 -0.22551773 -1.0089144
2.5626321 -0.11307887 -0.77577555
2.4219377 -0.056681328 -0.82213694
-0.02611593 -0.059798401 0.050936799
3.6527119 -0.22389218 -1.0802925
2.4441149 -0.11113098 -0.80253035
-0.02611593 -0.059798401 0.050936799
0.17436501 -0.055076919 -0.032759704
2.0350058 -0.15352152 -0.6365813
-0.02611593 -0.059798401 0.050936799
0.1823291 -0.059086859 -0.033981759
-0.02611593 -0.059798401 0.050936799
3.4762311 -0.2218436 -1.2109954
0.18830839 -0.064107537 -0.034184594
-0.02611593 -0.059798401 0.050936799
0.15036941 -0.054990783 -0.032308731
-0.02611593 -0.059798401 0.050936799
-0.02611593 -0.059798401 0.050936799
0.15533406 -0.058989961 -0.033474416
-0.02611593 -0.059798401 0.050936799
0.17929038 -0.069074385 -0.034105573
0.1702407 -0.062970757 -0.037827
-0.02611593 -0.059798401 0.050936799
0.13235396 -0.054908097 -0.03297016
-0.02611593 -0.059798401 0.050936799
-0.02611593 -0.059798401 0.050936799
0.13731864 -0.05890727 -0.034135852
-0.02611593 -0.059798401 0.050936799
0.15131816 -0.067992166 -0.03256176
0.145264 -0.06289912 -0.036357567
-0.02611593 -0.059798401 0.050936799
0.11337618 -0.054857992 -0.03161348
-0.02611593 -0.059798401 0.050936799
-0.02611593 -0.059798401 0.050936799
0.11932191 -0.05884267 -0.033797622
-0.02611593 -0.059798401 0.050936799
0.13132182 -0.067920387 -0.032185949
0.12428655 -0.062841848 -0.034963299
-0.02611593 -0.059798401 0.050936799
0.097393893 -0.055818491 -0.030331191
-0.02611593 -0.059798401 0.050936799
-0.02611593 -0.059798401 0.050936799
0.098400652 -0.058839656 -0.029404376
-0.02611593 -0.059798401 0.050936799
0.1103483 -0.066863276 -0.030773669
0.11223653 -0.061744675 -0.037718788
-0.02611593 -0.059798401 0.050936799
0.087377004 -0.055764511 -0.031142943
-0.02611593 -0.059798401 0.050936799
-0.02611593 -0.059798401 0.050936799
0.091327034 -0.05874218 -0.033271488
-0.02611593 -0.059798401 0.050936799
0.097354613 -0.06581679 -0.030511376
0.09825781 -0.061712526 -0.03645606
-0.02611593 -0.059798401 0.050936799
0.074416824 -0.055754036 -0.028899349
-0.02611593 -0.059798401 0.050936799
-0.02611593 -0.059798401 0.050936799
0.07442376 -0.058771614 -0.027953736
-0.02611593 -0.059798401 0.050936799
0.084356993 -0.065770134 -0.030267097
0.087241106 -0.061654955 -0.037249021
-0.02611593 -0.059798401 0.050936799
0.066399559 -0.055707235 -0.029748686
-0.02611593 -0.059798401 0.050936799
-0.02611593 -0.059798401 0.050936799
0.070349596 -0.0586849 -0.03187722
-0.02611593 -0.059798401 0.050936799
0.073359005 -0.065730654 -0.030060403
0.074280918 -0.06164448 -0.03500542
-0.02611593 -0.059798401 0.050936799
0.057419933 -0.055693023 -0.028579909
-0.02611593 -0.059798401 0.050936799
-0.02611593 -0.059798401 0.050936799
0.059389055 -0.0586816 -0.029671203
-0.02611593 -0.059798401 0.050936799
0.065345675 -0.064684026 -0.030891716
0.066244937 -0.061579585 -0.036854424
-0.02611593 -0.059798401 0.050936799
0.050402492 -0.055649813 -0.029448036
-0.02611593 -0.059798401 0.050936799
-0.02611593 -0.059798401 0.050936799
0.05333399 -0.058605801 -0.032557447
-0.02611593 -0.059798401 0.050936799
0.056347318 -0.06465172 -0.030722603
0.057269234 -0.06056555 -0.035667632
-0.02611593 -0.059798401 0.050936799
0.043403774 -0.05562469 -0.0293165
-0.02611593 -0.059798401 0.050936799
-0.02611593 -0.059798401 0.050936799
0.049278554 -0.058537178 -0.03548127
-0.02611593 -0.059798401 0.050936799
0.051310793 -0.064597599 -0.032627977
0.052213982 -0.060493339 -0.038572658
-0.02611593 -0.059798401 0.050936799
0.038385965 -0.055588655 -0.030222207
-0.02611593 -0.059798401 0.050936799
-0.02611593 -0.059798401 0.050936799
0.041298736 -0.058526553 -0.034331277
-0.02611593 -0.059798401 0.050936799
0.040372904 -0.063612558 -0.029404275
0.043253075 -0.060497217 -0.036404222
-0.02611593 -0.059798401 0.050936799
0.032387063 -0.055567123 -0.030109465
-0.02611593 -0.059798401 0.050936799
-0.02611593 -0.059798401 0.050936799
0.032375276 -0.058566615 -0.030163519
-0.02611593 -0.059798401 0.050936799
0.03729463 -0.06452927 -0.03336456
0.034310892 -0.060519181 -0.033236116
-0.02611593 -0.059798401 0.050936799
-0.02611593 -0.059798401 0.050936799
-0.02611593 -0.059798401 0.050936799
-0.02611593 -0.059798401 0.050936799
0.028319843 -0.058497988 -0.033087336
-0.02611593 -0.059798401 0.050936799
0.032258097 -0.064475149 -0.035269942
0.028330712 -0.060515739 -0.032123722
-0.02611593 -0.059798401 0.050936799
-0.02611593 -0.059798401 0.050936799
-0.02611593 -0.059798401 0.050936799
-0.02611593 -0.059798401 0.050936799
-0.02611593 -0.059798401 0.050936799
-0.02611593 -0.059798401 0.050936799
-0.02611593 -0.059798401 0.050936799
0.024275277 -0.060447115 -0.035047546
-0.02611593 -0.059798401 0.050936799
-0.02611593 -0.059798401 0.050936799
-0.02611593 -0.059798401 0.050936799
-0.02611593 -0.059798401 0.050936799
-0.02611593 -0.059798401 0.050936799
-0.02611593 -0.059798401 0.050936799
-0.02611593 -0.059798401 0.050936799
-0.02611593 -0.059798401 0.050936799
-0.02611593 -0.059798401 0.050936799
-0.02611593 -0.059798401 0.050936799
-0.02611593 -0.059798401 0.050936799
-0.02611593 -0.059798401 0.050936799
-0.02611593 -0.059798401 0.050936799
-0.02611593 -0.059798401 0.050936799
-0.02611593 -0.059798401 0.050936799
0.015202033 -0.060342461 -0.038877074
-0.02611593 -0.059798401 0.050936799
-0.02611593 -0.059798401 0.050936799
-0.02611593 -0.059798401 0.050936799
-0.02611593 -0.059798401 0.050936799
-0.02611593 -0.059798401 0.050936799
-0.02611593 -0.059798401 0.050936799
-0.02611593 -0.059798401 0.050936799
0.011165317 -0.060291924 -0.040801231
-0.02611593 -0.059798401 0.050936799
-0.02611593 -0.059798401 0.050936799
-0.02611593 -0.059798401 0.050936799
-0.02611593 -0.059798401 0.050936799
-0.02611593 -0.059798401 0.050936799
-0.02611593 -0.059798401 0.050936799
-0.02611593 -0.059798401 0.050936799
-0.02611593 -0.059798401 0.050936799
-0.02611593 -0.059798401 0.050936799
-0.02611593 -0.059798401 0.050936799
-0.02611593 -0.059798401 0.050936799
-0.02611593 -0.059798401 0.050936799
-0.02611593 -0.059798401 0.050936799
-0.02611593 -0.059798401 0.050936799
-0.02611593 -0.059798401 0.050936799
-0.02611593 -0.059798401 0.050936799
-0.02611593 -0.059798401 0.050936799
-0.02611593 -0.059798401 0.050936799
-0.02611593 -0.059798401 0.050936799
-0.02611593 -0.059798401 0.050936799
-0.02611593 -0.059798401 0.050936799
-0.02611593 -0.059798401 0.050936799
-0.02611593 -0.059798401 0.050936799
-0.02611593 -0.059798401 0.050936799
-0.02611593 -0.059798401 0.050936799
-0.02611593 -0.059798401 0.050936799
-0.02611593 -0.059798401 0.050936799
-0.02611593 -0.059798401 0.050936799
-0.02611593 -0.059798401 0.050936799
-0.02611593 -0.059798401 0.050936799
-0.02611593 -0.059798401 0.050936799
-0.02611593 -0.059798401 0.050936799
-0.02611593 -0.059798401 0.050936799
-0.02611593 -0.059798401 0.050936799
-0.02611593 -0.059798401 0.050936799
-0.02611593 -0.059798401 0.050936799
-0.02611593 -0.059798401 0.050936799
-0.02611593 -0.059798401 0.050936799
-0.02611593 -0.059798401 0.050936799
-0.02611593 -0.059798401 0.050936799
-0.02611593 -0.059798401 0.050936799
-0.02611593 -0.059798401 0.050936799
-0.02611593 -0.059798401 0.050936799
-0.02611593 -0.059798401 0.050936799
-0.02611593 -0.059798401 0.050936799
-0.02611593 -0.059798401 0.050936799
-0.02611593 -0.059798401 0.050936799
-0.02611593 -0.059798401 0.050936799
-0.02611593 -0.059798401 0.050936799
-0.02611593 -0.059798401 0.050936799
-0.02611593 -0.059798401 0.050936799
-0.02611593 -0.059798401 0.050936799
-0.02611593 -0.059798401 0.050936799
-0.02611593 -0.059798401 0.050936799
-0.02611593 -0.059798401 0.050936799
-0.02611593 -0.059798401 0.050936799
-0.02611593 -0.059798401 0.050936799
-0.02611593 -0.059798401 0.050936799
-0.02611593 -0.059798401 0.050936799
-0.02611593 -0.059798401 0.050936799
-0.02611593 -0.059798401 0.050936799
-0.02611593 -0.059798401 0.050936799
-0.02611593 -0.059798401 0.050936799
-0.02611593 -0.059798401 0.050936799
-0.02611593 -0.059798401 0.050936799
-0.02611593 -0.059798401 0.050936799
-0.02611593 -0.059798401 0.050936799
-0.02611593 -0.059798401 0.050936799
-0.02611593 -0.059798401 0.050936799
-0.02611593 -0.059798401 0.050936799
-0.02611593 -0.059798401 0.050936799
-0.02611593 -0.059798401 0.050936799
-0.02611593 -0.059798401 0.050936799
-0.02611593 -0.059798401 0.050936799
-0.02611593 -0.059798401 0.050936799
-0.02611593 -0.059798401 0.050936799
-0.02611593 -0.059798401 0.050936799
-0.02611593 -0.059798401 0.050936799
-0.02611593 -0.059798401 0.050936799
-0.02611593 -0.059798401 0.050936799
-0.02611593 -0.059798401 0.050936799
-0.02611593 -0.059798401 0.050936799
-0.02611593 -0.059798401 0.050936799
-0.02611593 -0.059798401 0.050936799
-0.02611593 -0.059798401 0.050936799
-0.02611593 -0.059798401 0.050936799
-0.02611593 -0.059798401 0.050936799
-0.02611593 -0.059798401 0.050936799
-0.02611593 -0.059798401 0.050936799
-0.02611593 -0.059798401 0.050936799
-0.02611593 -0.059798401 0.050936799
-0.02611593 -0.059798401 0.050936799
-0.02611593 -0.059798401 0.050936799
-0.02611593 -0.059798401 0.050936799
-0.02611593 -0.059798401 0.050936799
-0.02611593 -0.059798401 0.050936799
-0.02611593 -0.059798401 0.050936799
-0.02611593 -0.059798401 0.050936799
-0.02611593 -0.059798401 0.050936799
-0.02611593 -0.059798401 0.050936799
-0.02611593 -0.059798401 0.050936799
-0.02611593 -0.059798401 0.050936799
-0.02611593 -0.059798401 0.050936799
-0.02611593 -0.059798401 0.050936799
-0.02611593 -0.059798401 0.050936799
-0.02611593 -0.059798401 0.050936799
-0.02611593 -0.059798401 0.050936799
-0.02611593 -0.059798401 0.050936799
-0.02611593 -0.059798401 0.050936799
-0.02611593 -0.059798401 0.050936799
-0.02611593 -0.059798401 0.050936799
-0.02611593 -0.059798401 0.050936799
-0.02611593 -0.059798401 0.050936799
-0.02611593 -0.059798401 0.050936799
-0.02611593 -0.059798401 0.050936799
-0.02611593 -0.059798401 0.050936799
-0.02611593 -0.059798401 0.050936799
-0.02611593 -0.059798401 0.050936799
-0.02611593 -0.059798401 0.050936799
-0.02611593 -0.059798401 0.050936799
-0.02611593 -0.059798401 0.050936799
-0.02611593 -0.059798401 0.050936799
-0.02611593 -0.059798401 0.050936799
-0.02611593 -0.059798401 0.050936799
-0.02611593 -0.059798401 0.050936799
-0.02611593 -0.059798401 0.050936799
-0.02611593 -0.059798401 0.050936799
-0.02611593 -0.059798401 0.050936799
-0.02611593 -0.059798401 0.050936799
-0.02611593 -0.059798401 0.050936799
-0.02611593 -0.059798401 0.050936799
-0.02611593 -0.059798401 0.050936799
-0.02611593 -0.059798401 0.050936799
-0.02611593 -0.059798401 0.050936799
-0.02611593 -0.059798401 0.050936799
-0.02611593 -0.059798401 0.050936799
-0.02611593 -0.059798401 0.050936799
-0.02611593 -0.059798401 0.050936799
-0.02611593 -0.059798401 0.050936799
-0.02611593 -0.059798401 0.050936799
-0.02611593 -0.059798401 0.050936799
-0.02611593 -0.059798401 0.050936799
-0.02611593 -0.059798401 0.050936799
-0.02611593 -0.059798401 0.050936799
-0.02611593 -0.059798401 0.050936799
-0.02611593 -0.059798401 0.050936799
-0.02611593 -0.059798401 0.050936799
-0.02611593 -0.059798401 0.050936799
-0.02611593 -0.059798401 0.050936799
-0.02611593 -0.059798401 0.050936799
-0.02611593 -0.059798401 0.050936799
-0.02611593 -0.059798401 0.050936799
-0.02611593 -0.059798401 0.050936799
-0.02611593 -0.059798401 0.050936799
-0.02611593 -0.059798401 0.050936799
-0.02611593 -0.059798401 0.050936799
-0.02611593 -0.059798401 0.050936799
-0.02611593 -0.059798401 0.050936799
-0.02611593 -0.059798401 0.050936799
-0.079772733 -0.058001854 -0.037055932
-0.02611593 -0.059798401 0.050936799
-0.02611593 -0.059798401 0.050936799
-0.02611593 -0.059798401 0.050936799
-0.02611593 -0.059798401 0.050936799
-0.079731353 -0.057038199 -0.03503859
-0.02611593 -0.059798401 0.050936799
-0.083690174 -0.061077431 -0.032036513
-0.087827437 -0.057918873 -0.039904587
-0.02611593 -0.059798401 0.050936799
-0.02611593 -0.059798401 0.050936799
-0.02611593 -0.059798401 0.050936799
-0.02611593 -0.059798401 0.050936799
-0.082655922 -0.057099786 -0.030983564
-0.02611593 -0.059798401 0.050936799
-0.08864788 -0.060095835 -0.029925227
-0.091789261 -0.057940695 -0.037830107
-0.02611593 -0.059798401 0.050936799
-0.02611593 -0.059798401 0.050936799
-0.02611593 -0.059798401 0.050936799
-0.02611593 -0.059798401 0.050936799
-0.087636285 -0.057099931 -0.02988996
-0.02611593 -0.059798401 0.050936799
-0.095684052 -0.060034536 -0.031793013
-0.097750716 -0.057955343 -0.035718039
-0.02611593 -0.059798401 0.050936799
-0.087576181 -0.056154367 -0.026872955
-0.02611593 -0.059798401 0.050936799
-0.02611593 -0.059798401 0.050936799
-0.096690804 -0.057013366 -0.032719832
-0.02611593 -0.059798401 0.050936799
-0.099608421 -0.060092539 -0.027719207
-0.10680524 -0.057868771 -0.038547907
-0.02611593 -0.059798401 0.050936799
-0.096645497 -0.055049885 -0.030684464
-0.02611593 -0.059798401 0.050936799
-0.02611593 -0.059798401 0.050936799
-0.1006339 -0.057053275 -0.029645681
-0.02611593 -0.059798401 0.050936799
-0.10457006 -0.06011077 -0.025625933
-0.11274797 -0.057901509 -0.035436179
-0.02611593 -0.059798401 0.050936799
-0.10059253 -0.056089625 -0.02762834
-0.02611593 -0.059798401 0.050936799
-0.02611593 -0.059798401 0.050936799
-0.10765134 -0.057010066 -0.030513801
-0.02611593 -0.059798401 0.050936799
-0.11155006 -0.060103737 -0.024494734
-0.12176504 -0.057851117 -0.036266729
-0.02611593 -0.059798401 0.050936799
-0.10659144 -0.056068093 -0.027515594
-0.02611593 -0.059798401 0.050936799
-0.02611593 -0.059798401 0.050936799
-0.1166497 -0.056977764 -0.030344687
-0.02611593 -0.059798401 0.050936799
-0.12158567 -0.060031667 -0.026306152
-0.12772651 -0.057865761 -0.034154661
-0.02611593 -0.059798401 0.050936799
-0.11560851 -0.056017704 -0.02834614
-0.02611593 -0.059798401 0.050936799
-0.02611593 -0.059798401 0.050936799
-0.1215926 -0.057014085 -0.027251758
-0.02611593 -0.059798401 0.050936799
-0.13563928 -0.059927158 -0.029042073
-0.13872449 -0.057826281 -0.033947967
-0.02611593 -0.059798401 0.050936799
-0.12057015 -0.056035936 -0.02625287
-0.02611593 -0.059798401 0.050936799
-0.02611593 -0.059798401 0.050936799
-0.1346464 -0.056913164 -0.030006457
-0.02611593 -0.059798401 0.050936799
-0.14360036 -0.059934624 -0.02689242
-0.14668559 -0.05783375 -0.031798322
-0.02611593 -0.059798401 0.050936799
-0.13362393 -0.05593501 -0.029007576
-0.02611593 -0.059798401 0.050936799
-0.02611593 -0.059798401 0.050936799
-0.1456444 -0.056873687 -0.029799759
-0.02611593 -0.059798401 0.050936799
-0.15659405 -0.058888137 -0.026630126
-0.16070174 -0.057765417 -0.032534916
-0.02611593 -0.059798401 0.050936799
-0.14056648 -0.055964157 -0.025877059
-0.02611593 -0.059798401 0.050936799
-0.02611593 -0.059798401 0.050936799
-0.15562776 -0.057855718 -0.028630223
-0.02611593 -0.059798401 0.050936799
-0.17360967 -0.058809038 -0.027310345
-0.17268081 -0.057740439 -0.031309769
-0.02611593 -0.059798401 0.050936799
-0.15358676 -0.056899242 -0.026650459
-0.02611593 -0.059798401 0.050936799
-0.02611593 -0.059798401 0.050936799
-0.16962519 -0.057805471 -0.028367154
-0.02611593 -0.059798401 0.050936799
-0.18656984 -0.058798559 -0.025066748
-0.19471423 -0.057625305 -0.032895695
-0.02611593 -0.059798401 0.050936799
-0.16658437 -0.056852587 -0.02640618
-0.02611593 -0.059798401 0.050936799
-0.02611593 -0.059798401 0.050936799
-0.17956719 -0.057823848 -0.025180265
-0.02611593 -0.059798401 0.050936799
-0.20756602 -0.058723189 -0.024672147
-0.21471059 -0.057553526 -0.032519884
-0.02611593 -0.059798401 0.050936799
-0.18358126 -0.056791574 -0.02608674
-0.02611593 -0.059798401 0.050936799
-0.02611593 -0.059798401 0.050936799
-0.21065514 -0.05762215 -0.029596061
-0.02611593 -0.059798401 0.050936799
-0.24465284 -0.058499955 -0.028975204
-0.23466948 -0.057517927 -0.030144755
-0.02611593 -0.059798401 0.050936799
-0.20460007 -0.057697952 -0.026709817
-0.02611593 -0.059798401 0.050936799
-0.02611593 -0.059798401 0.050936799
-0.23465075 -0.057536013 -0.029145088
-0.02611593 -0.059798401 0.050936799
-1.0402528 -0.053084251 -0.26706219
-0.26666361 -0.05740308 -0.029543459
-0.02611593 -0.059798401 0.050936799
-0.2286144 -0.057593726 -0.027258512
-1.0397621 -0.052554742 -0.24105296
-0.02611593 -0.059798401 0.050936799
-0.26262692 -0.057453614 -0.027619287
-0.02611593 -0.059798401 0.050936799
-1.0423082 -0.051978283 -0.21698672
-1.0377172 -0.050598435 -0.23905517
-0.02611593 -0.059798401 0.050936799
-0.25659055 -0.057511326 -0.025732711
-1.0619074 -0.051286541 -0.1956
-1.0623755 -0.050834313 -0.22059155
-1.0416977 -0.050602168 -0.23798035
-0.02611593 -0.059798401 0.050936799
-1.0554218 -0.051778391 -0.16972154
-1.0598891 -0.05131181 -0.19463789
-1.0532874 -0.051956888 -0.21578038
-1.0487269 -0.053558443 -0.23890254
-1.0669849 -0.051151544 -0.14648584
-1.0674382 -0.051717237 -0.17049573
-1.0558376 -0.05238026 -0.19173212
-1.0593169 -0.054916754 -0.21672133
-1.082585 -0.050474156 -0.12517428
-1.0800239 -0.052068535 -0.14825891
-1.0644094 -0.05376384 -0.1685888
-1.0678924 -0.057300169 -0.19359605
-1.1011657 -0.049804103 -0.10280672
-1.0956092 -0.052409071 -0.12596571
-1.0890341 -0.055035725 -0.14814384
-1.0694468 -0.058726959 -0.1695846
-1.1056929 -0.049238551 -0.077703215
-1.109176 -0.05277488 -0.10271044
-1.0945837 -0.055448327 -0.12403923
-1.0920761 -0.061005853 -0.14919524
-1.1032213 -0.048698127 -0.052731238
-1.117725 -0.053176712 -0.07854946
-1.1161904 -0.056749076 -0.10265099
-1.1076502 -0.063364133 -0.12593842
-1.1157657 -0.048085775 -0.028477088
-1.1312732 -0.053560607 -0.054294527
-1.1197255 -0.058186773 -0.077602312
-1.1091858 -0.064809009 -0.10092735
-1.1252918 -0.047502283 -0.0032796338
-1.1277869 -0.054041691 -0.028359711
-1.1272787 -0.059592031 -0.053478144
-1.1287781 -0.06713485 -0.078595027
-1.1508337 -0.046843275 0.021218799
-1.1353173 -0.054465204 -0.0032178611
-1.126792 -0.060062345 -0.027486958
-1.1363163 -0.069558032 -0.053489208
-1.1523466 -0.047306415 0.047247574
-1.1478469 -0.054870773 0.022017941
-1.1493423 -0.061413769 -0.0030809194
-1.1498723 -0.071941584 -0.029270314
-1.1828649 -0.045647725 0.072857641
-1.1553773 -0.05529429 0.047159791
-1.1538773 -0.062847883 0.021986544
-1.1443715 -0.073447756 -0.0023914352
-0.02611593 -0.059798401 0.050936799
-1.1879032 -0.055628084 0.072771408
-1.1723909 -0.064249836 0.048316732
-1.1879448 -0.076705389 0.021373495
-1.2158399 -0.044502851 0.12751426
-1.1993955 -0.05607342 0.099987745
-1.2029212 -0.065590635 0.073872745
-0.02611593 -0.059798401 0.050936799
-0.02611593 -0.059798401 0.050936799
-1.2088696 -0.056544024 0.12816617
-1.2094183 -0.067053743 0.10097712
-1.2079644 -0.08158806 0.074678063
-1.2267852 -0.044472948 0.18373877
-1.2213429 -0.057003863 0.15640095
-1.2148969 -0.068538539 0.12906234
-0.02611593 -0.059798401 0.050936799
-1.2252573 -0.043983199 0.21172851
-1.2228371 -0.057485089 0.18342938
-1.2213753 -0.070019737 0.15716636
-1.2219437 -0.08552862 0.12988722
-1.2277286 -0.043479092 0.2397934
-1.2312924 -0.057977371 0.21258867
-1.2188742 -0.07151515 0.18410163
-1.2244267 -0.088024005 0.15789807
-1.2361614 -0.042989634 0.26997039
-1.2347487 -0.058487598 0.24165399
-1.2253337 -0.073014438 0.21320531
-0.02611593 -0.059798401 0.050936799
-1.2734951 -0.042486541 0.30569059
-1.2412045 -0.058987059 0.27077571
-1.2447574 -0.075503081 0.24453458
-1.2812788 -0.094936341 0.22085881
-0.02611593 -0.059798401 0.050936799
-1.2894841 -0.059498586 0.30968356
-0.02611593 -0.059798401 0.050936799
-0.02611593 -0.059798401 0.050936799
-0.02611593 -0.059798401 0.050936799
-0.02611593 -0.059798401 0.050936799
-0.02611593 -0.059798401 0.050936799
-0.02611593 -0.059798401 0.050936799
-1.5294997 -0.037380096 0.46663058
-0.02611593 -0.059798401 0.050936799
-0.02611593 -0.059798401 0.050936799
-0.02611593 -0.059798401 0.050936799
-3.1130178 -0.012440908 0.98190409
-1.5365176 -0.06142325 0.47032833
-1.4924479 -0.085784584 0.42504722
-1.3995702 -0.10914105 0.36886677
-3.0887072 -0.012789856 1.0514662
-3.1091704 -0.06550052 0.98387295
-1.5166649 -0.088454254 0.46746668
-1.4626608 -0.11479687 0.41896266
-3.149864 -0.010319075 1.1496892
-3.0898297 -0.067867361 1.0554923
-3.1052904 -0.12461337 0.98873264
-1.5107541 -0.12050653 0.4687767
-3.2208543 -0.0089750364 1.257079
-3.1628914 -0.070461199 1.1598486
-3.0998614 -0.12902008 1.0655773
-3.0885191 -0.19169918 0.98920524
-3.2917695 -0.0077033481 1.3684676
-3.2368743 -0.072123967 1.2682405
-3.1639738 -0.13460952 1.1677111
-3.1198745 -0.20018949 1.0786691
-3.3724916 -0.0055768341 1.4900585
-3.2948637 -0.074843988 1.3763136
-3.2329774 -0.14128938 1.275919
-3.1800261 -0.21077433 1.179638
-3.4491403 -0.0035370365 1.6155729
-3.3825109 -0.077781953 1.5029445
-3.2979064 -0.14805597 1.3880501
-3.2460084 -0.22150046 1.2897166
-4.812099 0.019194614 2.3717587
-3.4710641 -0.080806769 1.6345922
-3.3895161 -0.15603298 1.517665
-3.3218465 -0.23433509 1.4079444
-4.6907129 0.018407099 2.4444964
-4.9668479 -0.09483622 2.4616239
-3.4859796 -0.16513661 1.6553531
-3.4015346 -0.24730004 1.5342447
-4.574367 0.01667387 2.515311
-4.7354078 -0.097135402 2.4832566
-5.1135821 -0.22396559 2.5550671
-3.4910371 -0.26140985 1.6707115
-4.6717906 0.018616673 2.7062347
-4.6635518 -0.10019536 2.5818892
-4.9830828 -0.22891134 2.6345611
-3.4862306 -0.27019215 1.7684958
-3.4122503 -0.0021953508 2.0880668
-4.7698178 -0.10639979 2.7828345
-4.8714852 -0.23387936 2.7194107
-3.3922296 -0.27452028 1.8216755
-4.5577922 0.017350331 2.9181492
-3.3094208 -0.094793037 2.0424509
-4.7480216 -0.23876382 2.7970371
-3.3091891 -0.27884516 1.8770614
-4.4543319 0.015555218 2.9952059
-3.2274473 -0.097042292 2.0938931
-4.621686 -0.2425326 2.8676274
-3.2261822 -0.28213403 1.9304658
-4.3420601 0.013908707 3.0620968
-3.1869981 -0.099593043 2.1711159
-4.5112243 -0.24837025 2.9454799
-3.133327 -0.28531402 1.9756852
-4.2288451 0.012312878 3.1259699
-3.2057741 -0.10366993 2.2904341
-3.5158045 -0.21379277 2.4192903
-3.5445995 -0.32737392 2.3457501
-4.1324768 0.010633331 3.1981597
-2.6187162 -0.098154709 1.967433
-4.2815928 -0.25778872 3.0850577
-3.4574475 -0.33182168 2.4070585
-4.0252829 0.0080772899 3.2611277
-2.5194011 -0.099835441 1.9835486
-4.1782379 -0.2624929 3.1570618
-3.2667286 -0.32825458 2.3895464
-3.9260278 0.006495513 3.3272634
-2.4635165 -0.10190094 2.0304809
-2.8100553 -0.20228213 2.2372231
-2.8275909 -0.30210412 2.1747246
-2.5605426 -0.016999912 2.2799177
-2.4283137 -0.10519841 2.0947838
-3.9656413 -0.27181417 3.2949598
-2.7763655 -0.30849466 2.2406723
-1.8724431 -0.02913161 1.7486351
-1.9100629 -0.097643398 1.7290936
-3.862361 -0.27644596 3.3629653
-2.7113595 -0.31271875 2.2943971
-1.8257962 -0.029929819 1.782759
-1.8574961 -0.099390611 1.759088
-1.8921432 -0.16989473 1.7384543
-1.9268327 -0.24637976 1.7167128
-1.94116 -0.027976688 1.9770201
-1.8452141 -0.1026779 1.8278219
-1.8415238 -0.17268887 1.7714672
-1.8751984 -0.25019538 1.7506887
-2.1121578 -0.025121737 2.244364
-2.0105517 -0.10955335 2.0788782
-1.932359 -0.18442512 1.9430138
-1.8314465 -0.25309101 1.7908306
-3.3537476 -0.0056768879 3.7114587
-2.2108192 -0.11833052 2.3875735
-2.0975525 -0.2024796 2.2038684
-1.9988101 -0.28100997 2.0445452
-3.26057 -0.0081645995 3.7736902
-3.3158679 -0.15424033 3.7330697
-3.36817 -0.30132663 3.6923742
-2.2031002 -0.31484091 2.356864
-3.1674485 -0.010598049 3.8329229
-3.2187326 -0.15770605 3.7932088
-3.2758918 -0.30691877 3.7605686
-3.3291807 -0.46505389 3.722693
-3.0753274 -0.013027892 3.8921742
-3.1274874 -0.1622586 3.8594403
-3.1767271 -0.31242752 3.8226335
-3.2260768 -0.47152254 3.7816656
-2.982187 -0.015479423 3.9524066
-3.0294273 -0.16565554 3.9155622
-3.0766525 -0.31684959 3.8796992
-3.1288035 -0.47813246 3.8497479
-2.8900845 -0.017891187 4.0106583
-2.9342952 -0.17011392 3.9757204
-2.9863925 -0.32241642 3.9469314
-3.0345857 -0.48467737 3.9148872
-2.7990003 -0.02028127 4.0679293
-2.8441024 -0.17360878 4.03899
-2.8882463 -0.32790351 4.0080152
-2.9373872 -0.49121493 3.9789712
-2.7088223 -0.022758208 4.1302171
-2.753895 -0.17812154 4.1032414
-2.7921145 -0.33236545 4.0681548
-2.8401701 -0.49777061 4.0440545
-2.6177192 -0.0251664 4.1884871
-2.6578007 -0.18254733 4.1613817
-2.6979306 -0.33787432 4.1313133
-2.742934 -0.50434434 4.110137
-2.5266201 -0.028574396 4.2467399
-2.5636461 -0.18602037 4.2225771
-2.6027131 -0.34442282 4.196434
-2.6437733 -0.51085287 4.172184
-2.4363899 -0.032105442 4.3120093
-2.4695513 -0.19043899 4.280755
-2.5065665 -0.34990269 4.2575555
-2.545594 -0.51737595 4.2352495
-2.3433437 -0.034466524 4.3672423
-2.3763819 -0.19492635 4.3429508
-2.4103827 -0.35541877 4.3206763
-2.447381 -0.52493501 4.3002958
-2.2502449 -0.037881706 4.4254575
-2.2851744 -0.19944271 4.4071832
-2.3162169 -0.36090952 4.3828354
-2.3472953 -0.53137481 4.358325
-2.1639535 -0.040452838 4.4938188
-2.1909862 -0.20395178 4.4703593
-2.2190373 -0.36742902 4.445919
-2.2510443 -0.5389629 4.4254084
-2.0698366 -0.04388969 4.5530148
-2.0929527 -0.20933029 4.525445
-2.1237824 -0.37401366 4.5130396
-2.1527748 -0.5465762 4.493454
-1.9738321 -0.047225203 4.6061749
-1.9996892 -0.21390811 4.592639
-2.0236742 -0.37947172 4.5720863
-2.0486565 -0.55406642 4.55339
-1.8815272 -0.050835766 4.6754045
-1.9034867 -0.21944225 4.6567593
-1.9254197 -0.38606712 4.6391501
-1.9483688 -0.56170499 4.6223974
-1.7854331 -0.055261545 4.7335448
-1.8033745 -0.22390047 4.7158246
-1.8262215 -0.39261186 4.7031965
-1.8462126 -0.56922412 4.6843696
-1.6864665 -0.058571652 4.7846498
-1.7061907 -0.22942013 4.7789264
-1.7221365 -0.39906603 4.7611508
-1.7430379 -0.576765 4.7473226
-1.5911809 -0.06217489 4.8528237
-1.6050453 -0.23491794 4.8399544
-1.6219199 -0.40563244 4.8261776
-1.6406275 -0.58653706 4.8232541
-1.4939746 -0.066712797 4.9169431
-1.5048435 -0.24046643 4.9039993
-1.5205951 -0.41331083 4.8971653
-1.5334535 -0.59409225 4.8861322
-1.3843884 -0.070700414 4.9478302
-1.4045106 -0.24614155 4.9750423
-1.4152896 -0.42098543 4.9670787
-1.4262273 -0.60270154 4.9519911
-1.2935029 -0.074864581 5.0480871
-1.3003281 -0.25168633 5.038013
-1.3081303 -0.42752272 5.028975
-1.3178179 -0.61249518 5.0278101
-1.1902227 -0.079496361 5.1160922
-1.1940937 -0.25829238 5.1039267
-1.2016606 -0.43636358 5.1078486
-1.2084274 -0.62227428 5.1026106
-1.0860366 -0.084041305 5.179081
-1.089668 -0.2640723 5.1798925
-1.0932994 -0.44410324 5.1807046
-1.0950752 -0.6320315 5.1753364
-0.9816255 -0.088803314 5.254065
-0.98021352 -0.27190602 5.2577276
-0.98005551 -0.45275217 5.2474504
-0.98061454 -0.64290076 5.2540231
-1.5126803 -0.11974759 9.3068218
-1.4960344 -0.44071189 9.2426834
-1.4856747 -0.75732118 9.2157526
-1.4746246 -1.0856787 9.174593
-1.2464163 -0.12534858 8.8935947
-1.2254089 -0.43061936 8.845664
-1.2086203 -0.72964168 8.7849197
-1.1895195 -1.040013 8.7429352
-1.0043763 -0.13060167 8.521843
-0.97849798 -0.42071205 8.4640913
