# .PCD v0.7 - Point Cloud Data file format
VERSION 0.7
FIELDS x y z
SIZE 4 4 4
TYPE F F F
COUNT 1 1 1
WIDTH 1401
HEIGHT 1
VIEWPOINT 0 0 0 1 0 0 0
POINTS 1401
DATA ascii
1.4050056 0.54370242 2.2698112
1.0527953 0.56589502 1.7256224
1.1614109 0.55694699 1.8654746
1.2925587 0.55041301 2.0329576
1.4594193 0.54506564 2.2378061
1.0924964 0.56804055 1.7089124
1.2008981 0.55729187 1.837732
1.33591 0.54987031 1.9981244
1.5055975 0.54367512 2.1939018
1.1239021 0.56648684 1.6772856
1.2393668 0.55765831 1.8090086
1.3823663 0.55222589 1.968287
1.5568954 0.54415774 2.155937
1.1564054 0.56583887 1.6506562
1.2778167 0.55804294 1.7792857
1.4267589 0.55264318 1.9354522
1.6041002 0.54474527 2.1130495
1.191972 0.56712562 1.6270056
1.3162478 0.55844569 1.7485631
1.467036 0.55218363 1.8966767
1.6543646 0.54626751 2.0731223
1.2244606 0.56749558 1.5993946
1.3516382 0.55789548 1.7158794
1.5073545 0.5526877 1.8599186
1.6985286 0.54590213 2.0282736
1.2569302 0.56788367 1.5707841
1.3870138 0.5583632 1.682214
1.549714 0.55414826 1.8251401
1.7426778 0.54655463 1.9824432
1.2873966 0.56727898 1.5421929
1.4234453 0.55877316 1.6515291
1.5889953 0.55469203 1.7864013
1.7878871 0.54814905 1.9396112
1.3249893 0.57054007 1.5195405
1.4608846 0.56117904 1.6208611
1.6303174 0.55619228 1.7496425
1.8300179 0.54882681 1.8928188
1.3554409 0.57095337 1.4899677
1.4962602 0.56164676 1.5871959
1.6675429 0.55679756 1.7079422
1.8711115 0.54954439 1.8440458
1.3848323 0.57042474 1.4573969
1.5295986 0.56215787 1.5515689
1.702746 0.55642831 1.665262
1.9101682 0.55030531 1.793311
1.4152648 0.57085615 1.4268246
1.5629559 0.56265086 1.5169414
1.7379757 0.55804062 1.6236174
1.9462212 0.55007714 1.7426149
1.4405969 0.56939632 1.3913118
1.5952984 0.56416541 1.4813513
1.7752239 0.55962759 1.582935
1.9843006 0.55182338 1.6929166
1.4771752 0.57367885 1.3676964
1.6256 0.56472349 1.4437813
1.8084126 0.56028342 1.5393107
2.0213802 0.55357319 1.6432371
1.503526 0.57219732 1.3331646
1.652842 0.56434667 1.4032507
1.8456459 0.56288826 1.4976466
2.0584223 0.55535924 1.5915583
1.5299031 0.5726974 1.2996684
1.6831249 0.56492275 1.364681
1.8737754 0.56261647 1.4510993
2.0894244 0.55620313 1.5379751
1.5603023 0.57416481 1.2671148
1.7164712 0.5674336 1.3290901
1.9059495 0.5642938 1.406512
2.1234481 0.55801797 1.4853531
1.5897243 0.5766176 1.2355976
1.7386541 0.56612915 1.2856365
1.9391272 0.56696737 1.3619241
2.1534128 0.55890161 1.4297892
1.6099972 0.57423007 1.1971618
1.7699634 0.56868339 1.2480837
1.9652197 0.56673896 1.3134149
2.1854224 0.56174147 1.3762232
1.6394005 0.57670093 1.1646451
1.7982278 0.56928474 1.208552
1.9862568 0.56658268 1.2620008
2.211369 0.56265754 1.3197348
1.665759 0.57721901 1.1301492
1.822437 0.56995475 1.1660966
2.0164125 0.56828529 1.2164516
2.2332788 0.56362414 1.2613223
1.6829801 0.57589644 1.0887887
1.8476685 0.57160294 1.1246399
2.0404944 0.57008177 1.1670165
2.2531664 0.56361628 1.2019297
1.7144057 0.57934189 1.0572519
1.8729 0.57325107 1.0831833
2.0645726 0.57087839 1.1175634
2.2740803 0.56558627 1.1435537
1.7367086 0.57992864 1.0198325
1.8960906 0.57394278 1.0397469
2.093699 0.57462037 1.0700697
2.3030753 0.56945497 1.0890626
1.7589743 0.58055156 0.98041344
1.9193037 0.57561624 0.99732816
2.1097183 0.5745002 1.0177498
2.3179493 0.57048291 1.0287822
1.782281 0.5821346 0.94299304
1.9414797 0.5773294 0.95292884
2.1297636 0.57634717 0.96639049
2.3378823 0.57243842 0.97142494
1.8015472 0.5827682 0.9036305
1.9586298 0.577079 0.90758789
2.1498275 0.57817608 0.91603088
2.3487339 0.57249898 0.91020215
1.81881 0.58240926 0.8642875
1.982847 0.57974863 0.86516833
2.1708951 0.58100128 0.86567044
2.3646488 0.57448691 0.85192037
1.8410792 0.58403206 0.82488644
1.9939421 0.57957405 0.81694114
2.1768336 0.57898968 0.80950379
2.3735049 0.57555449 0.79075313
1.8603268 0.5846839 0.78452426
2.0151222 0.58229065 0.77257872
2.1959019 0.58182192 0.75918102
2.3894238 0.57854229 0.73248935
1.8775598 0.58636069 0.74321795
2.0322614 0.58405799 0.72627407
2.2028666 0.5817883 0.70403129
2.3902586 0.57865679 0.6704548
1.8907629 0.58507055 0.7009331
2.0504007 0.58582175 0.67995071
2.2138722 0.58270395 0.65082377
2.4021595 0.58167708 0.61126655
1.9089957 0.58674389 0.65960795
2.064518 0.58661813 0.63268477
2.2248814 0.58461946 0.59763426
2.4110756 0.58369017 0.55311632
1.9282511 0.58939528 0.61928171
2.0756171 0.58744329 0.58447552
2.2359095 0.58651686 0.54544443
2.4038892 0.58285165 0.49021435
1.9424433 0.59011924 0.57601446
2.0847166 0.58827573 0.53630388
2.235857 0.58652639 0.48942661
2.4118097 0.58586812 0.43210095
1.9546359 0.59085047 0.53278476
2.096838 0.59007901 0.48909354
2.2468891 0.58942366 0.43725476
2.4177155 0.58990985 0.37304348
1.9638062 0.59061062 0.48859373
2.1029155 0.58994049 0.4399606
2.2498775 0.59038609 0.3831979
2.4075675 0.58904582 0.31219721
1.9780023 0.59233445 0.44534445
2.1140225 0.59276527 0.39178741
2.2528656 0.59134859 0.32914102
2.4104886 0.59208035 0.25417775
2.0022311 0.59800363 0.40297899
2.1231072 0.59461558 0.34263414
2.2558765 0.59329277 0.27610189
2.417417 0.59710008 0.19611916
2.0063798 0.59680003 0.35786426
2.131211 0.5964514 0.29449934
2.2568836 0.5942443 0.22308224
2.4002886 0.5962432 0.1364041
1.1884463 0.33068001 0.2073133
-0.02611593 -0.059798401 0.050936799
2.2578766 0.59621376 0.16908097
2.4032326 0.60025942 0.079402313
1.0695243 0.29187006 0.16682407
1.1187879 0.28837869 0.12782536
2.2568882 0.59817231 0.11611696
2.3911297 0.60136616 0.020629009
1.0590236 0.28837693 0.14094873
1.1333141 0.29279447 0.10162439
2.2508779 0.59916705 0.06222922
2.3770835 0.60242581 -0.035107732
1.0736021 0.29173866 0.11772872
1.1338084 0.29327929 0.074614748
2.2419059 0.6001364 0.010397167
2.3240013 0.59262729 -0.090309851
1.0701267 0.29020196 0.092757523
1.1052953 0.28585145 0.049005549
2.239918 0.60209852 -0.042548064
-0.02611593 -0.059798401 0.050936799
1.072662 0.29164329 0.067727648
1.0427639 0.26752943 0.024836686
2.2389374 0.60605675 -0.095476046
1.0579855 0.24610034 -0.065866679
1.0732086 0.29107395 0.04369897
1.1073478 0.2887629 -0.0019975007
-0.02611593 -0.059798401 0.050936799
1.0285554 0.24060339 -0.087422401
0.91965085 0.24301128 0.024698135
1.1118679 0.29121491 -0.028046608
1.0669649 0.26515526 -0.070691749
1.0091164 0.23808815 -0.11011165
0.99826658 0.26817575 -0.0013273843
1.0613877 0.27681297 -0.050369561
0.98458999 0.24274285 -0.085559927
1.073517 0.26050234 -0.14692442
0.95184159 0.25370517 -0.020726513
1.0489473 0.27427259 -0.073190331
0.98815167 0.24616215 -0.1095729
1.0460904 0.25599805 -0.16849971
1.0573753 0.28787971 -0.053095181
0.95459247 0.24686795 -0.085923791
1.0705162 0.27456498 -0.14961478
0.9788112 0.23945844 -0.17954299
1.0439166 0.28536102 -0.076896816
0.94817775 0.24628761 -0.10782161
1.041101 0.2680501 -0.17018887
1.0191926 0.25595981 -0.21601291
0.9485876 0.25492433 -0.087666228
1.0355681 0.27665409 -0.14692175
0.96486384 0.24748924 -0.17813613
0.98785233 0.24937977 -0.2325508
0.91523606 0.24535194 -0.10422058
1.042073 0.28011686 -0.17399007
0.94946551 0.24592331 -0.19888319
0.96050459 0.24580292 -0.2501094
0.94674921 0.25674176 -0.13261417
0.97081631 0.25955614 -0.18303096
0.92809802 0.24234302 -0.21755424
0.94411045 0.24524039 -0.27081963
1.0520474 0.29315111 -0.1779424
0.91656131 0.24495143 -0.1932828
0.92367589 0.24477309 -0.24043523
0.21159965 0.015814399 -0.034174964
0.96484488 0.2665765 -0.18279208
0.90916938 0.24535643 -0.21414416
0.91726911 0.2461924 -0.262297
0.18961754 0.0098581929 -0.031870358
0.89264053 0.2449652 -0.18883318
0.90175879 0.2457795 -0.23600519
0.2056382 0.015799753 -0.032062896
-0.02611593 -0.059798401 0.050936799
0.89621705 0.24736658 -0.21186452
-0.02611593 -0.059798401 0.050936799
0.20156404 0.015886467 -0.035986379
0.16656469 0.0049777701 -0.033527594
0.89280963 0.24877514 -0.23378266
0.21460001 0.020820867 -0.035140898
-0.02611593 -0.059798401 0.050936799
-0.02611593 -0.059798401 0.050936799
0.90829128 0.25624111 -0.26294735
0.19758348 0.015882732 -0.034911551
0.16855344 0.0069883424 -0.034528788
0.14156048 -0.0019494072 -0.032184292
0.20564997 0.018799245 -0.032008842
-0.02611593 -0.059798401 0.050936799
-0.02611593 -0.059798401 0.050936799
-0.02611593 -0.059798401 0.050936799
0.18961845 0.014875435 -0.032779925
0.16855736 0.0079881735 -0.034510769
0.147515 0.0010828149 -0.035241965
0.12056342 -0.0068912786 -0.030880123
-0.02611593 -0.059798401 0.050936799
-0.02611593 -0.059798401 0.050936799
-0.02611593 -0.059798401 0.050936799
-0.02611593 -0.059798401 0.050936799
0.16258806 0.0059738597 -0.032434747
0.14950375 0.0030933875 -0.036243178
0.12453308 -0.0048697949 -0.032918576
0.10655025 -0.010840353 -0.030689131
-0.02611593 -0.059798401 0.050936799
-0.02611593 -0.059798401 0.050936799
-0.02611593 -0.059798401 0.050936799
-0.02611593 -0.059798401 0.050936799
0.13661757 -0.0019857297 -0.029091362
0.13345353 -0.00081233459 -0.038013924
0.11248606 -0.0077900421 -0.034746464
0.096491992 -0.011750027 -0.033518221
-0.02611593 -0.059798401 0.050936799
-0.02611593 -0.059798401 0.050936799
-0.02611593 -0.059798401 0.050936799
-0.02611593 -0.059798401 0.050936799
0.12056734 -0.0058914479 -0.030862108
0.11248998 -0.0067902114 -0.034728445
0.098495558 -0.010757375 -0.033537786
0.083501317 -0.014720952 -0.032328349
-0.02611593 -0.059798401 0.050936799
-0.02611593 -0.059798401 0.050936799
-0.02611593 -0.059798401 0.050936799
-0.02611593 -0.059798401 0.050936799
0.10555438 -0.0098369373 -0.030652322
0.10046168 -0.0097285472 -0.035556681
0.087467067 -0.013699295 -0.034384809
0.071529172 -0.017713552 -0.030157592
-0.02611593 -0.059798401 0.050936799
-0.02611593 -0.059798401 0.050936799
-0.02611593 -0.059798401 0.050936799
-0.02611593 -0.059798401 0.050936799
0.094525881 -0.012778858 -0.031499341
0.086467244 -0.013695707 -0.034366019
0.07942716 -0.01463424 -0.036251832
0.06154187 -0.019695409 -0.029006064
-0.02611593 -0.059798401 0.050936799
-0.02611593 -0.059798401 0.050936799
-0.02611593 -0.059798401 0.050936799
-0.02611593 -0.059798401 0.050936799
0.086463317 -0.01469554 -0.034384042
0.077442311 -0.015644979 -0.035232611
0.068440035 -0.016612507 -0.035081513
0.054520503 -0.020652032 -0.02989221
-0.02611593 -0.059798401 0.050936799
-0.02611593 -0.059798401 0.050936799
-0.02611593 -0.059798401 0.050936799
-0.02611593 -0.059798401 0.050936799
-0.02611593 -0.059798401 0.050936799
0.067455016 -0.017626839 -0.034081075
0.05844881 -0.019594196 -0.033947997
0.045533016 -0.022637477 -0.028759472
-0.02611593 -0.059798401 0.050936799
-0.02611593 -0.059798401 0.050936799
-0.02611593 -0.059798401 0.050936799
-0.02611593 -0.059798401 0.050936799
0.059549175 -0.022705812 -0.028022878
0.059429895 -0.019579697 -0.034966454
0.05437465 -0.019507485 -0.03787148
0.040511284 -0.023601275 -0.029683195
-0.02611593 -0.059798401 0.050936799
-0.02611593 -0.059798401 0.050936799
-0.02611593 -0.059798401 0.050936799
-0.02611593 -0.059798401 0.050936799
0.052546527 -0.023680521 -0.027909365
0.051423516 -0.021550648 -0.034852166
0.045424607 -0.021529112 -0.03473942
0.036459778 -0.022532821 -0.032588992
-0.02611593 -0.059798401 0.050936799
-0.02611593 -0.059798401 0.050936799
-0.02611593 -0.059798401 0.050936799
-0.02611593 -0.059798401 0.050936799
0.046524983 -0.024640724 -0.028814301
0.045401957 -0.022510855 -0.035757102
0.037455663 -0.023536243 -0.032625802
0.032404337 -0.022464199 -0.035512824
-0.02611593 -0.059798401 0.050936799
-0.02611593 -0.059798401 0.050936799
-0.02611593 -0.059798401 0.050936799
-0.02611593 -0.059798401 0.050936799
0.039499678 -0.026597176 -0.029718459
0.037433013 -0.024517979 -0.033643488
0.03338543 -0.0224497 -0.036531273
0.023506535 -0.025539922 -0.029399794
-0.02611593 -0.059798401 0.050936799
-0.02611593 -0.059798401 0.050936799
-0.02611593 -0.059798401 0.050936799
-0.02611593 -0.059798401 0.050936799
0.034481872 -0.026561141 -0.030624166
0.033377577 -0.024449358 -0.036567312
0.028382419 -0.023431586 -0.036455341
0.020450916 -0.025474887 -0.0323424
-0.02611593 -0.059798401 0.050936799
-0.02611593 -0.059798401 0.050936799
-0.02611593 -0.059798401 0.050936799
-0.02611593 -0.059798401 0.050936799
0.029460138 -0.027524939 -0.0315479
0.027359949 -0.024409734 -0.037454229
0.02237959 -0.024409879 -0.036360614
0.015433111 -0.025438854 -0.033248115
-0.02611593 -0.059798401 0.050936799
-0.02611593 -0.059798401 0.050936799
-0.02611593 -0.059798401 0.050936799
-0.02611593 -0.059798401 0.050936799
-0.02611593 -0.059798401 0.050936799
0.021390636 -0.026424039 -0.035378199
0.016395481 -0.025406264 -0.035266232
-0.02611593 -0.059798401 0.050936799
-0.02611593 -0.059798401 0.050936799
-0.02611593 -0.059798401 0.050936799
-0.02611593 -0.059798401 0.050936799
-0.02611593 -0.059798401 0.050936799
0.020401688 -0.028438203 -0.034395788
0.018320223 -0.025341086 -0.039302457
0.012343972 -0.024337811 -0.038172036
-0.02611593 -0.059798401 0.050936799
-0.02611593 -0.059798401 0.050936799
-0.02611593 -0.059798401 0.050936799
-0.02611593 -0.059798401 0.050936799
-0.02611593 -0.059798401 0.050936799
-0.02611593 -0.059798401 0.050936799
0.01138854 -0.027387982 -0.035208315
0.0073596835 -0.025337785 -0.037096437
-0.02611593 -0.059798401 0.050936799
-0.02611593 -0.059798401 0.050936799
-0.02611593 -0.059798401 0.050936799
-0.02611593 -0.059798401 0.050936799
-0.02611593 -0.059798401 0.050936799
-0.02611593 -0.059798401 0.050936799
0.006352013 -0.027333859 -0.037113681
-0.02611593 -0.059798401 0.050936799
-0.02611593 -0.059798401 0.050936799
-0.02611593 -0.059798401 0.050936799
-0.02611593 -0.059798401 0.050936799
-0.02611593 -0.059798401 0.050936799
-0.02611593 -0.059798401 0.050936799
-0.02611593 -0.059798401 0.050936799
-0.02611593 -0.059798401 0.050936799
-0.02611593 -0.059798401 0.050936799
-0.02611593 -0.059798401 0.050936799
-0.02611593 -0.059798401 0.050936799
-0.02611593 -0.059798401 0.050936799
-0.02611593 -0.059798401 0.050936799
-0.02611593 -0.059798401 0.050936799
-0.02611593 -0.059798401 0.050936799
-0.02611593 -0.059798401 0.050936799
-0.02611593 -0.059798401 0.050936799
-0.02611593 -0.059798401 0.050936799
-0.02611593 -0.059798401 0.050936799
-0.02611593 -0.059798401 0.050936799
-0.02611593 -0.059798401 0.050936799
-0.02611593 -0.059798401 0.050936799
-0.02611593 -0.059798401 0.050936799
-0.02611593 -0.059798401 0.050936799
-0.02611593 -0.059798401 0.050936799
-0.02611593 -0.059798401 0.050936799
-0.02611593 -0.059798401 0.050936799
-0.02611593 -0.059798401 0.050936799
-0.02611593 -0.059798401 0.050936799
-0.02611593 -0.059798401 0.050936799
-0.02611593 -0.059798401 0.050936799
-0.02611593 -0.059798401 0.050936799
-0.02611593 -0.059798401 0.050936799
-0.02611593 -0.059798401 0.050936799
-0.02611593 -0.059798401 0.050936799
-0.02611593 -0.059798401 0.050936799
-0.02611593 -0.059798401 0.050936799
-0.02611593 -0.059798401 0.050936799
-0.02611593 -0.059798401 0.050936799
-0.02611593 -0.059798401 0.050936799
-0.02611593 -0.059798401 0.050936799
-0.02611593 -0.059798401 0.050936799
-0.02611593 -0.059798401 0.050936799
-0.02611593 -0.059798401 0.050936799
-0.02611593 -0.059798401 0.050936799
-0.02611593 -0.059798401 0.050936799
-0.02611593 -0.059798401 0.050936799
-0.02611593 -0.059798401 0.050936799
-0.02611593 -0.059798401 0.050936799
-0.02611593 -0.059798401 0.050936799
-0.02611593 -0.059798401 0.050936799
-0.02611593 -0.059798401 0.050936799
-0.02611593 -0.059798401 0.050936799
-0.02611593 -0.059798401 0.050936799
-0.02611593 -0.059798401 0.050936799
-0.02611593 -0.059798401 0.050936799
-0.02611593 -0.059798401 0.050936799
-0.02611593 -0.059798401 0.050936799
-0.02611593 -0.059798401 0.050936799
-0.02611593 -0.059798401 0.050936799
-0.02611593 -0.059798401 0.050936799
-0.02611593 -0.059798401 0.050936799
-0.02611593 -0.059798401 0.050936799
-0.02611593 -0.059798401 0.050936799
-0.02611593 -0.059798401 0.050936799
-0.02611593 -0.059798401 0.050936799
-0.02611593 -0.059798401 0.050936799
-0.02611593 -0.059798401 0.050936799
-0.02611593 -0.059798401 0.050936799
-0.02611593 -0.059798401 0.050936799
-0.02611593 -0.059798401 0.050936799
-0.02611593 -0.059798401 0.050936799
-0.02611593 -0.059798401 0.050936799
-0.02611593 -0.059798401 0.050936799
-0.02611593 -0.059798401 0.050936799
-0.02611593 -0.059798401 0.050936799
-0.02611593 -0.059798401 0.050936799
-0.02611593 -0.059798401 0.050936799
-0.02611593 -0.059798401 0.050936799
-0.02611593 -0.059798401 0.050936799
-0.02611593 -0.059798401 0.050936799
-0.02611593 -0.059798401 0.050936799
-0.02611593 -0.059798401 0.050936799
-0.02611593 -0.059798401 0.050936799
-0.02611593 -0.059798401 0.050936799
-0.02611593 -0.059798401 0.050936799
-0.02611593 -0.059798401 0.050936799
-0.02611593 -0.059798401 0.050936799
-0.02611593 -0.059798401 0.050936799
-0.02611593 -0.059798401 0.050936799
-0.02611593 -0.059798401 0.050936799
-0.02611593 -0.059798401 0.050936799
-0.02611593 -0.059798401 0.050936799
-0.02611593 -0.059798401 0.050936799
-0.02611593 -0.059798401 0.050936799
-0.02611593 -0.059798401 0.050936799
-0.046678748 -0.023090061 -0.039044693
-0.02611593 -0.059798401 0.050936799
-0.02611593 -0.059798401 0.050936799
-0.02611593 -0.059798401 0.050936799
-0.02611593 -0.059798401 0.050936799
-0.02611593 -0.059798401 0.050936799
-0.02611593 -0.059798401 0.050936799
-0.02611593 -0.059798401 0.050936799
-0.050659291 -0.023093794 -0.037969872
-0.02611593 -0.059798401 0.050936799
-0.02611593 -0.059798401 0.050936799
-0.02611593 -0.059798401 0.050936799
-0.02611593 -0.059798401 0.050936799
-0.02611593 -0.059798401 0.050936799
-0.02611593 -0.059798401 0.050936799
-0.02611593 -0.059798401 0.050936799
-0.054635912 -0.022097697 -0.036877032
-0.02611593 -0.059798401 0.050936799
-0.02611593 -0.059798401 0.050936799
-0.02611593 -0.059798401 0.050936799
-0.02611593 -0.059798401 0.050936799
-0.02611593 -0.059798401 0.050936799
-0.02611593 -0.059798401 0.050936799
-0.02611593 -0.059798401 0.050936799
-0.058631249 -0.021083511 -0.036783852
-0.059570976 -0.020134361 -0.033748057
-0.02611593 -0.059798401 0.050936799
-0.02611593 -0.059798401 0.050936799
-0.02611593 -0.059798401 0.050936799
-0.02611593 -0.059798401 0.050936799
-0.02611593 -0.059798401 0.050936799
-0.062675819 -0.023032639 -0.038744044
-0.063630335 -0.021065567 -0.036689896
-0.063566312 -0.019120172 -0.033654876
-0.02611593 -0.059798401 0.050936799
-0.02611593 -0.059798401 0.050936799
-0.02611593 -0.059798401 0.050936799
-0.02611593 -0.059798401 0.050936799
-0.02611593 -0.059798401 0.050936799
-0.067652255 -0.022032952 -0.037632413
-0.068625495 -0.020047795 -0.036577929
-0.067509413 -0.019160084 -0.030580722
-0.02611593 -0.059798401 0.050936799
-0.02611593 -0.059798401 0.050936799
-0.02611593 -0.059798401 0.050936799
-0.02611593 -0.059798401 0.050936799
-0.02611593 -0.059798401 0.050936799
-0.070599467 -0.023076283 -0.034595076
-0.07463526 -0.01800851 -0.037428807
-0.071486033 -0.01816399 -0.029487889
-0.02611593 -0.059798401 0.050936799
-0.02611593 -0.059798401 0.050936799
-0.02611593 -0.059798401 0.050936799
-0.02611593 -0.059798401 0.050936799
-0.073535815 -0.026137359 -0.030594107
-0.076609232 -0.021036999 -0.035445955
-0.077597268 -0.018033922 -0.03537311
-0.074448034 -0.0181894 -0.027432192
-0.02611593 -0.059798401 0.050936799
-0.02611593 -0.059798401 0.050936799
-0.02611593 -0.059798401 0.050936799
-0.02611593 -0.059798401 0.050936799
-0.077516355 -0.026141094 -0.029519293
-0.084656082 -0.018954359 -0.038258579
-0.081559092 -0.018055744 -0.033298627
-0.08047653 -0.016132027 -0.029282734
-0.02611593 -0.059798401 0.050936799
-0.02611593 -0.059798401 0.050936799
-0.02611593 -0.059798401 0.050936799
-0.02611593 -0.059798401 0.050936799
-0.081474252 -0.025163086 -0.027426787
-0.088595256 -0.017994443 -0.035166413
-0.087550133 -0.016034549 -0.033149846
-0.086467579 -0.014110836 -0.029133957
-0.02611593 -0.059798401 0.050936799
-0.02611593 -0.059798401 0.050936799
-0.02611593 -0.059798401 0.050936799
-0.02611593 -0.059798401 0.050936799
-0.08848384 -0.023120217 -0.028258875
-0.094571508 -0.016991168 -0.034035992
-0.094559722 -0.01399168 -0.033981938
-0.093510687 -0.011031955 -0.031947352
-0.02611593 -0.059798401 0.050936799
-0.02611593 -0.059798401 0.050936799
-0.02611593 -0.059798401 0.050936799
-0.02611593 -0.059798401 0.050936799
-0.094478808 -0.02209885 -0.028128114
-0.10259571 -0.01392679 -0.035830937
-0.098498903 -0.013031757 -0.030889772
-0.099501729 -0.0090107638 -0.031798575
-0.02611593 -0.059798401 0.050936799
-0.02611593 -0.059798401 0.050936799
-0.02611593 -0.059798401 0.050936799
-0.02611593 -0.059798401 0.050936799
-0.10145096 -0.020092161 -0.026960883
-0.11163844 -0.010840731 -0.038606744
-0.1075229 -0.0099637909 -0.032665927
-0.02611593 -0.059798401 0.050936799
-0.02611593 -0.059798401 0.050936799
-0.02611593 -0.059798401 0.050936799
-0.02611593 -0.059798401 0.050936799
-0.02611593 -0.059798401 0.050936799
-0.11250812 -0.015981004 -0.030680757
-0.11654391 -0.010913231 -0.033514488
-0.11957597 -0.0048492178 -0.036348995
-0.11449806 -0.0039396877 -0.032426283
-0.02611593 -0.059798401 0.050936799
-0.02611593 -0.059798401 0.050936799
-0.02611593 -0.059798401 0.050936799
-0.02611593 -0.059798401 0.050936799
-0.12149469 -0.012949212 -0.030457586
-0.12554921 -0.0078633502 -0.034290977
-0.12350035 -0.0049072183 -0.032275185
-0.12147021 -0.0019329931 -0.031259052
-0.02611593 -0.059798401 0.050936799
-0.02611593 -0.059798401 0.050936799
-0.02611593 -0.059798401 0.050936799
-0.02611593 -0.059798401 0.050936799
-0.13148108 -0.0099138347 -0.030215628
-0.13351725 -0.0048532402 -0.033086941
-0.1365345 0.0001928506 -0.034939803
-0.12642792 -0.00095139979 -0.029147744
-0.02611593 -0.059798401 0.050936799
-0.02611593 -0.059798401 0.050936799
-0.02611593 -0.059798401 0.050936799
-0.02611593 -0.059798401 0.050936799
-0.14043413 -0.0079180514 -0.028011158
-0.14651787 -0.00078917632 -0.033770245
-0.14248811 0.0021778673 -0.032791696
-0.13541058 0.0030802195 -0.028906558
-0.02611593 -0.059798401 0.050936799
-0.02611593 -0.059798401 0.050936799
-0.02611593 -0.059798401 0.050936799
-0.02611593 -0.059798401 0.050936799
-0.15141641 -0.0038792542 -0.027732387
-0.15949586 0.0042566294 -0.033435877
-0.15142243 0.0041555618 -0.029587556
-0.14840727 0.0081441179 -0.029571854
-0.02611593 -0.059798401 0.050936799
-0.02611593 -0.059798401 0.050936799
-0.02611593 -0.059798401 0.050936799
-0.02611593 -0.059798401 0.050936799
-0.16236517 -0.00087646605 -0.025472306
-0.16541593 0.0052056373 -0.029306471
-0.16744819 0.011266059 -0.032159764
-0.15636049 0.010136312 -0.027386177
-0.02611593 -0.059798401 0.050936799
-0.02611593 -0.059798401 0.050936799
-0.02611593 -0.059798401 0.050936799
-0.02611593 -0.059798401 0.050936799
-0.18338607 0.0072518024 -0.02793254
-0.18442242 0.012308812 -0.030822646
-0.17837428 0.015250592 -0.028882012
-0.17336734 0.017232308 -0.028939925
-0.02611593 -0.059798401 0.050936799
-0.02611593 -0.059798401 0.050936799
-0.02611593 -0.059798401 0.050936799
-0.02611593 -0.059798401 0.050936799
-0.20938341 0.016379768 -0.029281151
-0.209416 0.022433013 -0.032172017
-0.19736204 0.022335678 -0.029398527
-0.18630786 0.022241933 -0.026606236
-0.02611593 -0.059798401 0.050936799
-0.02611593 -0.059798401 0.050936799
-0.02611593 -0.059798401 0.050936799
-0.02611593 -0.059798401 0.050936799
-0.23031069 0.024417594 -0.026743066
-0.22936222 0.030485338 -0.0306524
-0.22135583 0.032456297 -0.030766688
-0.20628761 0.031330276 -0.027067911
-0.02611593 -0.059798401 0.050936799
-0.02611593 -0.059798401 0.050936799
-0.02611593 -0.059798401 0.050936799
-0.02611593 -0.059798401 0.050936799
-0.26026201 0.035523392 -0.025981151
-0.25027472 0.037505254 -0.027132683
-0.2412833 0.040490527 -0.028247412
-0.22824824 0.040407695 -0.026492354
-0.02611593 -0.059798401 0.050936799
-0.02611593 -0.059798401 0.050936799
-0.02611593 -0.059798401 0.050936799
-0.02611593 -0.059798401 0.050936799
-0.97284788 0.32271394 -0.21150753
-0.96206695 0.34396029 -0.22733042
-0.26919752 0.05155297 -0.025523737
-0.25821432 0.052531414 -0.026712082
-0.98544049 0.32538018 -0.19021633
-0.97168279 0.34563407 -0.20711327
-0.02611593 -0.059798401 0.050936799
-0.02611593 -0.059798401 0.050936799
-0.99299669 0.32799235 -0.16701974
-0.97425169 0.34522882 -0.18406466
-0.9815523 0.37364712 -0.20542118
-0.94970614 0.38371146 -0.21583888
-1.0035671 0.33163318 -0.14474843
-0.99186903 0.35094863 -0.16462478
-0.98011482 0.37020987 -0.18150213
-0.96135509 0.38642839 -0.19756544
-1.0211656 0.33733499 -0.12430886
-1.0014623 0.35360417 -0.14338994
-1.0017612 0.37797996 -0.16395038
-0.98002845 0.39220616 -0.18110573
-1.0307175 0.34095412 -0.10105669
-1.0230711 0.36133811 -0.12383883
-0.99834293 0.37455365 -0.14106861
-0.98764473 0.39387274 -0.16092616
-1.0402694 0.34457332 -0.077804498
-1.0306458 0.36396831 -0.10164192
-1.022962 0.38431609 -0.12242475
-1.0042851 0.39860731 -0.14252272
-1.0588266 0.35124236 -0.055328801
-1.0372024 0.36657685 -0.078464121
-1.0345548 0.38697875 -0.10115233
-1.0189068 0.40331659 -0.12315722
-1.0643643 0.35382923 -0.03117013
-1.0617878 0.3753033 -0.057838976
-1.0441442 0.39063412 -0.079899468
-1.0294999 0.40597567 -0.1019036
-1.0878862 0.36449742 -0.0075287595
-1.0783266 0.38194704 -0.034401193
-1.0587246 0.39630705 -0.058516607
-1.044103 0.41066685 -0.081538416
-1.0964006 0.36807683 0.017703969
-1.0818648 0.38452679 -0.010280117
-1.0762858 0.40197265 -0.03607773
-1.059702 0.41636151 -0.061136439
-1.1089027 0.37467009 0.043065902
-1.1043947 0.39319175 0.013306446
-1.0878522 0.40661693 -0.013769604
-1.0572836 0.41293877 -0.038235866
-0.02611593 -0.059798401 0.050936799
-1.1159194 0.39879966 0.037631907
-1.0993997 0.41124308 0.0095381811
-1.0808656 0.42266142 -0.017611496
-1.1528758 0.39492357 0.094272912
-1.12543 0.40338245 0.06290143
-1.1009461 0.41181597 0.033585645
-1.0864259 0.42426661 0.0055294931
-0.02611593 -0.059798401 0.050936799
-1.1379547 0.40899396 0.087245688
-1.1244531 0.42146623 0.058208667
-1.0899907 0.42486471 0.028614886
-1.1867464 0.41303295 0.15125397
-1.1474425 0.4145585 0.11353289
-1.1210231 0.42103943 0.081144497
-1.1075293 0.43151206 0.052071445
-0.02611593 -0.059798401 0.050936799
-1.1668942 0.42414019 0.14107974
-1.1405159 0.42965749 0.10667401
-0.02611593 -0.059798401 0.050936799
-0.02611593 -0.059798401 0.050936799
-0.02611593 -0.059798401 0.050936799
-1.1629857 0.43926799 0.13327757
-1.1435797 0.44679201 0.10003906
-0.02611593 -0.059798401 0.050936799
-1.220692 0.45028386 0.20058006
-0.02611593 -0.059798401 0.050936799
-0.02611593 -0.059798401 0.050936799
-1.2373751 0.44506478 0.27182215
-1.2380879 0.45980406 0.23108831
-1.2128297 0.46343383 0.19066736
-1.196502 0.47004104 0.15346858
-0.02611593 -0.059798401 0.050936799
-1.2654247 0.47432312 0.26387388
-1.1983799 0.45893201 0.21532375
-1.1770875 0.46154007 0.17695928
-0.02611593 -0.059798401 0.050936799
-1.2708384 0.47980094 0.29408455
-1.2536309 0.48451352 0.25083297
-0.02611593 -0.059798401 0.050936799
-1.3390353 0.50040227 0.38676548
-1.3160281 0.50227475 0.33335045
-1.2570528 0.48798448 0.28097004
-0.02611593 -0.059798401 0.050936799
-1.3900733 0.52777022 0.43323183
-1.3243772 0.50970876 0.36665252
-1.305257 0.51148701 0.31931069
-1.267194 0.50421667 0.27045
-1.6296833 0.63777471 0.54174465
-1.3684883 0.53310639 0.40991634
-1.3225925 0.52195281 0.35283595
-1.2935351 0.51773232 0.30319872
-1.6130309 0.63708419 0.57643211
-1.5982842 0.6392386 0.5091722
-1.3538045 0.53937715 0.39174873
-1.317843 0.53020477 0.33789122
-1.5933791 0.63638288 0.61106324
-1.5846275 0.63955867 0.54393411
-1.5290233 0.62162358 0.4725444
-1.3282142 0.53666431 0.37021318
-1.5786998 0.63768113 0.646824
-1.5719517 0.63986415 0.57971442
-1.5571234 0.63892859 0.51739877
-1.5173881 0.62494171 0.45237976
-1.5580896 0.63601255 0.67941898
-1.552364 0.63721746 0.61131048
-1.5534196 0.64124799 0.55438387
-1.5475066 0.64227206 0.49627203
-1.5344986 0.63435131 0.71095794
-1.5317804 0.63356739 0.64286983
-1.5378311 0.63861573 0.5860551
-1.5378757 0.64062494 0.53007334
-1.5099304 0.63170481 0.74146038
-1.5171424 0.63390195 0.67661321
-1.5192429 0.63597256 0.61767006
-1.5272636 0.63899231 0.5628562
-1.491308 0.63304287 0.77414703
-1.4995277 0.63324398 0.70928258
-1.5076083 0.6353181 0.65145183
-1.5206015 0.64033723 0.59776765
-1.4677544 0.63141787 0.80368668
-1.4799546 0.63161522 0.73989707
-1.495966 0.63666332 0.68526965
-1.507971 0.63867939 0.6315127
-1.4412242 0.62880033 0.83215225
-1.4633318 0.6329605 0.77262121
-1.4773966 0.63403821 0.71588486
-1.4953594 0.63703954 0.664258
-1.4226205 0.63015652 0.86383921
-1.4408007 0.63035733 0.801162
-1.4637772 0.63439447 0.74864745
-1.4827474 0.6353997 0.69700325
-1.3971047 0.62856048 0.89134192
-1.420228 0.62872493 0.83175766
-1.4461852 0.63275474 0.78029913
-1.4661781 0.63278186 0.72765613
-1.3646957 0.62403029 0.91366076
-1.4026428 0.63010287 0.86246377
-1.4305849 0.63312191 0.81202447
-1.4594746 0.63509053 0.7645849
-1.3431525 0.62443012 0.94227433
-1.3771497 0.62752503 0.8889488
-1.4149659 0.63347101 0.84474939
-1.4419012 0.63346893 0.79523683
-1.3196287 0.62484086 0.96985078
-1.3615268 0.62887394 0.92169183
-1.3914576 0.62988245 0.87225366
-1.4253088 0.63183278 0.82690734
-1.2931465 0.62427729 0.99535334
-1.3360298 0.62729603 0.94819486
-1.3748575 0.63024604 0.90396023
-1.4146476 0.63316345 0.86174363
-1.2676644 0.62371725 1.0208747
-1.3125323 0.62572521 0.97473556
-1.3523451 0.62766093 0.93150127
-1.3921204 0.62956041 0.89026642
-1.2392428 0.62220091 1.0433228
-1.2909894 0.6261251 1.0033492
-1.335741 0.62902427 0.96322584
-1.3755243 0.62892419 0.92195487
-1.2127982 0.62167341 1.0668261
-1.2635528 0.62359434 1.0267975
-1.3122289 0.62643564 0.99074817
-1.3599052 0.62927324 0.95467985
-1.1824185 0.61918628 1.0872192
-1.2380933 0.62205255 1.0513014
-1.2906898 0.62583566 1.0193437
-1.3383739 0.62667364 0.98323935
-1.1549928 0.61867332 1.1097041
-1.2155877 0.62248504 1.0778967
-1.2691694 0.6252538 1.0469396
-1.3178198 0.62505931 1.0128354
-1.1266086 0.6171931 1.1301528
-1.1881474 0.62095416 1.1013634
-1.2466493 0.62466836 1.0745167
-1.2982429 0.62443036 1.0434678
-1.1001788 0.61768365 1.1526746
-1.156813 0.6164999 1.1197022
-1.2231479 0.62409741 1.1010753
-1.2816201 0.62577569 1.0761921
-1.067897 0.61427981 1.1680138
-1.1323454 0.61696136 1.1442608
-1.1947342 0.62058133 1.1234874
-1.2531729 0.62122363 1.1005855
-1.0424818 0.61579174 1.1895726
-1.1069006 0.61643749 1.1677829
-1.1682748 0.61903602 1.1479723
-1.2306567 0.61963838 1.1281446
-1.0131314 0.61534399 1.2080213
-1.0765582 0.61398649 1.1861768
-1.1428339 0.61751235 1.1714765
-1.2110531 0.62099093 1.1598127
-0.98184526 0.61294365 1.2233971
-1.0511284 0.61448056 1.2087173
-1.1203059 0.61892647 1.1990896
-1.1806625 0.61648607 1.1811694
-0.95544899 0.61447012 1.2439376
-1.0276339 0.61692721 1.2343303
-1.0938426 0.61838096 1.2235925
-1.1590819 0.61684978 1.2117823
-0.92222351 0.61111706 1.2562591
-0.99243921 0.61058557 1.2455605
-1.0683792 0.61783898 1.2481143
-1.1326039 0.61528629 1.2372669
-0.89390635 0.61170888 1.2727451
-0.96504712 0.61110854 1.2660639
-1.0399762 0.6163407 1.2695627
-1.1080841 0.61469364 1.2648064
-0.86559319 0.61130083 1.2892133
-0.93471956 0.60967553 1.2834761
-1.0105736 0.6148389 1.2909924
-1.0825831 0.61411548 1.2913275
-0.83627629 0.61188912 1.3056806
-0.90832317 0.61120194 1.3040165
-0.98316669 0.614344 1.3124775
-1.0521659 0.61159211 1.3137199
-0.80312562 0.60860842 1.3140033
-0.87897277 0.61075413 1.3224652
-0.95478249 0.61286378 1.3329263
-1.0266796 0.612032 1.3392594
-0.77291036 0.60728383 1.3254176
-0.84870535 0.60837555 1.3368604
-0.92539465 0.61237985 1.3533742
-0.99919784 0.61146474 1.3647432
-0.74071419 0.6059702 1.3357946
-0.81936973 0.60894567 1.3543273
-0.89404851 0.61092514 1.3717673
-0.96685976 0.60800672 1.3830814
-0.70955914 0.60369653 1.344173
-0.78909832 0.60756683 1.3687406
-0.86276257 0.60852474 1.3871431
-0.93741572 0.60746849 1.4065284
-0.67838156 0.60240448 1.3535691
-0.75784183 0.60720235 1.3821533
-0.83141643 0.60707003 1.4055363
-0.90894884 0.60791558 1.4310118
-0.64818114 0.60209787 1.3640016
-0.7275703 0.60582352 1.3965665
-0.80300176 0.60857117 1.4270388
-0.87852365 0.60739189 1.4534403
-0.61797678 0.60279107 1.3744521
-0.69248015 0.60159004 1.4018346
-0.77071196 0.60716707 1.442414
-0.84520054 0.60494816 1.4707781
-0.58971584 0.60343713 1.3879393
-0.66411775 0.60414535 1.4203562
-0.73944074 0.60578465 1.4568084
-0.81475288 0.60540622 1.4942243
-0.55761325 0.60221398 1.3933181
-0.63194036 0.60284978 1.4297335
-0.70712829 0.60536236 1.4732013
-0.78046727 0.6029951 1.509544
-0.52649182 0.60097623 1.3997151
-0.60070258 0.60250342 1.4421465
-0.67487592 0.60399437 1.4865774
-0.74812132 0.60153675 1.5279182
-0.49540776 0.5997746 1.4041128
-0.5685665 0.60024416 1.4495065
-0.64160109 0.60360461 1.5009521
-0.71668857 0.6030091 1.5503639
-0.46624064 0.60050762 1.4125829
-0.53638512 0.59994841 1.4589019
-0.60934484 0.6032365 1.5143461
-0.68142194 0.60061246 1.5646651
-0.43417948 0.59832072 1.4159442
-0.50516224 0.60061997 1.4703332
-0.57419068 0.60094851 1.5226493
-0.64519304 0.59824848 1.5769482
-0.40503109 0.59907174 1.4234146
-0.47396198 0.60030973 1.480747
-0.54287016 0.60252929 1.5390971
-0.61185813 0.5988043 1.5943401
-0.37492424 0.59885556 1.4288487
-0.43996125 0.59717011 1.4810537
-0.5067988 0.59831035 1.5433468
-0.57560647 0.597422 1.6076409
-0.34483218 0.59965736 1.4333014
-0.40967408 0.59979063 1.4955389
-0.47352013 0.59892046 1.5577396
-0.53935498 0.59603971 1.6209416
-0.31380439 0.59851003 1.4347003
-0.37659046 0.59858191 1.4998991
-0.43933913 0.59861755 1.5670975
-0.50312203 0.59467548 1.6332427
-0.28371623 0.5983119 1.4391348
-0.34444258 0.5993222 1.5073131
-0.40609393 0.6002636 1.5795089
-0.46874204 0.59719127 1.6526511
-0.25270709 0.59718275 1.4395339
-0.31238145 0.59713525 1.5106745
-0.37007877 0.5960989 1.5807598
-0.43160689 0.59491402 1.6599171
-0.22452798 0.60091883 1.448077
-0.28025231 0.59789366 1.5170888
-0.33591646 0.59581399 1.5891179
-0.3953701 0.59454966 1.6722363
-0.19268456 0.59593141 1.4403878
-0.24718344 0.59770286 1.5204674
-0.30176902 0.59654713 1.5964943
-0.35720852 0.59425044 1.6805191
-0.16267134 0.59580564 1.4408238
-0.21507303 0.59847933 1.5258821
-0.26570857 0.59434593 1.5997804
-0.3181299 0.59202045 1.6847486
-0.13268074 0.59469819 1.4402421
-0.18206428 0.59734291 1.5262437
-0.23062135 0.59412986 1.604121
-0.28090808 0.59267038 1.6960673
-0.10358067 0.59750307 1.4447496
-0.14907423 0.59622461 1.5256056
-0.19547406 0.59485936 1.6114787
-0.2428066 0.59142566 1.7013333
-0.073728979 0.5945226 1.4371341
-0.11702 0.59705544 1.5280213
-0.16042426 0.59467947 1.61382
-0.20460369 0.59209013 1.7116334
-0.044711642 0.59540027 1.4376068
-0.084131435 0.59402794 1.5223488
-0.12441606 0.59353238 1.6141251
-0.16559994 0.58993244 1.7118642
-0.014818605 0.59338337 1.4320087
-0.05209985 0.5938769 1.5237468
-0.089388952 0.59237075 1.6154488
-0.12753202 0.58972371 1.7151488
0.013511186 0.60199195 1.4476393
-0.020083053 0.59474379 1.5241631
-0.053418193 0.5912599 1.6137546
-0.087528467 0.58756238 1.7153609
0.042118728 0.59423298 1.4279568
0.011850993 0.59368336 1.5205449
-0.018345775 0.5920617 1.6171137
-0.048456788 0.58834988 1.7186447
0.072388053 0.60188872 1.4405328
0.043785043 0.59262305 1.5169266
0.016546354 0.59002686 1.6114217
-0.0094678532 0.58721012 1.7178938
0.099894308 0.59222406 1.4158347
0.075723022 0.59256244 1.5133264
0.051539946 0.58990121 1.610764
0.028543919 0.58705568 1.7181795
0.10330831 0.48722968 1.1917956
0.10761963 0.59153819 1.5077087
0.086514823 0.58979374 1.6091067
0.067551576 0.58589768 1.7184283
0.15796342 0.59796065 1.4178519
0.10553499 0.45890167 1.2092474
0.12245206 0.58971876 1.6054312
0.10652572 0.58577585 1.7166958
0.18459399 0.59119046 1.3992245
0.17041694 0.59049314 1.4965104
-0.02611593 -0.059798401 0.050936799
0.14537966 0.58376288 1.7089293
0.21574686 0.59795147 1.4057657
0.20340005 0.5923925 1.4949265
0.19328928 0.58960867 1.5960997
-0.02611593 -0.059798401 0.050936799
0.24138154 0.59218478 1.3871752
0.23430076 0.59237164 1.4893458
0.22820801 0.58955544 1.5914435
0.2254369 0.58742076 1.710497
0.27149323 0.59798563 1.3917178
0.26620522 0.59334707 1.4837642
0.25978145 0.58282167 1.5697231
0.26211485 0.58357811 1.6937352
0.296132 0.59322232 1.3731642
0.29708722 0.59334439 1.4771837
0.29795182 0.58953935 1.5771326
0.26431805 0.51195198 1.5053344
0.32726616 0.60000139 1.3787057
0.32682654 0.59047234 1.4635702
0.33181056 0.58854419 1.569478
0.33987591 0.58351523 1.6802735
0.34975857 0.59137255 1.35312
0.35773116 0.59145135 1.4580075
0.36553439 0.58667564 1.5548078
0.37663662 0.58159989 1.6675464
0.38085526 0.59818774 1.356662
0.38856095 0.59250277 1.4484462
0.39937842 0.58669835 1.5461718
0.41652483 0.58356452 1.6608328
0.40445283 0.59246445 1.3361098
0.4183042 0.59063059 1.4348508
0.43422616 0.58771729 1.5375348
0.45537183 0.5845691 1.6521208
0.43232453 0.59449023 1.3286221
0.45019385 0.59262395 1.4282875
0.4679952 0.58781236 1.5249
0.48999399 0.58078784 1.6323974
0.45600876 0.591694 1.3121226
0.4789412 0.59175515 1.414729
0.50076061 0.5869112 1.5122659
0.52778107 0.58085042 1.620687
0.48602685 0.59758532 1.311667
0.50660604 0.58896267 1.3971546
0.53354859 0.58699173 1.5006495
0.56663203 0.58285481 1.611993
-0.02611593 -0.059798401 0.050936799
-0.02611593 -0.059798401 0.050936799
-0.02611593 -0.059798401 0.050936799
-0.02611593 -0.059798401 0.050936799
0.53652281 0.595873 1.2846812
0.52641106 0.54784471 1.288003
0.46898067 0.45304844 1.177326
0.41031885 0.36149034 1.0537261
0.56020719 0.59307677 1.2681817
0.58242536 0.57877362 1.3355299
0.57421958 0.53082854 1.3338156
0.5669387 0.48295227 1.328084
0.58910912 0.59808034 1.261729
0.61955154 0.58854866 1.340013
0.66135633 0.58565056 1.4362106
0.70724237 0.57964832 1.5372772
0.60969251 0.59338576 1.2402514
0.65140766 0.59157801 1.3314686
0.69100994 0.58486873 1.417635
0.74398124 0.58176845 1.5226226
0.63757199 0.59741122 1.2327998
0.67081088 0.5840503 1.3009588
0.72270453 0.58504331 1.401039
0.77759665 0.58100832 1.5019724
0.6529907 0.58887988 1.2033466
0.70271236 0.58904308 1.2944496
0.75238067 0.58524317 1.3834811
0.80915236 0.57930982 1.478343
0.68291527 0.59486163 1.1978927
0.73041159 0.59023184 1.2779468
0.78097826 0.58451915 1.3619252
0.84277552 0.58054948 1.457729
0.7035439 0.59213048 1.1784505
0.75504339 0.58848614 1.2584475
0.80959857 0.58477682 1.3413872
0.87533891 0.58084708 1.4341166
0.73238975 0.59718835 1.1689987
0.78068292 0.58873653 1.2389654
0.84023708 0.58500928 1.321811
0.90587997 0.58017009 1.4095242
0.74993616 0.59254062 1.1455781
0.80221385 0.58509243 1.214488
0.86885738 0.58526701 1.3012729
0.93638366 0.57952935 1.3829325
0.77673703 0.59564221 1.1341287
0.8288945 0.58630282 1.1970046
0.89852273 0.58748448 1.2827513
0.9689883 0.58079064 1.3613377
0.7953099 0.59297252 1.1117251
0.85355294 0.58653873 1.1785408
0.92510593 0.5877856 1.2602515
1.0005745 0.58207357 1.3387617
0.82007372 0.59611738 1.0983137
0.87717801 0.58781421 1.1581147
0.95062524 0.58614486 1.2347354
1.0249777 0.57954514 1.3072485
0.83966506 0.59342599 1.0768909
0.90181774 0.58806819 1.1386514
0.97721225 0.58744574 1.2122533
1.0534668 0.57992947 1.2797126
0.86441022 0.59658903 1.0624801
0.92235672 0.58642733 1.1142288
1.0037581 0.58778298 1.1877543
1.0860419 0.58322656 1.2561544
0.88298696 0.59491915 1.0400944
0.94389945 0.58578259 1.0898055
1.0252219 0.58621085 1.1593143
1.1104717 0.58267963 1.2256768
0.90262753 0.59519106 1.020725
0.97367018 0.5909093 1.0763363
1.0548537 0.58946449 1.1388113
1.1379424 0.58308566 1.1971601
0.92120433 0.59352118 0.99833941
0.98910856 0.58737713 1.0469733
1.0753218 0.58889574 1.1104083
1.1593126 0.581604 1.1637219
0.94695318 0.59768045 0.98392773
1.0168195 0.59156531 1.0305248
1.0988266 0.58828014 1.0839481
1.1857874 0.58301342 1.1352421
0.96044809 0.59410119 0.95760137
1.032258 0.5880332 1.0011619
1.121321 0.5896858 1.056543
1.2102213 0.58346641 1.1047825
0.99026412 0.60119128 0.94616753
1.0619953 0.5941959 0.9857114
1.1407703 0.58913881 1.0271591
1.2326179 0.58396268 1.0723611
0.99665099 0.59372824 0.91490233
1.0713332 0.58877599 0.95142686
1.1622421 0.58956629 0.99875522
1.2560409 0.58643699 1.0409566
1.0223851 0.5989055 0.89950895
1.0908803 0.58913839 0.92705923
1.1877958 0.59190679 0.97431076
1.2794601 0.58791143 1.0095342
1.0307982 0.59341687 0.86924183
1.1104273 0.58950073 0.90269148
1.2052082 0.59140313 0.94296509
1.2998571 0.58841491 0.9771505
1.0544912 0.59763753 0.85186881
1.1279372 0.58990645 0.87636209
1.2236617 0.59185952 0.91361785
1.3182172 0.58896172 0.94280493
1.0690312 0.5960182 0.82755899
1.1454659 0.59029406 0.85103232
1.2400743 0.59135944 0.8822909
1.3365958 0.58949047 0.90945917
1.0896609 0.59830427 0.80720723
1.1629758 0.59069985 0.82470292
1.2605541 0.59379023 0.85394186
1.3518962 0.58910257 0.87215298
1.1041861 0.59770286 0.78191578
1.1835303 0.59305823 0.80035251
1.2769893 0.59427184 0.82363254
1.3723011 0.59160566 0.83980531
1.1237971 0.60001063 0.76058316
1.1959811 0.59253627 0.7711001
1.295432 0.59674603 0.79332173
1.3906837 0.59313422 0.80647749
1.1363001 0.59843463 0.7343117
1.2114539 0.59298539 0.74280894
1.3068041 0.59530026 0.7600714
1.4050108 0.59473145 0.77022588
1.1569188 0.60273844 0.71299624
1.2259457 0.59341997 0.71553618
1.3212022 0.59582525 0.72780043
1.4163082 0.59335804 0.73297691
1.1643775 0.59921688 0.68478334
1.2404187 0.59387261 0.68726379
1.335623 0.597332 0.69654703
1.4316577 0.59593338 0.69772416
1.1849735 0.60253894 0.66245019
1.2579365 0.59627801 0.66097039
1.3480176 0.5968644 0.66429555
1.4409592 0.59556699 0.66053075
1.1904136 0.59904271 0.63327527
1.2703912 0.59675592 0.63173598
1.3644419 0.5993638 0.63302273
1.4553092 0.5981459 0.62529671
1.2180655 0.60730261 0.61290008
1.2818272 0.59725547 0.60152072
1.3707775 0.5979721 0.59786701
1.4646145 0.59877932 0.58812141
1.2204797 0.60183549 0.58274573
1.2932822 0.59773707 0.57230502
1.3821614 0.59952581 0.56467074
1.4719014 0.59943801 0.54998398
1.2430873 0.60814995 0.56042916
1.3077631 0.60018939 0.54406863
1.3905418 0.60009044 0.5315128
1.4812109 0.60107124 0.51282662
1.2394384 0.60075903 0.52735251
1.3181993 0.60069257 0.51387215
1.4039481 0.60261869 0.49929661
1.4855133 0.60072279 0.4757272
1.2570014 0.60512781 0.50309449
1.3276358 0.60119933 0.4836944
1.4133135 0.60419768 0.4651382
1.4898009 0.60139221 0.43764612
1.2604234 0.60165685 0.47295743
1.3360726 0.60170972 0.45353547
1.4136462 0.60182774 0.43007722
1.4971107 0.60303259 0.40052634
1.2870418 0.61095643 0.45061973
1.3434906 0.60224181 0.42239565
1.4270564 0.60535586 0.39787906
1.501421 0.60468376 0.36346295
1.2814124 0.60355455 0.41858038
1.3478827 0.60080302 0.39027649
1.4334226 0.60694551 0.3637771
1.4584888 0.58566999 0.31790739
1.3049901 0.61190122 0.39428169
1.3563272 0.60331309 0.36015362
1.4226854 0.6006701 0.32585174
1.128253 0.44253621 0.22947116
1.3033901 0.6074664 0.36322087
1.3647492 0.60484135 0.32901299
1.1295904 0.46629333 0.2428804
1.1317506 0.44401005 0.20242317
1.3219194 0.61286765 0.33696276
1.343024 0.59157026 0.29316756
1.1300846 0.46677816 0.21587077
1.0177885 0.39518389 0.16165981
1.31832 0.60844004 0.30593956
1.1313995 0.48955363 0.22826232
1.0733336 0.44061697 0.1814484
0.78455043 0.29488403 0.11719726
1.2694886 0.58132255 0.2673502
1.1369381 0.49198398 0.20319411
0.80688798 0.31956568 0.13022992
0.77516192 0.29127878 0.097301073
1.1182362 0.5048148 0.21678096
0.99688762 0.42427242 0.16157728
0.74733949 0.29221633 0.10684219
0.74171972 0.27777946 0.076676026
1.1157341 0.50129294 0.19075528
0.73151571 0.29812798 0.11524823
0.76002753 0.29949409 0.088730134
0.74739742 0.28208289 0.058641456
0.83418298 0.36233485 0.137495
0.72516805 0.29547566 0.097313017
0.74464709 0.29289281 0.069892302
0.7741065 0.29530936 0.040374454
0.71741074 0.30430385 0.10862178
0.72084266 0.29379785 0.080357909
0.74533254 0.29419655 0.052897293
0.77676201 0.29864177 0.021378577
0.71610361 0.30259722 0.092609957
0.71151024 0.29013836 0.063460708
0.74401444 0.29450765 0.035921846
0.76739603 0.2960183 0.0025000758
0.7228145 0.30586097 0.0765379
0.73022383 0.29937613 0.046271611
0.7426815 0.29583666 0.017964754
0.76704818 0.29836166 -0.01645745
0.72549963 0.30715761 0.05950531
0.73393148 0.30165088 0.030237913
0.74234843 0.29716212 -1.1131167e-05
0.75269806 0.2947382 -0.034260351
0.72820342 0.30843607 0.043472379
0.72960603 0.29997307 0.013282798
0.73600477 0.29550958 -0.017928321
0.74736202 0.29508173 -0.052160304
0.72990346 0.30871829 0.02744022
0.73429865 0.30326214 -0.0037513375
0.73667538 0.29783124 -0.035904977
0.75500965 0.30141371 -0.072195746
0.72958517 0.30902582 0.010445982
0.73897243 0.30656931 -0.021785133
0.7433567 0.30313089 -0.053940322
0.7396971 0.29775771 -0.087980539
0.7372812 0.31330392 -0.0066265091
0.74465406 0.31187251 -0.03980168
0.74501246 0.30646691 -0.072917394
0.75133318 0.30609316 -0.10905474
0.73295575 0.31162617 -0.023581624
0.74532074 0.31319439 -0.057796363
0.74867564 0.31179538 -0.091896042
0.75596261 0.31245404 -0.13003346
0.74163669 0.31691858 -0.04165455
0.75198328 0.31851208 -0.076831356
0.75632316 0.31812742 -0.11193147
0.66786301 0.27374035 -0.12708332
0.75031775 0.32221109 -0.059727468
0.75664634 0.32383701 -0.095828786
0.75597531 0.32047078 -0.130889
0.64363003 0.26602679 -0.13777275
0.74698126 0.32254744 -0.077664994
0.75330991 0.32417336 -0.11376631
0.69977897 0.29678437 -0.13626714
0.5855425 0.24123919 -0.13713336
0.7516551 0.3258546 -0.095698789
0.7599538 0.32950914 -0.13380097
0.62670016 0.26401579 -0.13349071
-0.02611593 -0.059798401 0.050936799
0.75431454 0.33018681 -0.11467665
0.75461769 0.3298527 -0.15170091
0.59253913 0.2502487 -0.13910206
0.20976892 0.058814265 -0.03336259
0.75796992 0.33351567 -0.13369131
0.62471628 0.26802227 -0.13338107
-0.02611593 -0.059798401 0.050936799
-0.02611593 -0.059798401 0.050936799
0.75262988 0.33285937 -0.15160927
-0.02611593 -0.059798401 0.050936799
0.21475017 0.06383165 -0.035365772
0.17273548 0.043931514 -0.031937953
0.62372434 0.27002555 -0.13332623
-0.02611593 -0.059798401 0.050936799
-0.02611593 -0.059798401 0.050936799
-0.02611593 -0.059798401 0.050936799
0.59155893 0.25525147 -0.13899317
-0.02611593 -0.059798401 0.050936799
0.17772764 0.046931151 -0.032977514
0.15267028 0.036040831 -0.033705607
-0.02611593 -0.059798401 0.050936799
0.19474114 0.055886697 -0.03413444
-0.02611593 -0.059798401 0.050936799
-0.02611593 -0.059798401 0.050936799
0.20679602 0.060806595 -0.032270513
-0.02611593 -0.059798401 0.050936799
0.15268901 0.036022741 -0.032705955
0.13166142 0.028099464 -0.0324555
-0.02611593 -0.059798401 0.050936799
0.16371056 0.041982248 -0.032804538
-0.02611593 -0.059798401 0.050936799
-0.02611593 -0.059798401 0.050936799
0.17574671 0.046920236 -0.031940266
-0.02611593 -0.059798401 0.050936799
0.1306764 0.02708514 -0.031455062
0.11562206 0.022176001 -0.033262614
-0.02611593 -0.059798401 0.050936799
0.14267512 0.032059312 -0.032590121
-0.02611593 -0.059798401 0.050936799
-0.02611593 -0.059798401 0.050936799
0.1517079 0.036008243 -0.031687498
-0.02611593 -0.059798401 0.050936799
0.11367074 0.020129256 -0.030262094
0.09963493 0.015198437 -0.031088777
-0.02611593 -0.059798401 0.050936799
0.12366588 0.024110772 -0.031377584
-0.02611593 -0.059798401 0.050936799
-0.02611593 -0.059798401 0.050936799
0.13267995 0.028077789 -0.031474624
-0.02611593 -0.059798401 0.050936799
0.09963493 0.015198437 -0.031088777
0.085636586 0.01023144 -0.029916141
-0.02611593 -0.059798401 0.050936799
0.10864508 0.018165629 -0.031203836
-0.02611593 -0.059798401 0.050936799
-0.02611593 -0.059798401 0.050936799
0.11268179 0.018115096 -0.029279679
-0.02611593 -0.059798401 0.050936799
0.089602329 0.011253093 -0.031972613
0.074622884 0.0062715951 -0.02978152
-0.02611593 -0.059798401 0.050936799
0.09263923 0.011206148 -0.030029658
-0.02611593 -0.059798401 0.050936799
-0.02611593 -0.059798401 0.050936799
0.097660966 0.012169945 -0.029105932
-0.02611593 -0.059798401 0.050936799
0.0756227 0.0062680063 -0.029800311
0.067578867 0.0043332418 -0.031685352
-0.02611593 -0.059798401 0.050936799
0.081625529 0.0072463108 -0.029895034
-0.02611593 -0.059798401 0.050936799
-0.02611593 -0.059798401 0.050936799
0.086647272 0.0082101077 -0.028971307
-0.02611593 -0.059798401 0.050936799
0.067593664 0.0033153221 -0.030703701
0.05955375 0.0023803809 -0.032570712
