# .PCD v0.7 - Point Cloud Data file format
VERSION 0.7
FIELDS x y z
SIZE 4 4 4
TYPE F F F
COUNT 1 1 1
WIDTH 1361
HEIGHT 1
VIEWPOINT 0 0 0 1 0 0 0
POINTS 1361
DATA ascii
-0.02611593 -0.059798401 0.050936799
-0.033424385 0.0087312236 -0.031714749
-0.02611593 -0.059798401 0.050936799
-0.02611593 -0.059798401 0.050936799
-0.02611593 -0.059798401 0.050936799
-0.02611593 -0.059798401 0.050936799
-0.02611593 -0.059798401 0.050936799
-0.02611593 -0.059798401 0.050936799
-0.039375894 0.0016815856 -0.027729489
-0.037427582 0.0077457479 -0.031657606
-0.02611593 -0.059798401 0.050936799
-0.02611593 -0.059798401 0.050936799
-0.02611593 -0.059798401 0.050936799
-0.02611593 -0.059798401 0.050936799
-0.035330407 0.008647956 -0.026678864
-0.02611593 -0.059798401 0.050936799
-0.02611593 -0.059798401 0.050936799
-0.041374609 0.0067059984 -0.028601475
-0.02611593 -0.059798401 0.050936799
-0.02611593 -0.059798401 0.050936799
-0.02611593 -0.059798401 0.050936799
-0.02611593 -0.059798401 0.050936799
-0.038300265 0.0066228751 -0.024659202
-0.02611593 -0.059798401 0.050936799
-0.04841863 0.0047676452 -0.0305053
-0.045433056 0.010792033 -0.032452893
-0.02611593 -0.059798401 0.050936799
-0.051362827 -0.00029309769 -0.026540384
-0.02611593 -0.059798401 0.050936799
-0.02611593 -0.059798401 0.050936799
-0.042310402 0.0086549893 -0.025547668
-0.02611593 -0.059798401 0.050936799
-0.051369768 0.0027244831 -0.027485985
-0.049398806 0.0097703869 -0.030396417
-0.02611593 -0.059798401 0.050936799
-0.056406297 0.002778606 -0.02939136
-0.02611593 -0.059798401 0.050936799
-0.02611593 -0.059798401 0.050936799
-0.046324465 0.0096872644 -0.026454151
-0.02611593 -0.059798401 0.050936799
-0.055379905 0.0047565894 -0.028374448
-0.053442463 0.012838495 -0.03326619
-0.02611593 -0.059798401 0.050936799
-0.060386844 0.0027748726 -0.028316528
-0.02611593 -0.059798401 0.050936799
-0.02611593 -0.059798401 0.050936799
-0.049305193 0.0096799415 -0.02539812
-0.02611593 -0.059798401 0.050936799
-0.058323186 0.0047130887 -0.025319099
-0.058456343 0.013874359 -0.034153879
-0.02611593 -0.059798401 0.050936799
-0.064348668 0.0027530501 -0.026242048
-0.02611593 -0.059798401 0.050936799
-0.02611593 -0.059798401 0.050936799
-0.054382183 0.013787647 -0.030230388
-0.02611593 -0.059798401 0.050936799
-0.062322453 0.0047274446 -0.025243934
-0.061418351 0.013848947 -0.032098185
-0.02611593 -0.059798401 0.050936799
-0.069373414 0.0058066649 -0.02809336
-0.02611593 -0.059798401 0.050936799
-0.02611593 -0.059798401 0.050936799
-0.056266468 0.0096688857 -0.023267262
-0.02611593 -0.059798401 0.050936799
-0.067347199 0.007781059 -0.027095243
-0.065380171 0.013827126 -0.03002369
-0.02611593 -0.059798401 0.050936799
-0.073316507 0.0057667531 -0.025019221
-0.02611593 -0.059798401 0.050936799
-0.02611593 -0.059798401 0.050936799
-0.062324554 0.013762091 -0.027081084
-0.02611593 -0.059798401 0.050936799
-0.072319716 0.0097805765 -0.025965597
-0.072434142 0.018923756 -0.033800717
-0.02611593 -0.059798401 0.050936799
-0.078326464 0.0078024482 -0.02588889
-0.02611593 -0.059798401 0.050936799
-0.02611593 -0.059798401 0.050936799
-0.065305278 0.013754769 -0.026025053
-0.02611593 -0.059798401 0.050936799
-0.077329658 0.011816263 -0.026835267
-0.074351944 0.015840998 -0.02881889
-0.02611593 -0.059798401 0.050936799
-0.082284361 0.0087804561 -0.02379638
-0.02611593 -0.059798401 0.050936799
-0.02611593 -0.059798401 0.050936799
-0.069267102 0.013732946 -0.023950566
-0.02611593 -0.059798401 0.050936799
-0.083331577 0.015855208 -0.027650107
-0.080372587 0.019898033 -0.03063339
-0.02611593 -0.059798401 0.050936799
-0.089286096 0.012822983 -0.024592441
-0.02611593 -0.059798401 0.050936799
-0.02611593 -0.059798401 0.050936799
-0.073243715 0.014729043 -0.022857729
-0.02611593 -0.059798401 0.050936799
-0.088326737 0.016872983 -0.027538136
-0.088407651 0.024980156 -0.03339196
-0.02611593 -0.059798401 0.050936799
-0.095273219 0.01584401 -0.024425644
-0.02611593 -0.059798401 0.050936799
-0.02611593 -0.059798401 0.050936799
-0.078268468 0.017782651 -0.024709046
-0.02611593 -0.059798401 0.050936799
-0.094313852 0.019894011 -0.027371339
-0.091336139 0.023918737 -0.029354952
-0.02611593 -0.059798401 0.050936799
-0.10430416 0.021929551 -0.027147394
-0.02611593 -0.059798401 0.050936799
-0.02611593 -0.059798401 0.050936799
-0.084274307 0.020821774 -0.025541905
-0.02611593 -0.059798401 0.050936799
-0.10334481 0.025979554 -0.030093096
-0.099352479 0.02898277 -0.03111387
-0.02611593 -0.059798401 0.050936799
-0.10724745 0.021886053 -0.024092045
-0.02611593 -0.059798401 0.050936799
-0.02611593 -0.059798401 0.050936799
-0.088221334 0.019782031 -0.022485778
-0.02611593 -0.059798401 0.050936799
-0.10726918 0.025921553 -0.02601929
-0.10432892 0.029982457 -0.030002233
-0.02611593 -0.059798401 0.050936799
-0.11725951 0.027957104 -0.025795348
-0.02611593 -0.059798401 0.050936799
-0.02611593 -0.059798401 0.050936799
-0.096252471 0.025863986 -0.025226329
-0.02611593 -0.059798401 0.050936799
-0.11526681 0.030967508 -0.026778534
-0.11029731 0.032985397 -0.028835766
-0.02611593 -0.059798401 0.050936799
-0.12623429 0.033988379 -0.025518119
-0.02611593 -0.059798401 0.050936799
-0.02611593 -0.059798401 0.050936799
-0.10121019 0.026845584 -0.023115028
-0.02611593 -0.059798401 0.050936799
-0.12223109 0.034973852 -0.025575265
-0.11929475 0.038034938 -0.029576227
-0.02611593 -0.059798401 0.050936799
-0.135213 0.039019831 -0.025258914
-0.02611593 -0.059798401 0.050936799
-0.02611593 -0.059798401 0.050936799
-0.1061827 0.028845092 -0.021985378
-0.02611593 -0.059798401 0.050936799
-0.13322423 0.0410304 -0.026260119
-0.12423375 0.038998444 -0.026465267
-0.02611593 -0.059798401 0.050936799
-0.14415428 0.044015102 -0.023000386
-0.02611593 -0.059798401 0.050936799
-0.02611593 -0.059798401 0.050936799
-0.11720936 0.035937652 -0.024651542
-0.02611593 -0.059798401 0.050936799
-0.14218029 0.047043584 -0.024983235
-0.13522689 0.045054987 -0.027150132
-0.02611593 -0.059798401 0.050936799
-0.15713528 0.053078324 -0.023593605
-0.02611593 -0.059798401 0.050936799
-0.02611593 -0.059798401 0.050936799
-0.12517346 0.039947588 -0.023429483
-0.02611593 -0.059798401 0.050936799
-0.1541654 0.055103388 -0.02561326
-0.14317225 0.049046844 -0.024928402
-0.02611593 -0.059798401 0.050936799
-0.17410767 0.064155549 -0.02407562
-0.02611593 -0.059798401 0.050936799
-0.02611593 -0.059798401 0.050936799
-0.13515201 0.044982631 -0.023151487
-0.02611593 -0.059798401 0.050936799
-0.17014192 0.06517721 -0.026132092
-0.15917838 0.061156496 -0.027410515
-0.02611593 -0.059798401 0.050936799
-0.19107616 0.076232612 -0.02453962
-0.02611593 -0.059798401 0.050936799
-0.02611593 -0.059798401 0.050936799
-0.14411198 0.049995996 -0.021892611
-0.02611593 -0.059798401 0.050936799
-0.18207479 0.072182886 -0.023781151
-0.17314047 0.070205204 -0.02698528
-0.02611593 -0.059798401 0.050936799
-0.20799239 0.08725556 -0.022022657
-0.02611593 -0.059798401 0.050936799
-0.02611593 -0.059798401 0.050936799
-0.1591074 0.060084309 -0.023429897
-0.02611593 -0.059798401 0.050936799
-0.2070557 0.090323821 -0.025986031
-0.18909827 0.080260918 -0.026504446
-0.02611593 -0.059798401 0.050936799
-0.23495029 0.10638542 -0.023172282
-0.02611593 -0.059798401 0.050936799
-0.02611593 -0.059798401 0.050936799
-0.17606109 0.071143441 -0.022912253
-0.02611593 -0.059798401 0.050936799
-0.22798207 0.1033789 -0.024357535
-0.21004336 0.093334071 -0.025875602
-0.02611593 -0.059798401 0.050936799
-0.25382087 0.11937904 -0.018582374
-0.02611593 -0.059798401 0.050936799
-0.02611593 -0.059798401 0.050936799
-0.19905414 0.086277708 -0.025208779
-0.02611593 -0.059798401 0.050936799
-0.25487983 0.1234543 -0.022490155
-0.23096579 0.10738899 -0.024229091
-0.02611593 -0.059798401 0.050936799
-0.93416238 0.64812768 -0.18433619
-0.02611593 -0.059798401 0.050936799
-0.02611593 -0.059798401 0.050936799
-0.22097641 0.1003362 -0.023543462
-0.93777239 0.64676237 -0.16328618
-0.9314093 0.65236944 -0.19831577
-0.25986713 0.12647174 -0.022342149
-0.02611593 -0.059798401 0.050936799
-0.94340771 0.64843982 -0.14414385
-0.93703371 0.65202922 -0.17820981
-0.02611593 -0.059798401 0.050936799
-0.25192571 0.12148006 -0.024581883
-0.94702858 0.64909226 -0.12405744
-0.94164354 0.65066749 -0.157141
-0.93728793 0.65428215 -0.19216901
-0.02611593 -0.059798401 0.050936799
-0.9476431 0.6467163 -0.10308181
-0.94427645 0.6483168 -0.13712743
-0.94690394 0.65595591 -0.17195186
-0.9315334 0.6494785 -0.20436779
-0.95227855 0.64839023 -0.083958268
-0.95489901 0.65301174 -0.11783709
-0.94952184 0.65258729 -0.15095665
-0.9441635 0.65218097 -0.18507591
-0.9549036 0.64803922 -0.063908666
-0.94951552 0.6455971 -0.09606462
-0.95413172 0.65122557 -0.12988785
-0.95378327 0.65285492 -0.16487676
-0.9555102 0.64766294 -0.042896993
-0.95914233 0.64928854 -0.076811075
-0.96675795 0.65492785 -0.11057793
-0.95838231 0.6494754 -0.14284432
-0.96014571 0.64933681 -0.023773439
-0.96775049 0.65295845 -0.056576669
-0.96835345 0.65253741 -0.088583857
-0.97400403 0.65418833 -0.12346
-0.95476919 0.64493972 -0.0029465854
-0.96335894 0.64754695 -0.034749381
-0.97196746 0.65017223 -0.067551836
-0.98159063 0.65381908 -0.10131714
-0.95339882 0.64357454 0.017009817
-0.9669798 0.64819932 -0.014662974
-0.97657335 0.64981031 -0.046465009
-0.9851858 0.65143579 -0.079285465
-0.95900756 0.64723355 0.037187871
-0.97058201 0.64883363 0.0064230859
-0.97916484 0.64842325 -0.024434097
-0.99276853 0.65206635 -0.057124592
-0.95763332 0.64686823 0.0571623
-0.9711926 0.64745754 0.027416743
-0.98376685 0.64906114 -0.0033292547
-1.0043387 0.65571082 -0.034834474
-0.95227152 0.643489 0.07700751
-0.97279906 0.64708483 0.048447207
-0.98934591 0.65068442 0.018812075
-1.006938 0.65232414 -0.012839623
-0.94992006 0.64213836 0.095945463
-0.97043282 0.6447162 0.068366811
-0.98994571 0.64729059 0.040769354
-1.0105107 0.6509226 0.010209732
-0.94856453 0.64179105 0.11492024
-0.97304994 0.64636487 0.088452443
-0.99352521 0.64890665 0.062873095
-1.011073 0.64749253 0.034166332
-0.94419861 0.6394152 0.13480225
-0.97166091 0.64498156 0.10940851
-0.99812335 0.6505444 0.083995968
-1.0166372 0.64809787 0.057289295
-0.94780385 0.64406693 0.15496074
-0.97325939 0.64660853 0.13047501
-0.9987151 0.64915013 0.10598929
-1.0241934 0.65071005 0.08048588
-0.94146103 0.64070225 0.1737875
-0.96987474 0.64421827 0.15137549
-0.99531555 0.64574194 0.12787139
-1.0237746 0.64729446 0.10342403
-0.94007891 0.64233649 0.19379798
-0.964513 0.64083904 0.1712207
-0.99689937 0.64635098 0.14991954
-1.0233331 0.64486068 0.12737986
-0.93771958 0.64298546 0.21277197
-0.96908051 0.64545816 0.19339728
-0.99746859 0.64593852 0.17293054
-1.0288708 0.64744759 0.15153852
-0.92937708 0.63961363 0.23156115
-0.96469593 0.64306432 0.21427897
-1.0000296 0.64753294 0.19601515
-1.0324169 0.6480276 0.17562357
-0.92601806 0.64025897 0.25051636
-0.96429485 0.64468402 0.23530789
-1.0006135 0.6481384 0.21804452
-1.0329673 0.64759707 0.19963422
-0.92563176 0.64289665 0.27056363
-0.95593756 0.64029425 0.25507873
-0.99718738 0.64671171 0.24096233
-1.0255388 0.64213866 0.22340447
-0.91433507 0.63755059 0.28726107
-0.95354092 0.64090705 0.27605203
-0.99278402 0.64429969 0.26284367
-1.03205 0.64671075 0.2486176
-0.91592193 0.64217699 0.30838162
-0.94916713 0.64053088 0.29597008
-0.98738092 0.64188421 0.28470621
-1.0216485 0.63925999 0.27129579
-0.90661711 0.63883764 0.32515272
-0.94677037 0.64114374 0.31694341
-0.98694241 0.64346778 0.30773446
-1.0221764 0.63981116 0.29632413
-0.90225422 0.64047927 0.34410715
-0.93740946 0.63775015 0.33671349
-0.98351234 0.64304096 0.3306703
-1.0296233 0.6463322 0.3245911
-0.88895792 0.63512599 0.36076698
-0.93103999 0.63636702 0.35657591
-0.98207408 0.64462095 0.35367978
-1.0142682 0.63690007 0.34513995
-0.88657212 0.63775647 0.3807767
-0.92863536 0.63897938 0.37758529
-0.9746713 0.64219826 0.37550473
-1.0197192 0.64241397 0.37335134
-0.88023621 0.63740939 0.39865786
-0.92621201 0.64157379 0.39959431
-0.96924162 0.64176428 0.39840299
-1.0063334 0.63597053 0.39499149
-0.87092346 0.63606972 0.41546497
-0.92181563 0.64217937 0.42053008
-0.96283078 0.64134479 0.42028278
-1.0038617 0.63651085 0.41996342
-0.86557955 0.63772583 0.43340093
-0.90752351 0.63582265 0.4371531
-0.9574011 0.64091074 0.44318101
-0.99542159 0.6340484 0.44376892
-0.85822505 0.637357 0.45226297
-0.90015036 0.63543576 0.4570148
-0.94901729 0.6385026 0.46398753
-0.99095434 0.63358182 0.4686853
-0.84495842 0.63403958 0.4669596
-0.8917774 0.63504529 0.47685769
-0.94356096 0.64005011 0.48792151
-0.98448342 0.63410789 0.49358213
-0.83861464 0.635692 0.48487675
-0.88440025 0.63565814 0.49673739
-0.92430019 0.63069403 0.50339693
-0.97901237 0.63463748 0.51849771
-0.83422518 0.63931525 0.5048669
-0.87307698 0.63229358 0.51447052
-0.92674011 0.63919675 0.53160596
-0.96759552 0.63118243 0.54122919
-0.82195836 0.63600135 0.51958227
-0.86569601 0.63390636 0.53436828
-0.91735643 0.63678497 0.55239367
-0.95815176 0.62971622 0.56503391
-0.81264168 0.63566148 0.53640741
-0.85436881 0.63154161 0.55211943
-0.90499204 0.63438046 0.57212538
-0.95068097 0.63023871 0.58991194
-0.79839778 0.63135874 0.55006748
-0.84401494 0.63116205 0.57092512
-0.88965476 0.6299836 0.59076494
-0.94616061 0.6337353 0.61689967
-0.784154 0.62705594 0.56372762
-0.83466089 0.63078606 0.58974946
-0.87926334 0.62956786 0.61157
-0.92783171 0.62732798 0.63544685
-0.77383757 0.62671256 0.58053398
-0.82528019 0.63239163 0.60960972
-0.86985314 0.62913758 0.63339341
-0.91836137 0.62784326 0.66028726
-0.76453173 0.62839043 0.59639543
-0.81197613 0.62903792 0.62630558
-0.86043507 0.63070703 0.65525287
-0.90691394 0.6273697 0.68407249
-0.75126112 0.62607282 0.61111003
-0.79866415 0.627684 0.6430375
-0.85001713 0.63227284 0.67709357
-0.89448559 0.62691057 0.7068392
-0.73998624 0.62476212 0.62588024
-0.78635198 0.62633353 0.65978831
-0.83467591 0.62887573 0.69575119
-0.88794279 0.63138169 0.73480707
-0.72770762 0.62444776 0.64064968
-0.77401721 0.62596494 0.67755669
-0.82328081 0.62945628 0.71655536
-0.86763299 0.62498534 0.75231701
-0.7164101 0.6241188 0.65643752
-0.7636553 0.62758487 0.69639838
-0.80793172 0.62805891 0.73524904
-0.85713625 0.62747866 0.77817434
-0.7051273 0.62480789 0.67124385
-0.74738926 0.62425673 0.71103859
-0.79553694 0.62863582 0.75603449
-0.83781844 0.62308556 0.79573917
-0.6938445 0.62549692 0.68605006
-0.73309618 0.62291718 0.72675204
-0.7802065 0.62725651 0.77372849
-0.82143211 0.62164837 0.8164134
-0.68057007 0.62417912 0.70078266
-0.72075742 0.62354845 0.74453849
-0.7648387 0.62584102 0.79342186
-0.80502313 0.62119299 0.83810532
-0.66535592 0.62190855 0.71246076
-0.70741892 0.62417597 0.76230609
-0.74655032 0.62348741 0.80904216
-0.79154563 0.62369359 0.86290658
-0.65405059 0.62357926 0.7282846
-0.69116753 0.62186557 0.77596474
-0.73415148 0.62506413 0.82984561
-0.77515543 0.62325633 0.8835988
-0.63785928 0.62032336 0.73892611
-0.67977941 0.62546366 0.79582334
-0.71684021 0.62369573 0.84650236
-0.75580716 0.62184465 0.90221733
-0.62655389 0.62199414 0.75475013
-0.66155106 0.62216443 0.80842662
-0.69951028 0.62230933 0.86415881
-0.73841709 0.62140375 0.92289084
-0.61426741 0.6236794 0.76955557
-0.6462543 0.62182117 0.82413936
-0.68414944 0.62391138 0.88290656
-0.71709168 0.61900312 0.94045407
-0.59709513 0.62043798 0.77917862
-0.63193071 0.62346303 0.84090656
-0.6648612 0.6215542 0.89850807
-0.69483072 0.61465353 0.95496351
-0.58285427 0.62015253 0.79191118
-0.61372113 0.62018186 0.85251015
-0.64754206 0.62218547 0.91520089
-0.67838722 0.61817926 0.97772712
-0.56568193 0.61691123 0.80153435
-0.59743929 0.62085301 0.86722249
-0.62922704 0.62181336 0.93185693
-0.65803516 0.61776382 0.99634486
-0.55434996 0.62056351 0.81839395
-0.58309305 0.62347656 0.88500738
-0.60993099 0.62145573 0.94749451
-0.6347664 0.61541027 1.0108715
-0.5381282 0.62028903 0.83008927
-0.56196678 0.6182574 0.89251995
-0.59257054 0.62305069 0.96620464
-0.61536884 0.6169619 1.0315435
-0.52288753 0.62 0.84280294
-0.54568487 0.61892843 0.90723222
-0.57133883 0.62074053 0.97876954
-0.5921188 0.61462641 1.0450705
-0.50670713 0.6187619 0.85248089
-0.52935773 0.62156302 0.92397988
-0.5520615 0.62040102 0.99340749
-0.5698272 0.61325824 1.0606337
-0.4904854 0.61848742 0.86417621
-0.51016319 0.61929625 0.93458313
-0.52984869 0.61810535 1.004954
-0.54461491 0.61095172 1.0721239
-0.4752596 0.61921632 0.87590826
-0.4909685 0.61702937 0.94518638
-0.50667751 0.61484236 1.0144644
-0.52327788 0.61155069 1.0897411
-0.45807937 0.61797458 0.88556749
-0.47274321 0.61774755 0.95686203
-0.48543793 0.61453187 1.0270654
-0.49710715 0.60827702 1.099195
-0.44283086 0.61968529 0.89831728
-0.45539361 0.62136018 0.9746086
-0.46322119 0.61323601 1.0386299
-0.47382659 0.60892296 1.113776
-0.42469227 0.61747628 0.90594018
-0.4314107 0.61325735 0.97501314
-0.44389465 0.61585981 1.0553212
-0.44955018 0.60856545 1.1283199
-0.4065536 0.61526734 0.91356325
-0.41409853 0.61690623 0.99076033
-0.4226324 0.61653107 1.0689398
-0.42531115 0.60824412 1.1408645
-0.38936949 0.6150254 0.92324042
-0.39581311 0.61856997 1.0054531
-0.39941198 0.61623144 1.0805036
-0.39911389 0.60695207 1.1513542
-0.37120819 0.6137982 0.93188113
-0.37469375 0.61636829 1.01202
-0.37814581 0.6179024 1.0941403
-0.37484831 0.6086123 1.1649345
-0.35303906 0.61457056 0.94055784
-0.35163879 0.61221409 1.0155144
-0.35211402 0.61275572 1.0965605
-0.34866977 0.60733825 1.1744244
-0.33583233 0.61531043 0.95125276
-0.33145523 0.61196142 1.0251352
-0.32893103 0.61249226 1.106125
-0.32338172 0.60997671 1.1890037
-0.31675398 0.61215234 0.95583999
-0.31122634 0.61367226 1.0367914
-0.30383113 0.6102944 1.1116172
-0.29532766 0.60580456 1.192404
-0.29854342 0.61388838 0.96653402
-0.29008433 0.61245233 1.044376
-0.28249705 0.61491066 1.1283069
-0.26912254 0.60651213 1.2029299
-0.27941981 0.61269379 0.97315657
-0.26891574 0.61321396 1.0529964
-0.25646135 0.61076379 1.1307453
-0.2429135 0.60821944 1.2134737
-0.2602922 0.612499 0.97979718
-0.2477472 0.6139757 1.0616168
-0.23235732 0.60956931 1.1362743
-0.21483284 0.60602885 1.2179098
-0.24118726 0.6113224 0.98542011
-0.22472966 0.60985762 1.0631119
-0.20814791 0.61128372 1.1468557
-0.18772939 0.60482359 1.2233824
-0.22199962 0.61207318 0.99507773
-0.20257998 0.61063379 1.0707138
-0.18302144 0.61106741 1.1533835
-0.15962219 0.60461456 1.2288543
-0.20288682 0.61289626 1.0007367
-0.18049432 0.60946453 1.0752805
-0.1580378 0.60797822 1.1528597
-0.13251477 0.60440916 1.234345
-0.18278205 0.61171615 1.0063409
-0.15832591 0.61022264 1.0838823
-0.13380572 0.6106745 1.1644586
-0.10446765 0.60325462 1.2367997
-0.16362792 0.6135028 1.0140172
-0.13530052 0.60810423 1.0854133
-0.10777697 0.60954517 1.1659514
-0.076420546 0.60209996 1.2392544
-0.14356452 0.61135906 1.017604
-0.11316957 0.60889846 1.0920155
-0.082669199 0.60934693 1.1714796
-0.048429597 0.60099959 1.2387103
-0.12345193 0.61217856 1.0232441
-0.090076238 0.60972536 1.0965997
-0.056681823 0.60725391 1.1709551
-0.020295806 0.60277224 1.2452179
-0.10234344 0.61199468 1.0288475
-0.067046925 0.60860676 1.0981488
-0.030525014 0.61001539 1.1785178
0.0077138636 0.60165375 1.2456734
-0.081295028 0.61086524 1.0314339
-0.043998893 0.6074701 1.1006976
-0.0054921415 0.60988951 1.1800473
0.035768837 0.60249889 1.2481642
-0.061223809 0.61072111 1.0350567
-0.019951042 0.60632992 1.1032276
0.019431405 0.60585475 1.1765065
0.063639596 0.59950739 1.241586
-0.040152758 0.61057335 1.0386608
0.0021463986 0.60816014 1.1078485
0.045468025 0.6067251 1.1780354
0.086521149 0.56938529 1.1875945
-0.019164456 0.60849833 1.0382302
0.025138261 0.60707778 1.1073984
0.071546018 0.60855907 1.1815815
0.12073456 0.60221189 1.2455673
0.0019518938 0.61031413 1.0438695
0.04925799 0.60988259 1.1129994
0.097518608 0.60748404 1.1800752
0.1485866 0.59923851 1.2379895
0.022962846 0.6092208 1.0444565
0.073163003 0.60586953 1.1084777
0.12347248 0.60642701 1.1775693
0.17656668 0.60015589 1.2364819
0.045037638 0.61006933 1.0480598
0.096181437 0.60676873 1.1090633
0.14943025 0.60636991 1.1750815
0.20450537 0.6001097 1.2329566
0.065984569 0.60703069 1.0456119
0.12006772 0.60277367 1.1035419
0.1753467 0.60534912 1.1705761
0.23357196 0.60395068 1.2354829
0.088021912 0.60791534 1.0472158
0.14410864 0.60465109 1.1051263
0.20019926 0.60238659 1.1630547
0.26143184 0.60297704 1.227941
0.10897277 0.60587656 1.0447859
0.16816828 0.60651034 1.1077104
0.2262211 0.60427481 1.1636019
0.28820914 0.6000796 1.2163833
0.13205132 0.60772127 1.0483882
0.19204368 0.60453308 1.1012255
0.2521227 0.60427201 1.1581151
0.31400543 0.59716773 1.2058442
0.15402855 0.60766035 1.0469753
0.214938 0.60254127 1.0957588
0.27582875 0.59744024 1.1435428
0.34191453 0.59915727 1.2003558
0.17602453 0.60758144 1.0465618
0.23891881 0.60347307 1.0943263
0.3028582 0.60132456 1.1441071
0.36875588 0.59820527 1.191833
0.19897895 0.60653526 1.0441123
0.26385808 0.6034376 1.0908574
0.32665485 0.5984199 1.1336055
0.39451858 0.59632939 1.1793125
0.22097886 0.60745609 1.043717
0.28680164 0.60440922 1.0874443
0.35471073 0.6042822 1.1351867
0.42347282 0.60027885 1.1758407
0.24291867 0.60743141 1.0403045
0.30961713 0.6014899 1.0779611
0.37851125 0.6023773 1.1247032
0.42926779 0.57130808 1.1171882
0.26583564 0.60642147 1.0358558
0.33668798 0.6063379 1.0805429
0.4044168 0.6033743 1.1192343
0.44569331 0.55975556 1.088662
0.28777546 0.60639673 1.0324434
0.35852635 0.60440403 1.0720962
0.41450065 0.58113456 1.0746281
0.50296056 0.60247993 1.1473826
0.31071118 0.60536867 1.0289942
0.38134578 0.60248458 1.0626309
0.43624145 0.57829136 1.061165
0.52351731 0.59580362 1.1248693
0.33259085 0.60439831 1.0225649
0.40520638 0.60152525 1.0551643
0.47787508 0.60261536 1.0898353
0.54826933 0.59594905 1.1114041
0.35447058 0.60342807 1.0161355
0.42281988 0.59480554 1.0357064
0.50164211 0.60174638 1.0773704
0.57617146 0.6009562 1.10497
0.37841392 0.6043961 1.0127035
0.45296207 0.60358781 1.0413028
0.52545047 0.60184115 1.0669228
0.5998823 0.60014164 1.0895061
0.40240258 0.60732752 1.0113069
0.47683054 0.60462821 1.0338722
0.55028528 0.60391396 1.0574921
0.62152952 0.59738874 1.0710447
0.42111343 0.60151356 0.99684656
0.49759027 0.60177028 1.0214276
0.56781995 0.59626675 1.0340174
0.64837176 0.60145402 1.0616126
0.44815075 0.60739762 0.99744701
0.5213986 0.60186505 1.0109801
0.59680468 0.60319763 1.0315994
0.6669181 0.59680277 1.0381732
0.46686554 0.60258347 0.98300463
0.54424852 0.60292703 1.0025686
0.62057948 0.60432839 1.0191705
0.68859184 0.59603143 1.0207475
0.49181658 0.60554755 0.97958994
0.56705713 0.60302544 0.99213982
0.64126438 0.60154295 1.0027273
0.71335173 0.59817654 1.0073183
0.5157038 0.60656977 0.97315902
0.58672333 0.60026169 0.97471571
0.66608429 0.60463369 0.99231493
0.73194718 0.5964886 0.98593229
0.53440374 0.60277355 0.95773494
0.61262208 0.60427624 0.9683013
0.68778074 0.60484415 0.97590697
0.75877464 0.60157168 0.97551841
0.56035852 0.60673386 0.95431954
0.62923956 0.59855992 0.9488802
0.70334619 0.60018545 0.9535237
0.77839261 0.60086191 0.95513141
0.58008099 0.60391581 0.93989444
0.65410095 0.60261422 0.94048518
0.72712511 0.60231602 0.94111282
0.79803324 0.60113376 0.93576205
0.60188973 0.60401773 0.92948443
0.67585355 0.60277045 0.92707616
0.74678046 0.60157007 0.92272508
0.81969613 0.60238028 0.91737276
0.62367976 0.60413772 0.91807473
0.69554639 0.60198826 0.9106878
0.76952201 0.60374039 0.90833372
0.83527344 0.60072118 0.89504349
0.6444059 0.60231602 0.90364885
0.71625769 0.60118449 0.8952803
0.78815883 0.60301608 0.88896513
0.85898125 0.60392386 0.87865204
0.66619599 0.60243601 0.89223915
0.73801428 0.60234046 0.88188934
0.80783689 0.60325181 0.87159508
0.87251753 0.60130835 0.85434306
0.68692994 0.60261393 0.87784934
0.75668854 0.60157996 0.86452001
0.81932044 0.59668028 0.84525222
0.89214343 0.60259819 0.833992
0.70974249 0.60371208 0.86743855
0.77535897 0.5998196 0.84713274
0.84002489 0.598894 0.82889915
0.90772855 0.60293871 0.81169885
0.73249882 0.60486448 0.85402882
0.79503709 0.6000554 0.8297627
0.85664731 0.59919471 0.80858642
0.9182201 0.59837037 0.78541088
0.74812454 0.60115153 0.83466256
0.81371528 0.60029471 0.81241143
0.87731045 0.60044485 0.79021597
0.93685013 0.60066366 0.76509666
0.77394813 0.60523832 0.82424945
0.83339727 0.60153019 0.79505944
0.89292914 0.59974939 0.76990402
0.95448011 0.60296047 0.74480122
0.78853261 0.60056531 0.80288458
0.85409778 0.60274416 0.77868825
0.90953285 0.60006821 0.74859178
0.96802431 0.60234451 0.72052824
0.81331909 0.60469192 0.79049093
0.87173873 0.60302323 0.75935644
0.92209202 0.59843796 0.72531927
0.98463589 0.60466307 0.69925201
0.83301586 0.60490954 0.77412057
0.88835728 0.60232413 0.73902583
0.94683009 0.60461855 0.70996267
0.99818403 0.60504699 0.67499703
0.84964919 0.60319263 0.75477153
0.90804321 0.60455954 0.72169173
0.96039295 0.60398453 0.68668938
1.0056839 0.60248905 0.64880151
0.86932719 0.60342836 0.73740149
0.9236393 0.60288233 0.70036221
0.9760195 0.60528874 0.66641349
1.0212771 0.60482931 0.62654436
0.88594186 0.60172945 0.71705282
0.94128406 0.60416126 0.68104839
0.9905861 0.6056509 0.64313942
1.0358516 0.60719115 0.60330635
0.90358281 0.60200852 0.697721
0.95282078 0.60155278 0.65677696
1.0092199 0.608944 0.62284327
1.0423516 0.60463685 0.57712954
0.92424583 0.60325861 0.6793505
0.96842468 0.60187525 0.6354835
1.0197648 0.60833877 0.59862667
1.0579525 0.60897666 0.55490845
0.94188684 0.60353768 0.66001874
0.99112177 0.60709935 0.61814713
1.0282834 0.60575926 0.57341194
1.0664603 0.60841489 0.52873009
0.9574908 0.60386014 0.63872522
1.0046847 0.60646534 0.59487385
1.0469022 0.61007029 0.55213416
1.0739866 0.60783857 0.50357026
0.97509426 0.60417545 0.61739409
1.0192701 0.6068095 0.57259941
1.0503577 0.60556322 0.52397841
1.0835208 0.60925472 0.47840881
0.99269789 0.6044907 0.59606296
1.0368854 0.61012423 0.55132246
1.0659547 0.60890329 0.50173926
1.0900286 0.60870016 0.45226806
1.0143725 0.60873663 0.57772774
1.0524558 0.61148274 0.52804756
1.0765073 0.61029768 0.4775587
1.0955369 0.60814905 0.42614612
1.0309387 0.60909164 0.55441606
1.0629816 0.61089557 0.50283134
1.0850109 0.60873616 0.45136237
1.1050709 0.6095652 0.4009847
1.0424795 0.60748309 0.53016269
1.0715042 0.60931587 0.47763464
1.0945637 0.61013418 0.42720062
1.1116055 0.61099213 0.37587968
1.0600722 0.60981607 0.50786799
1.0780044 0.60676157 0.45145789
1.0970458 0.60761237 0.40009934
1.1141104 0.60945207 0.34979606
1.0725977 0.60922182 0.48261416
1.0966088 0.61209053 0.42919838
1.1075797 0.609025 0.37491912
1.1115707 0.60596633 0.32177109
1.085142 0.60860956 0.45836002
1.1071385 0.61250329 0.40400016
1.1100807 0.60648495 0.34881753
1.129187 0.6142984 0.29958442
1.0966679 0.60801888 0.43312496
1.1166646 0.61191976 0.37880275
1.1186187 0.6089046 0.32369292
1.1316997 0.61475796 0.27353686
1.1142271 0.61138779 0.40884891
1.1251763 0.61235774 0.35264239
1.1291566 0.61131704 0.29853073
1.1301826 0.61225045 0.24651076
1.1217122 0.6098479 0.38167173
1.132688 0.61279935 0.32650089
1.1316465 0.61079484 0.27146548
1.1387285 0.61666971 0.2214222
1.1382716 0.61322051 0.35741445
1.1411996 0.61323738 0.30034059
1.1401846 0.61321437 0.24634087
1.1312047 0.61218411 0.19447279
1.1487601 0.61266959 0.33019888
1.1466891 0.61270446 0.27321899
1.1517301 0.61762291 0.22119595
0.74911737 0.38981619 0.12958209
1.160275 0.6140967 0.30400026
1.1531823 0.6131677 0.2460966
1.1542239 0.61810052 0.19414872
0.71867764 0.37228867 0.10982824
1.1627158 0.6106112 0.27488163
1.1637052 0.61659807 0.21995278
0.74001962 0.37890461 0.12655401
0.69729352 0.35969189 0.091994703
1.1832712 0.61798686 0.24962163
1.1159555 0.58638704 0.18628888
0.71761686 0.36632949 0.10773961
0.67793548 0.34906945 0.075159281
1.1927491 0.61945724 0.22146121
0.72388482 0.36303711 0.12256772
0.72530895 0.36960775 0.090649098
0.63655311 0.32650992 0.059520695
0.88784415 0.44680458 0.15602458
0.72254014 0.36136669 0.10455658
0.69290316 0.35105148 0.072914146
0.64731252 0.33272269 0.045426857
0.72078604 0.35210404 0.11942691
0.72722483 0.36265606 0.087486401
0.64749092 0.3255249 0.056297
0.62200391 0.32006788 0.031667124
0.71240419 0.34547764 0.10045754
0.72388059 0.36099279 0.069512837
0.63420373 0.31882602 0.042419892
0.62575287 0.32330623 0.017650763
0.72410345 0.35074124 0.083327904
0.71453643 0.35433379 0.052561589
0.63993359 0.32207528 0.027366286
0.61848021 0.32058513 0.0037329867
0.72075516 0.34807813 0.065336324
0.7272619 0.36157537 0.036448859
0.63764918 0.32135397 0.01239093
0.62722129 0.32682315 -0.01132293
0.72542119 0.34938559 0.047266491
0.73594296 0.36686778 0.018375939
0.64137942 0.32461041 -0.0026250891
0.63895488 0.336068 -0.027380828
0.72609872 0.34868973 0.030235443
0.73660582 0.36718982 0.00036324561
0.70512372 0.36275417 -0.024135862
0.69968104 0.37424055 -0.0498349
0.73677939 0.35397497 0.012124937
0.74328321 0.37148961 -0.017690111
0.7378031 0.38301221 -0.045388471
0.74435616 0.40349013 -0.073150143
0.73243135 0.35131541 -0.0058478564
0.74094659 0.37182239 -0.035646431
0.74948055 0.3923113 -0.064445347
0.74903786 0.408797 -0.091147915
0.74109358 0.356626 -0.02492043
0.74060959 0.37214801 -0.053640328
0.74814367 0.39264047 -0.082420468
0.75671202 0.41711059 -0.11014765
0.74274141 0.35796231 -0.043933559
0.74526864 0.37647307 -0.072655767
0.74982202 0.3969582 -0.10037985
0.75837165 0.42144641 -0.1291067
0.74238569 0.35830602 -0.062927127
0.74992377 0.37979832 -0.091689236
0.7564885 0.40327579 -0.11939685
0.76203489 0.42677492 -0.14808533
0.75102925 0.36363465 -0.082999378
0.75556779 0.38513771 -0.1117051
0.75912929 0.40762609 -0.13937436
0.75872499 0.42909282 -0.16498716
0.74568528 0.3619785 -0.10093534
0.75822729 0.38946995 -0.13068296
0.76477724 0.41396531 -0.15937221
0.76736552 0.43843889 -0.185987
0.76028728 0.37133923 -0.12404724
0.76086402 0.39282045 -0.15067849
0.76643693 0.41830117 -0.17833129
0.76903296 0.44477442 -0.20491003
0.7629053 0.37470782 -0.14504243
0.76747835 0.40019208 -0.17267644
0.77504003 0.42768338 -0.20133045
0.21889779 0.096793592 -0.033846654
0.75754654 0.3740696 -0.16396007
0.77110016 0.40455693 -0.19367242
0.21094964 0.085733712 -0.028896235
0.19889568 0.085831054 -0.031669728
0.76415694 0.38044146 -0.18597604
0.76873392 0.40692559 -0.21359201
0.20785266 0.084835097 -0.03385618
-0.02611593 -0.059798401 0.050936799
0.76477146 0.38281739 -0.20695168
0.21283996 0.081817672 -0.034004189
-0.02611593 -0.059798401 0.050936799
0.16885312 0.068923533 -0.030412666
0.21481602 0.075811513 -0.034149881
0.19480398 0.071883962 -0.033846144
0.18176498 0.070966966 -0.035619218
-0.02611593 -0.059798401 0.050936799
0.18882199 0.061852939 -0.030914605
-0.02611593 -0.059798401 0.050936799
-0.02611593 -0.059798401 0.050936799
0.15178345 0.060022254 -0.032254722
-0.02611593 -0.059798401 0.050936799
0.16476536 0.055976275 -0.03257107
0.1557335 0.057044573 -0.034383256
-0.02611593 -0.059798401 0.050936799
0.16376069 0.049962789 -0.031660724
-0.02611593 -0.059798401 0.050936799
-0.02611593 -0.059798401 0.050936799
0.13076282 0.0490814 -0.031058658
-0.02611593 -0.059798401 0.050936799
0.14272617 0.045057099 -0.032355882
0.14067128 0.05013578 -0.036226854
-0.02611593 -0.059798401 0.050936799
0.14368764 0.040072449 -0.033464417
-0.02611593 -0.059798401 0.050936799
-0.02611593 -0.059798401 0.050936799
0.11274555 0.039129607 -0.029900953
-0.02611593 -0.059798401 0.050936799
0.12567914 0.037137564 -0.033180241
0.12265795 0.041183829 -0.03505113
-0.02611593 -0.059798401 0.050936799
0.12068608 0.029120684 -0.03123112
-0.02611593 -0.059798401 0.050936799
-0.02611593 -0.059798401 0.050936799
0.10270901 0.034184437 -0.030802798
-0.02611593 -0.059798401 0.050936799
0.10668078 0.027171277 -0.031004086
0.10465942 0.031213954 -0.032893751
-0.02611593 -0.059798401 0.050936799
0.10961229 0.024215285 -0.034113504
-0.02611593 -0.059798401 0.050936799
-0.02611593 -0.059798401 0.050936799
0.089706548 0.028214021 -0.029666971
-0.02611593 -0.059798401 0.050936799
0.093659595 0.021218948 -0.030867923
0.092623249 0.026275957 -0.033758026
-0.02611593 -0.059798401 0.050936799
0.090651378 0.014212818 -0.029938024
-0.02611593 -0.059798401 0.050936799
-0.02611593 -0.059798401 0.050936799
0.080673769 0.024265096 -0.030569591
-0.02611593 -0.059798401 0.050936799
0.081638232 0.015263038 -0.030750547
0.082605444 0.021312693 -0.033660211
-0.02611593 -0.059798401 0.050936799
0.080618784 0.010267474 -0.030821849
-0.02611593 -0.059798401 0.050936799
-0.02611593 -0.059798401 0.050936799
0.070674673 0.019283749 -0.02947212
-0.02611593 -0.059798401 0.050936799
0.072624169 0.011296015 -0.030653507
0.072606362 0.016331347 -0.032562733
-0.02611593 -0.059798401 0.050936799
0.069619879 0.0052897166 -0.029705588
-0.02611593 -0.059798401 0.050936799
-0.02611593 -0.059798401 0.050936799
0.061656684 0.014316896 -0.029393096
-0.02611593 -0.059798401 0.050936799
0.060658969 0.0052858386 -0.027537152
0.063577496 0.013382244 -0.033447336
-0.02611593 -0.059798401 0.050936799
0.061590835 0.002337025 -0.030608974
-0.02611593 -0.059798401 0.050936799
-0.02611593 -0.059798401 0.050936799
0.055631205 0.012356858 -0.030316047
-0.02611593 -0.059798401 0.050936799
0.056584805 0.0053725508 -0.031460635
0.056567002 0.010407874 -0.033369862
-0.02611593 -0.059798401 0.050936799
0.05159568 -0.001644494 -0.029493485
-0.02611593 -0.059798401 0.050936799
-0.02611593 -0.059798401 0.050936799
0.044703264 0.0063069062 -0.025219157
-0.02611593 -0.059798401 0.050936799
0.049559515 0.0034161007 -0.032364789
0.051526546 0.009462174 -0.035293255
-0.02611593 -0.059798401 0.050936799
0.044585172 -0.0046188598 -0.029416006
-0.02611593 -0.059798401 0.050936799
-0.02611593 -0.059798401 0.050936799
0.040647835 0.0063755293 -0.028142981
-0.02611593 -0.059798401 0.050936799
0.04254901 0.00044173491 -0.032287311
0.044516038 0.006487797 -0.035215773
-0.02611593 -0.059798401 0.050936799
0.036597505 -0.0066078985 -0.028302059
-0.02611593 -0.059798401 0.050936799
-0.02611593 -0.059798401 0.050936799
0.03367085 0.0023651584 -0.026084196
-0.02611593 -0.059798401 0.050936799
0.036523532 -0.0015183038 -0.03321027
0.036557965 0.0024629259 -0.03213853
-0.02611593 -0.059798401 0.050936799
0.033541888 -0.0065428652 -0.031244673
-0.02611593 -0.059798401 0.050936799
-0.02611593 -0.059798401 0.050936799
0.030615225 0.0024301922 -0.02902681
-0.02611593 -0.059798401 0.050936799
0.02661806 -0.0065900991 -0.027114496
0.032483801 0.0025496378 -0.036062021
-0.02611593 -0.059798401 0.050936799
0.02461751 -0.01160016 -0.026167341
-0.02611593 -0.059798401 0.050936799
-0.02611593 -0.059798401 0.050936799
0.025612215 0.0014483061 -0.028950877
-0.02611593 -0.059798401 0.050936799
0.025528554 -0.0054962337 -0.032075986
0.026495771 0.00055342482 -0.034985658
-0.02611593 -0.059798401 0.050936799
0.020562071 -0.011531536 -0.029091161
-0.02611593 -0.059798401 0.050936799
-0.02611593 -0.059798401 0.050936799
0.020605274 -0.00053341058 -0.02889296
-0.02611593 -0.059798401 0.050936799
0.016608104 -0.0095537016 -0.026980646
0.020522529 -0.0024607084 -0.03292764
-0.02611593 -0.059798401 0.050936799
-0.02611593 -0.059798401 0.050936799
-0.02611593 -0.059798401 0.050936799
-0.02611593 -0.059798401 0.050936799
0.014632034 -0.0035475437 -0.026834954
-0.02611593 -0.059798401 0.050936799
0.013552486 -0.0094886674 -0.029923253
0.016485816 -0.0024101743 -0.034851804
-0.02611593 -0.059798401 0.050936799
-0.02611593 -0.059798401 0.050936799
-0.02611593 -0.059798401 0.050936799
-0.02611593 -0.059798401 0.050936799
0.011613861 -0.0035186876 -0.027778242
-0.02611593 -0.059798401 0.050936799
0.0085642673 -0.011488469 -0.028865676
0.010512573 -0.0054243109 -0.032793794
-0.02611593 -0.059798401 0.050936799
-0.02611593 -0.059798401 0.050936799
-0.02611593 -0.059798401 0.050936799
-0.02611593 -0.059798401 0.050936799
-0.02611593 -0.059798401 0.050936799
-0.02611593 -0.059798401 0.050936799
-0.02611593 -0.059798401 0.050936799
0.0055430806 -0.0074422061 -0.030736558
-0.02611593 -0.059798401 0.050936799
-0.02611593 -0.059798401 0.050936799
-0.02611593 -0.059798401 0.050936799
-0.02611593 -0.059798401 0.050936799
0.0045589744 -0.0034392979 -0.030645695
-0.02611593 -0.059798401 0.050936799
0.0015133065 -0.010409249 -0.031715102
0.0015250896 -0.0074097607 -0.031661045
-0.02611593 -0.059798401 0.050936799
-0.02611593 -0.059798401 0.050936799
-0.02611593 -0.059798401 0.050936799
-0.02611593 -0.059798401 0.050936799
-0.02611593 -0.059798401 0.050936799
-0.02611593 -0.059798401 0.050936799
-0.02611593 -0.059798401 0.050936799
-0.00056030042 -0.0053124768 -0.036585741
-0.02611593 -0.059798401 0.050936799
-0.02611593 -0.059798401 0.050936799
-0.02611593 -0.059798401 0.050936799
-0.02611593 -0.059798401 0.050936799
-0.02611593 -0.059798401 0.050936799
-0.02611593 -0.059798401 0.050936799
-0.02611593 -0.059798401 0.050936799
-0.0045782938 -0.0052800318 -0.037510246
-0.02611593 -0.059798401 0.050936799
-0.02611593 -0.059798401 0.050936799
-0.02611593 -0.059798401 0.050936799
-0.02611593 -0.059798401 0.050936799
-0.02611593 -0.059798401 0.050936799
-0.02611593 -0.059798401 0.050936799
-0.02611593 -0.059798401 0.050936799
-0.0095290653 -0.0073160157 -0.034453344
-0.02611593 -0.059798401 0.050936799
-0.02611593 -0.059798401 0.050936799
-0.02611593 -0.059798401 0.050936799
-0.02611593 -0.059798401 0.050936799
-0.02611593 -0.059798401 0.050936799
-0.02611593 -0.059798401 0.050936799
-0.02611593 -0.059798401 0.050936799
-0.013513538 -0.0083195763 -0.033396542
-0.02611593 -0.059798401 0.050936799
-0.02611593 -0.059798401 0.050936799
-0.02611593 -0.059798401 0.050936799
-0.02611593 -0.059798401 0.050936799
-0.02611593 -0.059798401 0.050936799
-0.02611593 -0.059798401 0.050936799
-0.02611593 -0.059798401 0.050936799
-0.017512806 -0.0083052209 -0.033321377
-0.02611593 -0.059798401 0.050936799
-0.02611593 -0.059798401 0.050936799
-0.02611593 -0.059798401 0.050936799
-0.02611593 -0.059798401 0.050936799
-0.02611593 -0.059798401 0.050936799
-0.02611593 -0.059798401 0.050936799
-0.02611593 -0.059798401 0.050936799
-0.021549519 -0.0082546864 -0.035245534
-0.02611593 -0.059798401 0.050936799
-0.02611593 -0.059798401 0.050936799
-0.02611593 -0.059798401 0.050936799
-0.02611593 -0.059798401 0.050936799
-0.02611593 -0.059798401 0.050936799
-0.02611593 -0.059798401 0.050936799
-0.02611593 -0.059798401 0.050936799
-0.024582488 -0.0072079152 -0.03717047
-0.02611593 -0.059798401 0.050936799
-0.02611593 -0.059798401 0.050936799
-0.02611593 -0.059798401 0.050936799
-0.02611593 -0.059798401 0.050936799
-0.02611593 -0.059798401 0.050936799
-0.02611593 -0.059798401 0.050936799
-0.02611593 -0.059798401 0.050936799
-0.027581939 -0.0071971482 -0.037114099
-0.02611593 -0.059798401 0.050936799
-0.02611593 -0.059798401 0.050936799
-0.02611593 -0.059798401 0.050936799
-0.02611593 -0.059798401 0.050936799
-0.02611593 -0.059798401 0.050936799
-0.02611593 -0.059798401 0.050936799
-0.02611593 -0.059798401 0.050936799
-0.031581208 -0.0071827928 -0.037038937
-0.02611593 -0.059798401 0.050936799
-0.02611593 -0.059798401 0.050936799
-0.02611593 -0.059798401 0.050936799
-0.02611593 -0.059798401 0.050936799
-0.02611593 -0.059798401 0.050936799
-0.02611593 -0.059798401 0.050936799
-0.02611593 -0.059798401 0.050936799
-0.035580475 -0.0071684364 -0.036963776
-0.02611593 -0.059798401 0.050936799
-0.02611593 -0.059798401 0.050936799
-0.02611593 -0.059798401 0.050936799
-0.02611593 -0.059798401 0.050936799
-0.02611593 -0.059798401 0.050936799
-0.02611593 -0.059798401 0.050936799
-0.02611593 -0.059798401 0.050936799
-0.02611593 -0.059798401 0.050936799
-0.02611593 -0.059798401 0.050936799
-0.02611593 -0.059798401 0.050936799
-0.02611593 -0.059798401 0.050936799
-0.02611593 -0.059798401 0.050936799
-0.02611593 -0.059798401 0.050936799
-0.02611593 -0.059798401 0.050936799
-0.02611593 -0.059798401 0.050936799
-0.044593625 -0.006118217 -0.037776299
-0.02611593 -0.059798401 0.050936799
-0.02611593 -0.059798401 0.050936799
-0.02611593 -0.059798401 0.050936799
-0.02611593 -0.059798401 0.050936799
-0.02611593 -0.059798401 0.050936799
-0.02611593 -0.059798401 0.050936799
-0.02611593 -0.059798401 0.050936799
-0.047540832 -0.0071615484 -0.034738962
-0.02611593 -0.059798401 0.050936799
-0.02611593 -0.059798401 0.050936799
-0.02611593 -0.059798401 0.050936799
-0.02611593 -0.059798401 0.050936799
-0.02611593 -0.059798401 0.050936799
-0.02611593 -0.059798401 0.050936799
-0.02611593 -0.059798401 0.050936799
-0.05152138 -0.0071652811 -0.033664141
-0.02611593 -0.059798401 0.050936799
-0.02611593 -0.059798401 0.050936799
-0.02611593 -0.059798401 0.050936799
-0.02611593 -0.059798401 0.050936799
-0.02611593 -0.059798401 0.050936799
-0.02611593 -0.059798401 0.050936799
-0.02611593 -0.059798401 0.050936799
-0.055535443 -0.006133006 -0.034570619
-0.02611593 -0.059798401 0.050936799
-0.02611593 -0.059798401 0.050936799
-0.02611593 -0.059798401 0.050936799
-0.02611593 -0.059798401 0.050936799
-0.02611593 -0.059798401 0.050936799
-0.02611593 -0.059798401 0.050936799
-0.061437722 -0.010219326 -0.02853198
-0.060545392 -0.0040973113 -0.035440288
-0.02611593 -0.059798401 0.050936799
-0.066444658 -0.012201043 -0.028474063
-0.02611593 -0.059798401 0.050936799
-0.02611593 -0.059798401 0.050936799
-0.02611593 -0.059798401 0.050936799
-0.02611593 -0.059798401 0.050936799
-0.02611593 -0.059798401 0.050936799
-0.064511143 -0.0051189642 -0.033383828
-0.02611593 -0.059798401 0.050936799
-0.071435891 -0.010183437 -0.028344076
-0.02611593 -0.059798401 0.050936799
-0.02611593 -0.059798401 0.050936799
-0.02611593 -0.059798401 0.050936799
-0.02611593 -0.059798401 0.050936799
-0.071461558 -0.0071477704 -0.030289337
-0.070554435 -0.0020436714 -0.036216013
-0.02611593 -0.059798401 0.050936799
-0.075397715 -0.01020526 -0.026269596
-0.02611593 -0.059798401 0.050936799
-0.02611593 -0.059798401 0.050936799
-0.065417349 -0.0052058208 -0.028366726
-0.02611593 -0.059798401 0.050936799
-0.074404828 -0.0071912706 -0.027233988
-0.073482923 -0.0031050956 -0.032179017
-0.02611593 -0.059798401 0.050936799
-0.079374328 -0.0092091653 -0.025176756
-0.02611593 -0.059798401 0.050936799
-0.02611593 -0.059798401 0.050936799
-0.068398081 -0.0052131428 -0.027310695
-0.02611593 -0.059798401 0.050936799
-0.07836666 -0.0072130933 -0.025159508
-0.077444747 -0.0031269179 -0.030104522
-0.02611593 -0.059798401 0.050936799
-0.085384101 -0.0071698818 -0.026027631
-0.02611593 -0.059798401 0.050936799
-0.02611593 -0.059798401 0.050936799
-0.073393233 -0.0041953679 -0.027198724
-0.02611593 -0.059798401 0.050936799
-0.084376425 -0.0051738094 -0.026010387
-0.083469316 -6.9718109e-05 -0.031937055
-0.02611593 -0.059798401 0.050936799
-0.09137515 -0.0051486869 -0.025878854
-0.02611593 -0.059798401 0.050936799
-0.02611593 -0.059798401 0.050936799
-0.076340444 -0.0052386988 -0.024161387
-0.02611593 -0.059798401 0.050936799
-0.090386204 -0.0031345291 -0.026861265
-0.090478897 0.0019731547 -0.032769144
-0.02611593 -0.059798401 0.050936799
-0.096351571 -0.0041490011 -0.024767224
-0.02611593 -0.059798401 0.050936799
-0.02611593 -0.059798401 0.050936799
-0.083383553 -0.0021598174 -0.026974779
-0.02611593 -0.059798401 0.050936799
-0.098425195 0.00094777194 -0.029637847
-0.094440721 0.0019513322 -0.030694656
-0.02611593 -0.059798401 0.050936799
-0.10435313 -0.00010288518 -0.025544483
-0.02611593 -0.059798401 0.050936799
-0.02611593 -0.059798401 0.050936799
-0.087341443 -0.0011818128 -0.024882279
-0.02611593 -0.059798401 0.050936799
-0.10437879 0.0029327848 -0.027489744
-0.10447542 0.0070406348 -0.033415642
-0.02611593 -0.059798401 0.050936799
-0.11032546 0.0019002205 -0.024396043
-0.02611593 -0.059798401 0.050936799
-0.02611593 -0.059798401 0.050936799
-0.092336603 -0.0001640413 -0.024770312
-0.02611593 -0.059798401 0.050936799
-0.11136965 0.0049575688 -0.027322177
-0.10943314 0.0080222394 -0.031304352
-0.02611593 -0.059798401 0.050936799
-0.12134124 0.0069750226 -0.026098572
-0.02611593 -0.059798401 0.050936799
-0.02611593 -0.059798401 0.050936799
-0.099323533 0.0028605731 -0.024584722
-0.02611593 -0.059798401 0.050936799
-0.11734199 0.0069606667 -0.026173737
-0.11540546 0.010025345 -0.030155908
-0.02611593 -0.059798401 0.050936799
-0.13133851 0.012028154 -0.026820235
-0.02611593 -0.059798401 0.050936799
-0.02611593 -0.059798401 0.050936799
-0.10732901 0.0059068655 -0.02538
-0.02611593 -0.059798401 0.050936799
-0.12835385 0.013035307 -0.027858254
-0.1274398 0.015121825 -0.032839313
-0.02611593 -0.059798401 0.050936799
-0.14030242 0.016041689 -0.025579389
-0.02611593 -0.059798401 0.050936799
-0.02611593 -0.059798401 0.050936799
-0.11533449 0.0089531578 -0.026175279
-0.02611593 -0.059798401 0.050936799
-0.1373217 0.016049009 -0.02663542
-0.13337466 0.017088752 -0.029691547
-0.02611593 -0.059798401 0.050936799
-0.15026617 0.020058811 -0.024319749
-0.02611593 -0.059798401 0.050936799
-0.02611593 -0.059798401 0.050936799
-0.12332124 0.011981354 -0.025970899
-0.02611593 -0.059798401 0.050936799
-0.15131035 0.023116151 -0.027245887
-0.14234252 0.020102456 -0.028468713
-0.02611593 -0.059798401 0.050936799
-0.16425481 0.027125951 -0.024930209
-0.02611593 -0.059798401 0.050936799
-0.02611593 -0.059798401 0.050936799
-0.13633274 0.018063163 -0.027617838
-0.02611593 -0.059798401 0.050936799
-0.16328853 0.028158372 -0.026930306
-0.15432069 0.02514467 -0.028153133
-0.02611593 -0.059798401 0.050936799
-0.18223491 0.03620711 -0.025429476
-0.02611593 -0.059798401 0.050936799
-0.02611593 -0.059798401 0.050936799
-0.14731501 0.022101965 -0.027339067
-0.02611593 -0.059798401 0.050936799
-0.18128733 0.037257619 -0.028429233
-0.16830936 0.032211818 -0.0287636
-0.02611593 -0.059798401 0.050936799
-0.20321052 0.046298865 -0.025854357
-0.02611593 -0.059798401 0.050936799
-0.02611593 -0.059798401 0.050936799
-0.1522353 0.023047384 -0.023228452
-0.02611593 -0.059798401 0.050936799
-0.19925262 0.045320854 -0.027946856
-0.18427894 0.039268047 -0.028336819
-0.02611593 -0.059798401 0.050936799
-0.22615917 0.058379363 -0.025205947
-0.02611593 -0.059798401 0.050936799
-0.02611593 -0.059798401 0.050936799
-0.17125262 0.032168318 -0.025708243
-0.02611593 -0.059798401 0.050936799
-0.21819115 0.055369258 -0.026409984
-0.20626915 0.05038131 -0.029724553
-0.02611593 -0.059798401 0.050936799
-0.25110355 0.071466878 -0.024501946
-0.02611593 -0.059798401 0.050936799
-0.02611593 -0.059798401 0.050936799
-0.18921793 0.040231545 -0.025225867
-0.02611593 -0.059798401 0.050936799
-0.24212483 0.066435434 -0.024761155
-0.22519681 0.058411956 -0.027224056
-0.02611593 -0.059798401 0.050936799
-0.96338665 0.47879979 -0.21686304
-0.02611593 -0.059798401 0.050936799
-0.02611593 -0.059798401 0.050936799
-0.20917891 0.049301799 -0.024687886
-0.97302115 0.48049164 -0.19764555
-0.2589967 0.074404635 -0.019299254
-0.24811193 0.069456466 -0.024594352
-0.02611593 -0.059798401 0.050936799
-0.98464352 0.48519018 -0.17833641
-0.02611593 -0.059798401 0.050936799
-0.02611593 -0.059798401 0.050936799
-0.23714143 0.062418163 -0.02492718
-1.0012612 0.49090648 -0.15891531
-0.97988486 0.48138994 -0.19049838
-0.95547956 0.46982694 -0.22017454
-0.02611593 -0.059798401 0.050936799
-1.011869 0.49458346 -0.13864331
-0.99351084 0.48509586 -0.17116967
-0.97413421 0.47558653 -0.20271513
-0.25601295 0.070394546 -0.019427702
-1.0234727 0.49926391 -0.11833452
-1.0041227 0.48777306 -0.15091571
-0.98273939 0.47523895 -0.18155314
-0.02611593 -0.059798401 0.050936799
-1.0320661 0.50191587 -0.097118452
-1.01773 0.49146086 -0.13058734
-1.0013753 0.48098052 -0.16309413
-0.97400498 0.46542546 -0.19389841
-1.0506716 0.51063877 -0.077605709
-1.0293375 0.49514145 -0.11029656
-1.0069624 0.48060408 -0.14098884
-0.98259532 0.46405992 -0.17175475
-1.0622379 0.51528311 -0.055297598
-1.040908 0.49878585 -0.088006452
-1.0285711 0.48833805 -0.12143774
-1.0052267 0.47081572 -0.15320253
-1.0748188 0.52094883 -0.033952318
-1.0554922 0.50345898 -0.066641621
-1.0391494 0.48997918 -0.099202476
-1.014809 0.47145343 -0.13100407
-1.0943638 0.53062093 -0.011403784
-1.0670772 0.50812131 -0.045333154
-1.0467321 0.49060979 -0.077041581
-1.0274056 0.47311991 -0.10973087
-1.1049265 0.53626144 0.010903575
-1.0786247 0.51274741 -0.022025377
-1.0643082 0.49729332 -0.055584349
-1.0449895 0.47780383 -0.088309675
-1.1214573 0.54490489 0.034377385
-1.0961782 0.52041274 0.00044955313
