# .PCD v0.7 - Point Cloud Data file format
VERSION 0.7
FIELDS x y z
SIZE 4 4 4
TYPE F F F
COUNT 1 1 1
WIDTH 1385
HEIGHT 1
VIEWPOINT 0 0 0 1 0 0 0
POINTS 1385
DATA ascii
-0.22704732 0.61310053 0.93917191
-0.27920207 0.61549431 0.98420697
-0.32942513 0.6149357 1.0261514
-0.37870151 0.61041027 1.0660056
-0.20894916 0.61494511 0.94386798
-0.25911605 0.6143322 0.98881143
-0.30736601 0.61178488 1.0296826
-0.35745013 0.61309928 1.0786605
-0.18902469 0.6109283 0.9404211
-0.23808636 0.61322081 0.99039811
-0.28712931 0.61549532 1.0413748
-0.33241427 0.60895598 1.0811177
-0.169972 0.61080587 0.94306308
-0.21801905 0.61207688 0.99400294
-0.265021 0.61530781 1.0469593
-0.31205735 0.6145575 1.0988441
-0.1509154 0.61168319 0.94572306
-0.19701204 0.60998374 0.99457192
-0.24108639 0.60925889 1.0444009
-0.28704017 0.61043239 1.1003014
-0.13183613 0.61354232 0.94940078
-0.17691815 0.61082131 0.9992125
-0.21990994 0.61202025 1.0530573
-0.2638306 0.61215043 1.1109016
-0.11284353 0.61247426 0.94902575
-0.1558018 0.61263716 1.0048519
-0.19782037 0.6118508 1.0576422
-0.2388095 0.60902506 1.112377
-0.093873583 0.61042452 0.94763303
-0.13485487 0.6095984 1.0024039
-0.17477232 0.6107142 1.060191
-0.21566001 0.60979766 1.1199602
-0.07580892 0.61330515 0.95034778
-0.11479843 0.6104722 1.0050451
-0.1536146 0.61349362 1.0678477
-0.19155204 0.60960299 1.1255072
-0.056793682 0.6132189 0.9509905
-0.093746111 0.61034262 1.0076494
-0.1306306 0.61041158 1.0673615
-0.16648567 0.60844111 1.1290181
-0.03783853 0.61218709 0.94861609
-0.0737537 0.60927099 1.0072557
-0.10766531 0.60734761 1.0658756
-0.14326429 0.6131587 1.1396723
-0.018864652 0.61113709 0.94724143
-0.052802838 0.60723221 1.0048256
-0.085481197 0.61210495 1.0745493
-0.11740887 0.60617512 1.1330596
-0.0019731615 0.60816711 0.94186962
-0.031742662 0.60910219 1.0074661
-0.062508047 0.61104071 1.0730994
-0.09222924 0.60992193 1.1416589
0.017027291 0.60909873 0.94153059
-0.011810344 0.60708505 1.0040553
-0.039584137 0.60701311 1.0695963
-0.067241669 0.60783255 1.1411531
0.035073221 0.61199743 0.94324577
0.0081859967 0.60701329 1.0036794
-0.016588345 0.60693061 1.069164
-0.042144775 0.60965198 1.1457177
0.052964535 0.60902375 0.93785512
0.028122243 0.60599589 1.0002867
0.0045132078 0.60976428 1.0738218
-0.017258672 0.60565346 1.1401775
0.071946263 0.60997343 0.93651652
0.049141046 0.6069023 1.0009097
0.027444975 0.60773629 1.0703546
0.0067142854 0.60458559 1.1387088
0.08990553 0.609945 0.93417895
0.069099948 0.60686672 0.99853456
0.050444692 0.60865355 1.0699403
0.031856477 0.60836858 1.1453087
0.10782342 0.608953 0.92982405
0.088994816 0.60488564 0.99312443
0.073357739 0.60664374 1.0654736
0.056746509 0.60536975 1.1397866
0.12576789 0.6099425 0.92650485
0.10891234 0.60388643 0.98873192
0.095293619 0.60561931 1.0620432
0.082764402 0.60625821 1.1403158
0.14366704 0.6089685 0.92115027
0.12882985 0.60288715 0.98433954
0.11827461 0.60655463 1.0606294
0.10765836 0.60425925 1.1348118
0.16167554 0.61190337 0.92086607
0.14986046 0.60679305 0.98501658
0.14017303 0.60556626 1.0551996
0.13155642 0.60326374 1.1293445
0.17959736 0.61191112 0.91652924
0.17082308 0.60775363 0.98264074
0.16204883 0.60359615 1.0487523
0.15645431 0.60226458 1.1238583
0.1974965 0.61093718 0.91117471
0.18965803 0.60483062 0.97423238
0.1850111 0.60454965 1.0463387
0.18141621 0.60321093 1.1214073
0.21437715 0.60998487 0.90483928
0.20856096 0.60485291 0.96887708
0.20797729 0.60650295 1.0439433
0.20631409 0.60221171 1.1159213
0.23126169 0.61003232 0.89852184
0.22948222 0.60484993 0.9644838
0.22881582 0.60457259 1.0355153
0.23226105 0.60417247 1.1124697
0.24920616 0.61102188 0.8952027
0.24943027 0.60683215 0.96114504
0.24961296 0.60167867 1.0250701
0.25614432 0.60419488 1.1060208
0.26606804 0.61008763 0.88786757
0.26826912 0.60490894 0.95275468
0.27151534 0.60169011 1.0196583
0.27991825 0.60030836 1.0945014
0.28293389 0.61015326 0.8805505
0.28607079 0.60302562 0.94238383
0.29336154 0.60175592 1.0112478
0.3037641 0.60036695 1.0860533
0.29981843 0.61020082 0.87423313
0.3059774 0.60404408 0.93702769
0.31633165 0.60470903 1.0088702
0.32658747 0.59944737 1.0766059
0.31563917 0.60830653 0.86489952
0.32484287 0.60410249 0.92967308
0.33504641 0.59989494 0.99442792
0.35147446 0.60046601 1.0701563
0.33256897 0.61031753 0.8606174
0.34370834 0.60416096 0.9223184
0.35691527 0.60094243 0.9870348
0.3742604 0.59958267 1.0587097
0.34941614 0.61040121 0.8523007
0.36049142 0.60229927 0.91096663
0.37672043 0.6000517 0.9766444
0.39912868 0.60061932 1.0512605
0.36423701 0.60851055 0.84298587
0.37934211 0.60337561 0.90263039
0.39757076 0.60112089 0.96827054
0.40516797 0.5764305 1.004694
0.38214794 0.61053604 0.83768541
0.39925268 0.60539389 0.89729226
0.41735724 0.60024822 0.95688045
0.44370461 0.59985602 1.0284042
0.39797652 0.61064142 0.82838774
0.41501725 0.60355389 0.8849597
0.44025242 0.60327369 0.95050436
0.46647573 0.59999049 1.0159762
0.41073376 0.60681248 0.81607544
0.43491301 0.60659015 0.87864
0.45901647 0.60142297 0.93811536
0.48926559 0.60010695 1.0045477
0.42864865 0.60983783 0.81079292
0.45065492 0.60376841 0.86528969
0.47778833 0.60157186 0.92576241
0.51208198 0.60220492 0.99415493
0.44345871 0.60996491 0.80051452
0.4684644 0.6038847 0.85495484
0.49964634 0.60463709 0.91740578
0.53281599 0.60238278 0.97976512
0.45722359 0.60813206 0.78821945
0.48525533 0.60402268 0.84363914
0.51735032 0.60184437 0.90201861
0.55246365 0.59963709 0.96134132
0.47409728 0.61019731 0.78093845
0.50100112 0.60220075 0.83030683
0.53508103 0.60103315 0.88766706
0.57115668 0.59885854 0.94497168
0.48992586 0.61030269 0.77164084
0.51779211 0.60233867 0.81899112
0.5538342 0.6012001 0.87431449
0.59497678 0.60195279 0.93457818
0.50062722 0.60653526 0.75636721
0.53663188 0.60543281 0.80969125
0.57263249 0.60333055 0.86299723
0.61160624 0.59923601 0.91521114
0.51748222 0.60861862 0.74808645
0.55344552 0.60655248 0.79939318
0.59138966 0.60449737 0.8496626
0.63232148 0.59943193 0.89982164
0.53333741 0.61070561 0.73982459
0.56713158 0.60379225 0.78308147
0.60501176 0.59979165 0.83031589
0.65202224 0.60064942 0.88346928
0.54403883 0.60693806 0.7245509
0.58393031 0.60592985 0.77180183
0.62583637 0.6038965 0.81999671
0.67072302 0.60187054 0.8671357
0.55985647 0.60906124 0.71428967
0.59968406 0.60610759 0.75850558
0.63844383 0.60021228 0.79968721
0.68837887 0.60113162 0.84878558
0.57569295 0.6111663 0.70502812
0.61237425 0.60435075 0.74223065
0.65618235 0.60140079 0.78537172
0.70399362 0.59943634 0.82845563
0.5863983 0.60839856 0.68977243
0.62712806 0.60453206 0.72895318
0.67290235 0.60261095 0.77007538
0.71758604 0.59676647 0.80714566
0.60019368 0.6095472 0.67853111
0.64493066 0.60766584 0.71767271
0.68655884 0.60188645 0.75180036
0.73831326 0.59996188 0.7918101
0.61601537 0.61267012 0.66828793
0.65557593 0.60395271 0.69940007
0.70225632 0.60211849 0.7355051
0.75497699 0.60122639 0.77351487
0.62571698 0.60890627 0.65303302
0.6733824 0.60808635 0.68813765
0.71793902 0.60336834 0.71822834
0.76957709 0.60055256 0.75222206
0.63947099 0.60909116 0.63977432
0.68403548 0.60637283 0.66990107
0.73261803 0.60362202 0.70095223
0.78622222 0.60183507 0.73292708
0.64918047 0.60732698 0.62455547
0.70184195 0.61050659 0.6586386
0.74731958 0.6048575 0.68469375
0.79882276 0.60116845 0.71167189
0.66703224 0.61342418 0.61532837
0.71249509 0.60879296 0.64040202
0.75791264 0.60219836 0.66344017
0.81344944 0.60247624 0.69141483
0.67876405 0.61263448 0.60108966
0.7241894 0.60803956 0.62416393
0.77057326 0.60247731 0.64520192
0.82705373 0.60280585 0.67015898
0.69049972 0.61284471 0.58686894
0.73382008 0.60534787 0.60492837
0.787305 0.60668695 0.6299597
0.84270293 0.60509187 0.65090072
0.69816422 0.60912412 0.56965226
0.7495895 0.60952485 0.59170419
0.80096936 0.60796213 0.61172074
0.8522439 0.60349041 0.6266849
0.70890009 0.60933793 0.55545032
0.76229149 0.61076748 0.57548332
0.80854428 0.60533196 0.58952379
0.86585599 0.6058197 0.60546505
0.72468823 0.6134969 0.54322582
0.76889998 0.6071049 0.55528653
0.82016766 0.6056506 0.56930512
0.87441593 0.60420382 0.58226764
0.73440564 0.61373234 0.52804303
0.7795797 0.60737294 0.53808558
0.83080989 0.60595489 0.55010486
0.88600576 0.60555845 0.56006759
0.74410027 0.61298609 0.51184249
0.79126316 0.60863715 0.52088386
0.84143341 0.60627717 0.52990496
0.89659572 0.60691684 0.53788644
0.75379884 0.61323965 0.49566004
0.8009243 0.60892689 0.50270212
0.85206079 0.60759932 0.50972307
0.90515959 0.60630071 0.51470709
0.75944108 0.60854453 0.47746328
0.80856317 0.60824203 0.48354018
0.86168456 0.60792524 0.48954189
0.91170502 0.60570991 0.49056566
0.77218837 0.61175054 0.46327782
0.81922811 0.60952801 0.46535763
0.87029362 0.6092726 0.46839792
0.92229891 0.60806805 0.46840248
0.78289074 0.61300039 0.44709456
0.8268857 0.60882503 0.44719535
0.87789506 0.60862392 0.44723669
0.92784458 0.60748082 0.44427985
0.79158956 0.61325753 0.43093085
0.83755451 0.61111081 0.42903081
0.88652289 0.60995328 0.42709237
0.93539768 0.60888612 0.42015567
0.7982434 0.61155826 0.41276941
0.84519339 0.61042595 0.4098689
0.89210594 0.60932982 0.40496907
0.93994355 0.60830241 0.39605182
0.80794591 0.61281163 0.39660493
0.85181373 0.60976285 0.3897261
0.8997153 0.61068082 0.3838439
0.94954157 0.611664 0.37392545
0.81260014 0.61111969 0.37848103
0.85845673 0.61008137 0.370601
0.90429848 0.61006105 0.36173937
0.95609486 0.61307281 0.34982008
0.82027644 0.61039865 0.36131847
0.86812967 0.61337054 0.35247326
0.91190785 0.61141199 0.34061417
0.96367455 0.61645973 0.32673159
0.82996815 0.61366969 0.34419036
0.87273163 0.61273265 0.33136842
0.91749871 0.61278826 0.31852689
0.96219093 0.61291617 0.30168676
0.83359987 0.61099958 0.32506761
0.88037837 0.61404741 0.31224257
0.92308968 0.61416447 0.29643965
0.96474111 0.61333948 0.27763852
0.84330636 0.61325276 0.30892116
0.88096935 0.6104244 0.29115883
0.92769957 0.61552626 0.27537084
0.97030246 0.61675167 0.25358799
0.85197556 0.61554575 0.29079416
0.88559401 0.61076826 0.27107164
0.92625338 0.61194658 0.25232536
0.96884543 0.61518961 0.22957885
0.85460752 0.61287922 0.27169019
0.8912223 0.61210841 0.25098369
0.93487424 0.61629349 0.23123543
0.60435706 0.3680509 0.14790489
0.85926956 0.6131869 0.25360233
0.89685071 0.61344844 0.23089574
0.60250598 0.38196525 0.15319303
0.58999813 0.35741055 0.13097551
0.8699463 0.61747235 0.2354738
0.59464037 0.39190182 0.15852185
0.57307309 0.36141661 0.13436601
-0.02611593 -0.059798401 0.050936799
0.589782 0.40382731 0.16383031
0.58128124 0.38125786 0.14157367
0.57382554 0.36064833 0.1213336
-0.02611593 -0.059798401 0.050936799
0.56337816 0.38123202 0.14691022
0.56595212 0.36858526 0.12662639
0.56351912 0.35395676 0.10640046
-0.02611593 -0.059798401 0.050936799
0.55406368 0.37253717 0.13192225
0.55764514 0.3618865 0.11165567
0.55724233 0.35023218 0.09244588
0.54575789 0.33167288 0.070317678
-0.02611593 -0.059798401 0.050936799
0.55037957 0.3561478 0.098683484
0.55697632 0.34948564 0.078432605
0.55454028 0.33887455 0.057279099
0.55157632 0.36799744 0.10687821
0.54612112 0.35239795 0.085690983
0.55472934 0.34872818 0.065456569
0.56231904 0.34507999 0.044241294
0.54731786 0.36424762 0.093885705
0.54487407 0.35163692 0.072696164
0.55547094 0.34997761 0.051460546
0.55005425 0.33935919 0.03136307
0.55109644 0.36545017 0.081832632
0.55265278 0.35784227 0.059658352
0.55324674 0.35020187 0.039502192
0.55679959 0.34660423 0.016362751
0.5518716 0.36566368 0.069817901
0.55342793 0.35805577 0.047643628
0.55099976 0.34944439 0.026526161
0.5775817 0.36379734 0.0012795478
0.53758359 0.3539511 0.056869153
0.55621445 0.36126161 0.035645381
0.54976046 0.35068294 0.013567377
-0.02611593 -0.059798401 0.050936799
0.5474034 0.36111298 0.045811106
0.55196005 0.35851157 0.022670891
0.55351329 0.35492116 -0.00043096766
-0.02611593 -0.059798401 0.050936799
0.55919307 0.37030357 0.032752194
0.55872017 0.3647387 0.008652214
0.55426276 0.3581703 -0.014390957
0.59579945 0.38555765 -0.044683494
0.56797159 0.3765054 0.019695589
0.56650281 0.37194395 -0.0043675788
0.56403416 0.36738616 -0.028411951
0.60052645 0.39282796 -0.060645893
0.5617097 0.37176293 0.0067226477
0.5662446 0.37319705 -0.018344812
0.57677943 0.37962684 -0.044434585
-0.02611593 -0.059798401 0.050936799
0.55547035 0.36800221 -0.0052326135
0.56600517 0.37443203 -0.03132239
0.58151722 0.38487941 -0.059433363
0.62492734 0.41840327 -0.097652651
-0.02611593 -0.059798401 0.050936799
0.57774264 0.38467669 -0.047362268
0.57926339 0.38713947 -0.073355004
0.9021138 0.62990719 -0.18404573
0.59000838 0.39541468 -0.035393611
0.58250326 0.39091101 -0.061343361
0.63090938 0.42843428 -0.1005842
0.89172244 0.63032293 -0.2048507
0.56375122 0.37669212 -0.045244027
0.58423376 0.39417461 -0.076321796
0.88613451 0.62492931 -0.18183583
0.88433838 0.63272762 -0.22567603
0.58248836 0.39192888 -0.062325004
0.61592203 0.42145312 -0.098429143
0.88175392 0.62832302 -0.20269951
0.86597717 0.62611902 -0.24345779
0.57924557 0.39217481 -0.07526423
0.88713133 0.62894315 -0.18278223
0.87438071 0.62870991 -0.2225612
0.20402831 0.11980733 -0.031151053
0.60296005 0.41142911 -0.094366409
0.88073921 0.62934452 -0.20366237
-0.02611593 -0.059798401 0.050936799
0.18600319 0.10785588 -0.030029383
0.88413882 0.62593633 -0.18178023
0.87436587 0.6297279 -0.22354287
0.20802064 0.12281055 -0.032171823
-0.02611593 -0.059798401 0.050936799
0.87976509 0.62631249 -0.20169829
0.86898148 0.63212532 -0.24440575
0.18999551 0.11085911 -0.031050149
0.15893745 0.089955859 -0.029846374
0.87836516 0.62971354 -0.22361803
0.2030433 0.11879301 -0.030150622
-0.02611593 -0.059798401 0.050936799
-0.02611593 -0.059798401 0.050936799
0.8640219 0.62307245 -0.2404753
0.18899179 0.10986286 -0.031049378
0.16293369 0.093958899 -0.030849122
0.13887523 0.078047752 -0.030686442
0.20604667 0.11978207 -0.030188974
-0.02611593 -0.059798401 0.050936799
-0.02611593 -0.059798401 0.050936799
-0.02611593 -0.059798401 0.050936799
0.18402529 0.10382757 -0.02806456
0.16790317 0.095976785 -0.032906353
0.14286365 0.080051154 -0.031725235
0.11983551 0.067117818 -0.030527625
-0.02611593 -0.059798401 0.050936799
-0.02611593 -0.059798401 0.050936799
-0.02611593 -0.059798401 0.050936799
-0.02611593 -0.059798401 0.050936799
0.1569556 0.084927693 -0.027899567
0.14486721 0.081043795 -0.031744797
0.12779753 0.072142512 -0.033586841
0.10381788 0.057158843 -0.029407501
-0.02611593 -0.059798401 0.050936799
-0.02611593 -0.059798401 0.050936799
-0.02611593 -0.059798401 0.050936799
-0.02611593 -0.059798401 0.050936799
0.13989678 0.074008666 -0.02877799
0.12879342 0.071139082 -0.033623651
0.10780236 0.058162414 -0.030464306
0.089803815 0.048192538 -0.028306942
-0.02611593 -0.059798401 0.050936799
-0.02611593 -0.059798401 0.050936799
-0.02611593 -0.059798401 0.050936799
-0.02611593 -0.059798401 0.050936799
0.12283798 0.063089639 -0.02965641
0.11177203 0.060183901 -0.032502752
0.095762268 0.052224595 -0.031346597
0.077801175 0.04221854 -0.027189907
-0.02611593 -0.059798401 0.050936799
-0.02611593 -0.059798401 0.050936799
-0.02611593 -0.059798401 0.050936799
-0.02611593 -0.059798401 0.050936799
0.10979021 0.055155743 -0.030555945
0.10071304 0.054260571 -0.034403499
0.082766742 0.043236598 -0.029265158
0.06679441 0.035241112 -0.026109673
-0.02611593 -0.059798401 0.050936799
-0.02611593 -0.059798401 0.050936799
-0.02611593 -0.059798401 0.050936799
-0.02611593 -0.059798401 0.050936799
0.087847665 0.040128715 -0.024414867
0.089687549 0.04730124 -0.034322932
0.073733956 0.03928766 -0.030167781
0.060735423 0.034317084 -0.029013935
-0.02611593 -0.059798401 0.050936799
-0.02611593 -0.059798401 0.050936799
-0.02611593 -0.059798401 0.050936799
-0.02611593 -0.059798401 0.050936799
0.081762083 0.037223119 -0.02835482
0.079669744 0.042337984 -0.034225117
0.066689931 0.03734931 -0.032071598
0.052721173 0.030346479 -0.028935686
-0.02611593 -0.059798401 0.050936799
-0.02611593 -0.059798401 0.050936799
-0.02611593 -0.059798401 0.050936799
-0.02611593 -0.059798401 0.050936799
0.071759075 0.031241942 -0.027275369
0.06866692 0.03636039 -0.033126868
0.056686923 0.031368133 -0.030992154
0.043755427 0.024325529 -0.025875695
-0.02611593 -0.059798401 0.050936799
-0.02611593 -0.059798401 0.050936799
-0.02611593 -0.059798401 0.050936799
-0.02611593 -0.059798401 0.050936799
0.062741086 0.026275089 -0.027196344
0.057678882 0.029364875 -0.031046983
0.050661445 0.029408086 -0.031915102
0.036759716 0.020333247 -0.024816576
-0.02611593 -0.059798401 0.050936799
-0.02611593 -0.059798401 0.050936799
-0.02611593 -0.059798401 0.050936799
-0.02611593 -0.059798401 0.050936799
0.053741816 0.021290148 -0.026117656
0.051649485 0.026405014 -0.031987946
0.042680718 0.024401475 -0.029855549
0.03174191 0.020369282 -0.025722284
-0.02611593 -0.059798401 0.050936799
-0.02611593 -0.059798401 0.050936799
-0.02611593 -0.059798401 0.050936799
-0.02611593 -0.059798401 0.050936799
0.045723639 0.016319714 -0.026057422
0.046609025 0.025459304 -0.033911347
0.038625281 0.024470096 -0.032779373
0.027686471 0.020437904 -0.028646108
-0.02611593 -0.059798401 0.050936799
-0.02611593 -0.059798401 0.050936799
-0.02611593 -0.059798401 0.050936799
-0.02611593 -0.059798401 0.050936799
0.040701907 0.015355916 -0.026981156
0.038628291 0.020452693 -0.03185178
0.029663455 0.019448984 -0.029701367
0.020724284 0.015409606 -0.025605679
-0.02611593 -0.059798401 0.050936799
-0.02611593 -0.059798401 0.050936799
-0.02611593 -0.059798401 0.050936799
-0.02611593 -0.059798401 0.050936799
0.03173615 0.0093349721 -0.023921169
0.031617794 0.017478317 -0.031774301
0.023667566 0.015453106 -0.028661035
0.01573607 0.0134098 -0.024548102
-0.02611593 -0.059798401 0.050936799
-0.02611593 -0.059798401 0.050936799
-0.02611593 -0.059798401 0.050936799
-0.02611593 -0.059798401 0.050936799
0.027695509 0.008385676 -0.025863342
0.027581075 0.017528851 -0.033698473
0.021586102 0.018550221 -0.033567708
0.011699353 0.013460333 -0.026472267
-0.02611593 -0.059798401 0.050936799
-0.02611593 -0.059798401 0.050936799
-0.02611593 -0.059798401 0.050936799
-0.02611593 -0.059798401 0.050936799
0.021703547 0.005389628 -0.024804994
0.022574138 0.015547141 -0.033640556
0.014642636 0.013503834 -0.029527616
0.0086851064 0.01448902 -0.027397539
-0.02611593 -0.059798401 0.050936799
-0.02611593 -0.059798401 0.050936799
-0.02611593 -0.059798401 0.050936799
-0.02611593 -0.059798401 0.050936799
0.019636875 0.0074688238 -0.02873002
0.018537423 0.015597674 -0.035564713
0.01060592 0.013554367 -0.031451773
0.0046671168 0.014521465 -0.028322037
-0.02611593 -0.059798401 0.050936799
-0.02611593 -0.059798401 0.050936799
-0.02611593 -0.059798401 0.050936799
-0.02611593 -0.059798401 0.050936799
0.012674687 0.0024405257 -0.025689594
0.013530484 0.013615957 -0.035506796
0.0066027292 0.012568893 -0.031394631
-0.0003211 0.012521659 -0.027264457
-0.02611593 -0.059798401 0.050936799
-0.02611593 -0.059798401 0.050936799
-0.02611593 -0.059798401 0.050936799
-0.02611593 -0.059798401 0.050936799
0.0096604461 0.003469212 -0.026614871
0.0065722233 0.0095874975 -0.032448355
0.0025738683 0.014619088 -0.033282764
-0.0033392753 0.012550514 -0.028207745
-0.02611593 -0.059798401 0.050936799
-0.02611593 -0.059798401 0.050936799
-0.02611593 -0.059798401 0.050936799
-0.02611593 -0.059798401 0.050936799
0.0046347803 0.0015055845 -0.027556617
0.0025542304 0.0096199419 -0.033372857
-0.00045909802 0.015665863 -0.035207693
-0.0073385439 0.012564871 -0.028132584
-0.02611593 -0.059798401 0.050936799
-0.02611593 -0.059798401 0.050936799
-0.02611593 -0.059798401 0.050936799
-0.02611593 -0.059798401 0.050936799
0.00063551171 0.0015199401 -0.027481452
-0.0014637592 0.0096523864 -0.034297355
-0.0054473164 0.013666058 -0.034150116
-0.011352605 0.013597146 -0.029039063
-0.02611593 -0.059798401 0.050936799
-0.02611593 -0.059798401 0.050936799
-0.02611593 -0.059798401 0.050936799
-0.02611593 -0.059798401 0.050936799
-0.0024309731 0.0036027243 -0.031387679
-0.0054482315 0.0086488221 -0.033240549
-0.0094169946 0.011644574 -0.032111667
-0.014396441 0.016661672 -0.031927623
-0.02611593 -0.059798401 0.050936799
-0.02611593 -0.059798401 0.050936799
-0.02611593 -0.059798401 0.050936799
-0.02611593 -0.059798401 0.050936799
-0.0073856744 0.0005669134 -0.028348807
-0.0094514284 0.0076633478 -0.033183407
-0.013479372 0.014730778 -0.035981096
-0.018306941 0.010568509 -0.025962606
-0.02611593 -0.059798401 0.050936799
-0.02611593 -0.059798401 0.050936799
-0.02611593 -0.059798401 0.050936799
-0.02611593 -0.059798401 0.050936799
-0.011403664 0.00059935817 -0.029273305
-0.013469419 0.0076957922 -0.034107905
-0.018385759 0.009641042 -0.02997927
-0.022321003 0.011600784 -0.026869085
-0.02611593 -0.059798401 0.050936799
-0.02611593 -0.059798401 0.050936799
-0.02611593 -0.059798401 0.050936799
-0.02611593 -0.059798401 0.050936799
-0.015402933 0.00061371381 -0.029198144
-0.017498279 0.0097459871 -0.035996024
-0.021414798 0.011687641 -0.031886179
-0.025316527 0.012611382 -0.026794694
-0.02611593 -0.059798401 0.050936799
-0.02611593 -0.059798401 0.050936799
-0.02611593 -0.059798401 0.050936799
-0.02611593 -0.059798401 0.050936799
-0.02611593 -0.059798401 0.050936799
-0.021497546 0.0097603435 -0.035920862
-0.025403202 0.0096842535 -0.030847389
-0.028301183 0.011604229 -0.025756683
-0.02611593 -0.059798401 0.050936799
-0.02611593 -0.059798401 0.050936799
-0.02611593 -0.059798401 0.050936799
-0.02611593 -0.059798401 0.050936799
-0.02611593 -0.059798401 0.050936799
-0.025530331 0.0108107 -0.037827007
-0.028461831 0.013766692 -0.034717593
-0.031281911 0.011596906 -0.024700645
-0.02611593 -0.059798401 0.050936799
-0.02611593 -0.059798401 0.050936799
-0.02611593 -0.059798401 0.050936799
-0.02611593 -0.059798401 0.050936799
-0.02611593 -0.059798401 0.050936799
-0.028462747 0.0087494571 -0.033808026
-0.032412786 0.011727119 -0.031679485
-0.034281358 0.011607673 -0.024644274
-0.02611593 -0.059798401 0.050936799
-0.02611593 -0.059798401 0.050936799
-0.02611593 -0.059798401 0.050936799
-0.02611593 -0.059798401 0.050936799
-0.02611593 -0.059798401 0.050936799
-0.032384112 0.0046740444 -0.028806631
-0.035393514 0.011719797 -0.030623447
-0.038321089 0.015675619 -0.027496021
-0.02611593 -0.059798401 0.050936799
-0.02611593 -0.059798401 0.050936799
-0.02611593 -0.059798401 0.050936799
-0.02611593 -0.059798401 0.050936799
-0.02611593 -0.059798401 0.050936799
-0.036461283 0.0087781679 -0.033657704
-0.039437171 0.014787911 -0.033493221
-0.042301632 0.015671887 -0.0264212
-0.02611593 -0.059798401 0.050936799
-0.02611593 -0.059798401 0.050936799
-0.02611593 -0.059798401 0.050936799
-0.02611593 -0.059798401 0.050936799
-0.02611593 -0.059798401 0.050936799
-0.040423106 0.0087563451 -0.031583212
-0.043384194 0.013748169 -0.030437082
-0.04528236 0.015664563 -0.02536517
-0.02611593 -0.059798401 0.050936799
-0.02611593 -0.059798401 0.050936799
-0.02611593 -0.059798401 0.050936799
-0.02611593 -0.059798401 0.050936799
-0.02611593 -0.059798401 0.050936799
-0.04440365 0.0087526124 -0.030508384
-0.048442464 0.017837783 -0.034269709
-0.049307294 0.018714588 -0.02723527
-0.02611593 -0.059798401 0.050936799
-0.02611593 -0.059798401 0.050936799
-0.02611593 -0.059798401 0.050936799
-0.02611593 -0.059798401 0.050936799
-0.02611593 -0.059798401 0.050936799
-0.048417713 0.0097848875 -0.031414874
-0.051404465 0.017812375 -0.032214019
-0.052273225 0.01768934 -0.025197599
-0.02611593 -0.059798401 0.050936799
-0.02611593 -0.059798401 0.050936799
-0.02611593 -0.059798401 0.050936799
-0.02611593 -0.059798401 0.050936799
-0.02611593 -0.059798401 0.050936799
-0.052394331 0.010780977 -0.030322026
-0.055385012 0.01780864 -0.031139191
-0.058323454 0.023782212 -0.02897539
-0.02611593 -0.059798401 0.050936799
-0.02611593 -0.059798401 0.050936799
-0.02611593 -0.059798401 0.050936799
-0.02611593 -0.059798401 0.050936799
-0.053365476 0.0037314917 -0.027430385
-0.05738556 0.012798583 -0.030192036
-0.05934684 0.017786818 -0.029064707
-0.057171758 0.014599265 -0.019159734
-0.02611593 -0.059798401 0.050936799
-0.02611593 -0.059798401 0.050936799
-0.02611593 -0.059798401 0.050936799
-0.02611593 -0.059798401 0.050936799
-0.057360813 0.004745678 -0.027337208
-0.060366292 0.012791261 -0.02913601
-0.064382456 0.022858184 -0.031879649
-0.058060158 0.0094770845 -0.012233406
-0.02611593 -0.059798401 0.050936799
-0.02611593 -0.059798401 0.050936799
-0.02611593 -0.059798401 0.050936799
-0.02611593 -0.059798401 0.050936799
-0.063385382 0.0078028818 -0.029169731
-0.067416325 0.018887723 -0.03289501
-0.068348199 0.02183653 -0.029823173
-0.02611593 -0.059798401 0.050936799
-0.02611593 -0.059798401 0.050936799
-0.02611593 -0.059798401 0.050936799
-0.02611593 -0.059798401 0.050936799
-0.02611593 -0.059798401 0.050936799
-0.066313863 0.0067414539 -0.025132734
-0.071396887 0.018883988 -0.031820189
-0.074364908 0.026893396 -0.031619672
-0.02611593 -0.059798401 0.050936799
-0.02611593 -0.059798401 0.050936799
-0.02611593 -0.059798401 0.050936799
-0.02611593 -0.059798401 0.050936799
-0.02611593 -0.059798401 0.050936799
-0.072349302 0.011816408 -0.027928878
-0.077384003 0.021905009 -0.031653393
-0.072179884 0.016670849 -0.019841496
-0.02611593 -0.059798401 0.050936799
-0.02611593 -0.059798401 0.050936799
-0.02611593 -0.059798401 0.050936799
-0.02611593 -0.059798401 0.050936799
-0.02611593 -0.059798401 0.050936799
-0.076307192 0.012794416 -0.025836378
-0.083389841 0.024944123 -0.032486252
-0.079229921 0.022767305 -0.023600496
-0.083238229 0.034833886 -0.026308097
-0.02611593 -0.059798401 0.050936799
-0.02611593 -0.059798401 0.050936799
-0.02611593 -0.059798401 0.050936799
-0.02611593 -0.059798401 0.050936799
-0.080254219 0.011754674 -0.022780247
-0.086329199 0.025900453 -0.029412869
-0.089301154 0.032910027 -0.029230367
-0.088229463 0.036851496 -0.026178107
-0.02611593 -0.059798401 0.050936799
-0.02611593 -0.059798401 0.050936799
-0.02611593 -0.059798401 0.050936799
-0.02611593 -0.059798401 0.050936799
-0.087270744 0.016815128 -0.024557948
-0.092320248 0.027921647 -0.029264089
-0.097328365 0.039991811 -0.03195291
-0.093212835 0.040868752 -0.026012082
-0.02611593 -0.059798401 0.050936799
-0.02611593 -0.059798401 0.050936799
-0.02611593 -0.059798401 0.050936799
-0.02611593 -0.059798401 0.050936799
-0.096297771 0.023900501 -0.027261682
-0.10033266 0.033985514 -0.031004988
-0.10127147 0.039951902 -0.028878752
-0.10121046 0.045914706 -0.026771322
-0.02611593 -0.059798401 0.050936799
-0.02611593 -0.059798401 0.050936799
-0.02611593 -0.059798401 0.050936799
-0.02611593 -0.059798401 0.050936799
-0.10125156 0.025881931 -0.025132373
-0.10628234 0.036970362 -0.028838854
-0.10927996 0.047015596 -0.030601632
-0.10414981 0.046871029 -0.023697954
-0.02611593 -0.059798401 0.050936799
-0.02611593 -0.059798401 0.050936799
-0.02611593 -0.059798401 0.050936799
-0.02611593 -0.059798401 0.050936799
-0.10821978 0.028888449 -0.023947123
-0.11629046 0.044041235 -0.030524153
-0.11421894 0.047979113 -0.027490675
-0.11112889 0.051895306 -0.023476329
-0.02611593 -0.059798401 0.050936799
-0.02611593 -0.059798401 0.050936799
-0.02611593 -0.059798401 0.050936799
-0.02611593 -0.059798401 0.050936799
-0.1202532 0.039002176 -0.027540099
-0.12325082 0.049047425 -0.029302858
-0.12219392 0.054006808 -0.027232237
-0.1211518 0.059984107 -0.026143253
-0.02611593 -0.059798401 0.050936799
-0.02611593 -0.059798401 0.050936799
-0.02611593 -0.059798401 0.050936799
-0.02611593 -0.059798401 0.050936799
-0.12415885 0.038926087 -0.022466622
-0.13222559 0.0550787 -0.029025637
-0.13015409 0.059016574 -0.025992155
-0.12708277 0.062950857 -0.022977475
-0.02611593 -0.059798401 0.050936799
-0.02611593 -0.059798401 0.050936799
-0.02611593 -0.059798401 0.050936799
-0.02611593 -0.059798401 0.050936799
-0.14017975 0.052053649 -0.025930382
-0.14419198 0.063120402 -0.028655998
-0.14215007 0.069094121 -0.027585804
-0.13404311 0.067957036 -0.021756183
-0.02611593 -0.059798401 0.050936799
-0.02611593 -0.059798401 0.050936799
-0.02611593 -0.059798401 0.050936799
-0.02611593 -0.059798401 0.050936799
-0.15114632 0.060091775 -0.025579538
-0.15616924 0.073179856 -0.029249996
-0.15411252 0.078135654 -0.027198151
-0.14904548 0.081062935 -0.024239071
-0.02611593 -0.059798401 0.050936799
-0.02611593 -0.059798401 0.050936799
-0.02611593 -0.059798401 0.050936799
-0.02611593 -0.059798401 0.050936799
-0.16611515 0.072161645 -0.026081122
-0.17012741 0.083228409 -0.028806742
-0.16505642 0.087155506 -0.025829636
-0.16102274 0.091122396 -0.024833061
-0.02611593 -0.059798401 0.050936799
-0.02611593 -0.059798401 0.050936799
-0.02611593 -0.059798401 0.050936799
-0.02611593 -0.059798401 0.050936799
-0.18306492 0.084220625 -0.025545463
-0.1870693 0.097287029 -0.028235044
-0.18202099 0.10023241 -0.026275612
-0.17497306 0.1031706 -0.024353769
-0.02611593 -0.059798401 0.050936799
-0.02611593 -0.059798401 0.050936799
-0.02611593 -0.059798401 0.050936799
-0.02611593 -0.059798401 0.050936799
-0.20399822 0.10029328 -0.024862565
-0.20499229 0.11133116 -0.026644889
-0.19595258 0.11226252 -0.024796668
-0.19292955 0.11825073 -0.024744928
-0.02611593 -0.059798401 0.050936799
-0.02611593 -0.059798401 0.050936799
-0.02611593 -0.059798401 0.050936799
-0.02611593 -0.059798401 0.050936799
-0.23192151 0.12340792 -0.024921656
-0.22391118 0.12637872 -0.025017928
-0.21887372 0.13134183 -0.024022136
-0.21588424 0.13836604 -0.025951695
-0.02611593 -0.059798401 0.050936799
-0.02611593 -0.059798401 0.050936799
-0.02611593 -0.059798401 0.050936799
-0.02611593 -0.059798401 0.050936799
-0.25680485 0.14245826 -0.022110224
-0.25480339 0.15248553 -0.023966938
-0.2448013 0.15344949 -0.024136826
-0.23177409 0.15136701 -0.022417821
-0.02611593 -0.059798401 0.050936799
-0.02611593 -0.059798401 0.050936799
-0.02611593 -0.059798401 0.050936799
-0.02611593 -0.059798401 0.050936799
-0.83876389 0.64838862 -0.16411075
-0.80578387 0.6543054 -0.16662207
-0.76377368 0.64911932 -0.16550203
-0.2566683 0.17243506 -0.02057001
-0.84439135 0.65206575 -0.14493237
-0.80444795 0.64895892 -0.14773738
-0.77047974 0.65187258 -0.15032151
-0.02611593 -0.059798401 0.050936799
-0.84301013 0.64868283 -0.12401234
-0.81009799 0.65165436 -0.12957668
-0.7761752 0.65260452 -0.13419618
-0.74524796 0.65456527 -0.1387413
-0.84662712 0.65033507 -0.10390792
-0.80975407 0.64831114 -0.11063717
-0.78286648 0.65433985 -0.11803403
-0.74397212 0.64827329 -0.12287363
-0.84926689 0.65100193 -0.08483997
-0.81042075 0.64698929 -0.092642508
-0.78255993 0.65103287 -0.10109386
-0.75269258 0.65205163 -0.10863718
-0.84588605 0.64761186 -0.063957527
-0.81507105 0.64968109 -0.074500591
-0.78423047 0.64871478 -0.083098404
-0.75441921 0.64978778 -0.09364073
-0.84850317 0.64926046 -0.043871887
-0.81474191 0.64735585 -0.056542747
-0.78991807 0.65144634 -0.066937029
-0.76312107 0.65354812 -0.078404613
-0.84712893 0.64889508 -0.023897454
-0.81740046 0.64804089 -0.038474441
-0.79360992 0.65317094 -0.050831243
-0.7648477 0.65128428 -0.063408151
-0.84577733 0.64754802 -0.0049406961
-0.81604886 0.64669377 -0.01951769
-0.79029697 0.64683563 -0.033001848
-0.76456386 0.64699554 -0.04748565
-0.84440303 0.64718264 0.015033729
-0.81770748 0.64737517 -0.0014681891
-0.79299295 0.64755678 -0.016932867
-0.77425772 0.65275908 -0.032194711
-0.84202898 0.64681363 0.034989376
-0.81537879 0.64504272 0.016452093
-0.79367447 0.64725286 8.0160797e-05
-0.76998633 0.64545643 -0.016401425
-0.8376779 0.64545584 0.053889751
-0.8180294 0.64772731 0.034556415
-0.79535586 0.64695251 0.017111983
-0.77168638 0.64517421 -0.00036927313
-0.83631843 0.64610833 0.072882548
-0.81470478 0.64439154 0.052439891
-0.799025 0.6496588 0.034235429
-0.77639669 0.64692044 0.014755636
-0.83298194 0.64577198 0.090820067
-0.81734753 0.64907581 0.070580252
-0.79472715 0.64433777 0.05106442
-0.77710092 0.64563489 0.030750982
-0.82663518 0.64340705 0.10966484
-0.81304181 0.64575446 0.087445274
-0.79541951 0.64605165 0.067113824
-0.77880102 0.6453526 0.046783142
-0.82826334 0.64706993 0.12876806
-0.80572176 0.64140445 0.10523556
-0.79711562 0.64676923 0.083163999
-0.781497 0.64607376 0.062852114
-0.81894368 0.64271265 0.14652078
-0.80938309 0.64611042 0.12239505
-0.79480165 0.6454547 0.10010264
-0.78421164 0.64681298 0.077921413
-0.81358892 0.64235103 0.16542038
-0.80206305 0.64176035 0.14018536
-0.79249161 0.64314032 0.11702326
-0.78591174 0.64653075 0.093953572
-0.80924869 0.64301091 0.18335713
-0.80271018 0.64543766 0.15827012
-0.78919655 0.64184034 0.13294345
-0.78262448 0.64323109 0.10983773
-0.80092096 0.64065689 0.20116469
-0.79640085 0.64310896 0.17511557
-0.79283917 0.64652824 0.1511026
-0.78332084 0.6439451 0.12586911
-0.79560363 0.64033145 0.21806496
-0.79308313 0.64279073 0.19205344
-0.78556448 0.64021474 0.16685754
-0.78302127 0.64365566 0.14186369
-0.78926378 0.64098418 0.23596413
-0.78677374 0.64046198 0.2088989
-0.78723001 0.64391369 0.18396142
-0.78369892 0.6443516 0.15889473
-0.77798194 0.63665599 0.25167996
-0.77749157 0.63614088 0.22465229
-0.78590405 0.64560223 0.20097291
-0.7794345 0.64006662 0.17374241
-0.77066487 0.63632333 0.26854265
-0.77616167 0.63882935 0.24168178
-0.77762568 0.64028496 0.21672708
-0.77712047 0.63875204 0.19068106
-0.76534367 0.6369977 0.28546095
-0.76984453 0.63850027 0.25856328
-0.7753225 0.64098817 0.23270209
-0.77880877 0.6414693 0.20676726
-0.7550537 0.6346727 0.30123159
-0.76454592 0.63819295 0.27446389
-0.77300066 0.64167339 0.24967676
-0.77549887 0.63915133 0.22366908
-0.74872881 0.63634336 0.31814912
-0.75824744 0.63788199 0.29034576
-0.7667101 0.63936269 0.26552254
-0.77219987 0.63885117 0.2396073
-0.74043065 0.63602525 0.33399338
-0.74996108 0.63456428 0.30613595
-0.76041949 0.63705212 0.28136835
-0.77187371 0.64054322 0.25663757
-0.73115534 0.6347217 0.34880117
-0.74762744 0.63824898 0.32316467
-0.75512081 0.6367448 0.29726899
-0.76857871 0.6392433 0.27255777
-0.7277953 0.64038438 0.3668468
-0.73438734 0.63294989 0.33682555
-0.75081807 0.6374408 0.3132064
-0.7632879 0.63693631 0.28842235
-0.71357411 0.63509983 0.37948924
-0.72808492 0.63363874 0.35272539
-0.7484923 0.63912576 0.33019912
-0.75998884 0.63663608 0.30436057
-0.70726001 0.63878816 0.39544314
-0.72080541 0.63334227 0.36758882
-0.73922491 0.63582265 0.34497085
-0.75667107 0.63631779 0.32129842
-0.69698489 0.63748103 0.41023213
-0.71547627 0.63601637 0.38454312
-0.73589933 0.63750398 0.36194476
-0.75137246 0.63601041 0.33719903
-0.68277848 0.63321447 0.42189288
-0.70819277 0.6367197 0.39942455
-0.72961563 0.63821095 0.37684494
-0.75104237 0.63870233 0.35424736
-0.67351413 0.63392878 0.4357371
-0.69794035 0.63443094 0.41319588
-0.71937102 0.63392252 0.39058024
-0.74078298 0.63339597 0.36896425
-0.66029966 0.63166535 0.44745272
-0.68868375 0.63314551 0.42700398
-0.71207267 0.63360792 0.40644327
-0.74339533 0.64106166 0.38815832
-0.64806634 0.6293875 0.46018678
-0.68137765 0.63483065 0.44290304
-0.70577043 0.63429689 0.42234311
-0.733136 0.63575536 0.40287527
-0.6397751 0.63208687 0.47508541
-0.67014021 0.63355625 0.45567393
-0.69651771 0.63201159 0.43613324
-0.72783732 0.63544798 0.41877592
-0.62657547 0.63084143 0.4858194
-0.66285282 0.63525939 0.47057337
-0.68823832 0.63171148 0.45097783
-0.72053903 0.63513345 0.43463895
-0.61631131 0.6315521 0.49964476
-0.64866906 0.63001096 0.48121646
-0.68195081 0.63341838 0.46589601
-0.70931727 0.62985963 0.44733775
-0.60508472 0.63229543 0.51145202
-0.63940459 0.63072526 0.49506062
-0.66972131 0.63014066 0.47861207
-0.70399207 0.6315338 0.46427408
-0.59091181 0.6290648 0.52113152
-0.62718999 0.62846553 0.50679505
-0.65947282 0.62685204 0.49236536
-0.69768959 0.63222271 0.48017395
-0.57773489 0.62683761 0.53084779
-0.61889881 0.63116497 0.52169371
-0.65610886 0.63351446 0.51042902
-0.68839562 0.63090116 0.49598134
-0.5635581 0.62460679 0.54054528
-0.60865337 0.63189375 0.53451937
-0.6468485 0.63322896 0.52425516
-0.67816591 0.62763065 0.508735
-0.55430055 0.62833863 0.55344385
-0.59253407 0.6246928 0.54208988
-0.63558835 0.63293624 0.53804374
-0.6718182 0.63028294 0.52667022
-0.54404724 0.6310671 0.56630564
-0.58423495 0.62939185 0.5570246
-0.62045008 0.62572074 0.54663265
-0.66451597 0.63096827 0.54255128
-0.52889323 0.62785095 0.57496667
-0.57301629 0.6281355 0.5687958
-0.61118567 0.6264351 0.56047684
-0.65425956 0.62967926 0.55634058
-0.51475388 0.62565637 0.58266479
-0.56078982 0.6288752 0.58058429
-0.60092145 0.62714571 0.5743022
-0.64595759 0.63036096 0.57220286
-0.49963737 0.6224764 0.58932656
-0.54956716 0.62861866 0.59237349
-0.58870685 0.62488592 0.58603668
-0.63468271 0.62905031 0.58697313
-0.48645252 0.62224883 0.59907883
-0.53443593 0.62442076 0.60001683
-0.57844257 0.62559664 0.59986198
-0.62049502 0.62480181 0.5976342
-0.47428226 0.62304288 0.60786837
-0.52418244 0.62714922 0.61287868
-0.56817049 0.62830698 0.61372346
-0.61218512 0.62748313 0.61353248
-0.46306652 0.62580383 0.61871201
-0.51002443 0.62493652 0.62157643
-0.55595195 0.627047 0.62547582
-0.60190612 0.62717593 0.62833953
-0.4479461 0.62362373 0.62539172
-0.49779409 0.62667602 0.63338292
-0.5456838 0.62875754 0.63931924
-0.58965015 0.62587976 0.64209127
-0.43868077 0.62935531 0.63832629
-0.48560905 0.62645209 0.64315403
-0.53148437 0.62750846 0.65003443
-0.57935929 0.62857205 0.65695232
-0.42357904 0.62719321 0.64400637
-0.47339743 0.62820971 0.65396088
-0.51928461 0.62626654 0.66078722
-0.56514895 0.62530524 0.6686312
-0.4075228 0.62306416 0.6476323
-0.46023527 0.62700039 0.66269559
-0.50605834 0.62700272 0.67255688
-0.55095738 0.62205654 0.67931026
-0.39439413 0.62289083 0.65438563
-0.4441416 0.62283516 0.66832078
-0.49188152 0.62477195 0.68225437
-0.54064393 0.62573051 0.695189
-0.38026559 0.62271398 0.66112024
-0.42901719 0.62165487 0.67501855
-0.47867796 0.62452626 0.69300634
-0.52642971 0.62346357 0.70688587
-0.36711031 0.62452227 0.66890925
-0.41778272 0.62439781 0.68686181
-0.46547043 0.62528044 0.70377636
-0.5122115 0.62219638 0.71860075
-0.3549096 0.62829769 0.67875248
-0.40361285 0.62518454 0.69561368
-0.44935411 0.62209696 0.7104193
-0.49798942 0.62192911 0.73033357
-0.33889472 0.62320489 0.68036103
-0.38949221 0.62300807 0.70231223
-0.43516946 0.62186581 0.72015285
-0.48572165 0.62363249 0.74413937
-0.32480368 0.62306422 0.68509626
-0.37725011 0.62774712 0.71417278
-0.42098874 0.62063485 0.72986835
-0.47245407 0.62533218 0.75792634
-0.31164452 0.62587231 0.69290334
-0.3611899 0.62461776 0.71781671
-0.40875444 0.62337416 0.7416929
-0.4553231 0.62112713 0.7655322
-0.29755738 0.62473184 0.69762063
-0.34704268 0.62442279 0.72555095
-0.39552036 0.62610996 0.75349855
-0.44011596 0.62187421 0.77626455
-0.28253052 0.62264216 0.69930196
-0.3329103 0.62524575 0.7323035
-0.37939617 0.62492603 0.76017755
-0.42298496 0.61766917 0.7838704
-0.26748496 0.62053436 0.70198309
-0.3178046 0.62408358 0.73800164
-0.36423436 0.62370962 0.76887459
-0.40970954 0.62136859 0.79769343
-0.25338995 0.6213935 0.70673633
-0.30271375 0.62393934 0.7427181
-0.3471517 0.62155849 0.77351743
-0.3945024 0.62211561 0.80842584
-0.23934029 0.62028915 0.7094543
-0.2866309 0.62179184 0.74737966
-0.3329592 0.62332696 0.78328699
-0.37638646 0.61892486 0.81503123
-0.22624515 0.62115192 0.71422631
-0.27154398 0.62064767 0.75207812
-0.31678969 0.62410659 0.79200131
-0.36017951 0.61966825 0.82574481
-0.21216889 0.62202919 0.71797991
-0.25738105 0.62445199 0.75988436
-0.30070683 0.62195915 0.79666293
-0.34307808 0.61749905 0.83138734
-0.19811529 0.62192464 0.72071576
-0.24133961 0.62134093 0.76252866
-0.28266576 0.61884075 0.79926968
-0.32593536 0.61629349 0.83904719
-0.18403903 0.6228019 0.72446942
-0.22724462 0.62220001 0.76728195
-0.26749212 0.62062383 0.80802077
-0.30874342 0.61805129 0.84876037
-0.16902697 0.62173009 0.72516918
-0.21121797 0.62010676 0.76894456
-0.25138274 0.62045783 0.81371808
-0.29064223 0.61587852 0.85438412
-0.15497336 0.62162566 0.72790509
-0.19514991 0.61897713 0.77262455
-0.23431879 0.61832482 0.8173613
-0.27345026 0.61763626 0.8640973
-0.14093848 0.62153924 0.72964132
-0.18007776 0.61885095 0.77634132
-0.21820547 0.61915863 0.82307655
-0.2553412 0.61746311 0.86975706
-0.12688094 0.6224345 0.73239523
-0.16497906 0.62070638 0.78109384
-0.2011376 0.61802548 0.82673782
-0.23721345 0.6172719 0.87641644
-0.11286478 0.62236619 0.73313189
-0.14892581 0.62059462 0.78379214
-0.18404318 0.61887383 0.83143461
-0.21906301 0.61806244 0.88409352
-0.098780677 0.62524307 0.73692149
-0.13389504 0.61950481 0.78549165
-0.16788453 0.6216712 0.83918536
-0.2000221 0.61494046 0.88668138
-0.084813744 0.6222114 0.73560476
-0.11792848 0.61646599 0.78413725
-0.14985827 0.61957079 0.84081036
-0.18188648 0.61674893 0.89337689
-0.070797578 0.62214309 0.7363413
-0.1018713 0.61735415 0.78685361
-0.1328052 0.61945546 0.84348994
-0.16288303 0.61366314 0.89396542
-0.056800142 0.62209284 0.73607826
-0.086791307 0.61922759 0.79060644
-0.11579745 0.61737674 0.84413415
-0.14372495 0.61644971 0.90165979
-0.042870656 0.61909735 0.73276216
-0.070843458 0.61620688 0.78825235
-0.097721919 0.61823958 0.84781259
-0.12474413 0.61238217 0.90123069
-0.028786542 0.62197423 0.7365517
-0.055718154 0.62004387 0.79404056
-0.080691509 0.61714256 0.84947443
-0.10566878 0.61324149 0.9048903
-0.014766455 0.62290573 0.73730642
-0.039725013 0.61898655 0.79372191
-0.06267608 0.61705989 0.85013592
-0.085616276 0.61311549 0.9075135
-0.0017875563 0.62287712 0.73606241
-0.02372794 0.61892915 0.79342127
-0.045728423 0.61403561 0.84776306
-0.066604957 0.61202937 0.9081381
0.012141931 0.61988169 0.7327463
-0.0087533351 0.61789358 0.79212171
-0.02764504 0.61689812 0.8514775
-0.047552269 0.61190683 0.91078007
0.026165949 0.621813 0.73351896
0.0061986204 0.61587626 0.78980446
-0.010629427 0.61681896 0.85215771
-0.027514556 0.61279875 0.91242158
0.04017124 0.62376237 0.73329198
0.02217697 0.61583692 0.78850418
0.0063861851 0.61673993 0.85283798
-0.0075447951 0.61074543 0.91101003
0.05310484 0.62177038 0.73001266
0.038155317 0.61579758 0.78720391
0.023273753 0.61276996 0.84744817
0.010493286 0.61164445 0.91268921
0.06701953 0.61979282 0.7257148
0.053175226 0.6167255 0.78793973
0.04138371 0.61761409 0.85219836
0.03049355 0.61257255 0.91233146
0.079998426 0.61976427 0.72447091
0.069221526 0.61963141 0.78969246
0.059316397 0.6156041 0.8488251
0.050467238 0.61151898 0.91093791
0.092868008 0.61582685 0.71815664
0.084090725 0.61568677 0.78334057
0.076294556 0.61556119 0.84750599
0.069445044 0.61146891 0.90958118
0.10692253 0.62073958 0.71998298
0.10003164 0.61568362 0.78004092
0.093167327 0.61260915 0.84113449
0.089335993 0.60848808 0.90415305
0.12195029 0.62366712 0.72075486
0.11499145 0.61566591 0.77775973
0.11228102 0.61844957 0.84588391
0.10940421 0.61236137 0.90684831
0.13380131 0.61975133 0.71345967
0.13095501 0.6166445 0.77547777
0.12908977 0.61355221 0.83647746
0.12829927 0.61038393 0.90145695
0.14665219 0.61583203 0.7061457
0.14587343 0.61566323 0.77117926
0.14600393 0.61156386 0.83212328
0.14823943 0.6103664 0.89808214
0.16177447 0.62368631 0.71100628
0.16081454 0.61566365 0.76789838
0.16297123 0.61353874 0.8298406
0.16713841 0.60938889 0.89270884
0.17360677 0.61978871 0.7027114
0.17675544 0.61566049 0.76459873
0.17984791 0.61158657 0.82348716
0.18604134 0.60941112 0.88735348
0.18761991 0.62373775 0.70252043
0.19063269 0.61371911 0.75830168
0.19779238 0.61257607 0.8201679
0.2049403 0.6084336 0.88198012
0.19944832 0.61884028 0.69420755
0.20553634 0.6137557 0.75302154
0.21471438 0.61258745 0.8158499
0.22488834 0.6104157 0.87864137
0.21344273 0.62280738 0.69301689
0.22148506 0.61575228 0.74975795
0.2305499 0.60967523 0.80749786
0.24377254 0.61045605 0.87228644
0.22632016 0.6208697 0.68673861
0.23534361 0.61382896 0.7424612
0.24854751 0.61462784 0.8062501
0.26261142 0.60853297 0.86389601
0.23924682 0.62189519 0.68251371
0.25029254 0.61582905 0.73921639
0.26543206 0.6146754 0.79993266
0.28154087 0.61053675 0.8595764
0.25114316 0.61994284 0.6772539
0.26414713 0.61290598 0.73190171
0.28022638 0.61080319 0.78958213
0.29829741 0.60669345 0.84718901
0.26298329 0.61804485 0.66899508
0.27903596 0.6139605 0.72563982
0.29713753 0.61283219 0.78430039
0.31825325 0.61067528 0.84388626
0.27695513 0.62103033 0.66678679
0.29393962 0.61399704 0.72035968
0.31402206 0.61287969 0.77798301
0.33710003 0.61075181 0.83553195
0.28881791 0.62011403 0.6595456
0.30782866 0.6150552 0.71411663
0.33091447 0.61492693 0.77170163
0.35183817 0.60693371 0.82218242
0.30069944 0.61917973 0.65330416
0.32274017 0.61709142 0.70887256
0.34467152 0.61109447 0.75937057
0.37175274 0.60995197 0.81686234
0.31151325 0.61530364 0.64402843
0.3355161 0.61324447 0.69755989
0.36263174 0.6160832 0.75612342
0.38960353 0.61103189 0.80854487
0.32754171 0.62324488 0.6438719
0.35045025 0.6162625 0.69333351
0.37638876 0.61225075 0.74379241
0.40223667 0.60431206 0.79018056
0.33735961 0.6203723 0.634633
0.3642979 0.61635697 0.68507314
0.39221734 0.61235613 0.73449481
0.42111391 0.60736996 0.78287995
0.34819996 0.61847782 0.62639296
0.37814558 0.61645138 0.67681277
0.40809119 0.614425 0.72723252
0.43894997 0.60946786 0.77358079
0.36106652 0.61855781 0.61915112
0.39201587 0.6175276 0.66957009
0.42083758 0.6126138 0.71395659
0.45780846 0.61254382 0.76528054
0.36365134 0.60389334 0.59983093
0.40279612 0.61468762 0.65831304
0.43875638 0.61663896 0.70869213
0.47153205 0.60974741 0.75096822
0.37554076 0.60495865 0.59362543
0.41767412 0.61775994 0.65108764
0.45045763 0.61286795 0.69339973
0.4862859 0.60992873 0.73769075
0.38638109 0.60306418 0.58538538
0.42945418 0.61491632 0.63981181
0.46529424 0.61497658 0.68415689
0.50101709 0.60912824 0.72339559
0.3992781 0.60612553 0.57919723
0.44128346 0.61503607 0.63058937
0.4780367 0.61216557 0.67086297
0.51578969 0.60929149 0.7111178
0.41733679 0.61704105 0.58005685
0.4540939 0.6151703 0.62034851
0.49183211 0.61331415 0.65962166
0.53258854 0.61142915 0.69983816
0.43125632 0.62108052 0.57486755
0.46692693 0.61628628 0.61112529
0.50667268 0.61642259 0.65039688
0.54530132 0.610654 0.68458092
0.4420858 0.62120384 0.56566387
0.47462502 0.61152983 0.59588993
0.51942295 0.61561126 0.63713896
0.55901396 0.6098752 0.66930491
0.45191151 0.62033093 0.55646104
0.48952565 0.61558378 0.58968222
0.53015095 0.61382538 0.62290102
0.57173079 0.61009991 0.65406573
0.46274099 0.62045425 0.54725742
0.50131744 0.6157397 0.5784604
0.54497278 0.61695194 0.61267662
0.587515 0.61325902 0.64182317
0.46128127 0.60384065 0.52597696
0.51310939 0.61589557 0.56723863
0.55568206 0.61518407 0.59743899
0.60023177 0.61348373 0.62658399
0.4741596 0.60692006 0.51878917
0.52595025 0.61901128 0.55805153
0.56743646 0.61537623 0.58421791
0.61295247 0.61470819 0.61136281
0.47989547 0.60213453 0.50559068
0.52445692 0.60343367 0.5347898
0.57612348 0.61263388 0.56800014
0.62057567 0.61002403 0.59212887
0.49379629 0.60619211 0.49940175
0.53830546 0.60854536 0.52561986
0.58687806 0.61282963 0.55479789
0.6353265 0.61422276 0.57792377
0.50361115 0.607337 0.48923525
0.54604888 0.60575223 0.51241994
0.59761393 0.61304331 0.54059589
0.64297622 0.61152023 0.55972552
0.51241446 0.60548592 0.4790335
0.55682224 0.60592985 0.50021726
0.60732728 0.61227894 0.5253951
0.64960349 0.60783947 0.54052836
0.52222925 0.60663074 0.468867
0.56456947 0.60413665 0.4870353
0.61807108 0.61449236 0.51122916
0.66335452 0.61204177 0.52634215
0.53204417 0.60777557 0.45870048
0.57637316 0.60729206 0.4758676
0.62982941 0.61568427 0.4980261
0.67506063 0.61428779 0.51015812
0.53675753 0.60201192 0.44450316
0.58410174 0.60551697 0.46168599
0.64057702 0.6188975 0.4838782
0.68069196 0.61161041 0.49099773
0.54859865 0.60513115 0.4353348
0.59590918 0.60967219 0.45053631
0.6452195 0.61420608 0.46570024
0.68937206 0.61188567 0.47383437
0.55536878 0.60432321 0.42318931
0.59756315 0.6029737 0.43337837
0.65391827 0.61446321 0.44953656
0.69805604 0.61316073 0.45668906
0.56518364 0.60546809 0.41302282
0.60631412 0.60217673 0.42019564
0.66163599 0.6147058 0.43439132
0.70266891 0.6105051 0.43654782
0.57497984 0.60663098 0.40185666
0.61304677 0.60140496 0.40605083
0.67236102 0.61693728 0.41922572
0.71540534 0.61572891 0.42139873
0.58172721 0.60484135 0.38869351
0.62788826 0.60953069 0.39591652
0.68008262 0.61817974 0.40409851
0.7200408 0.61405498 0.40227515
0.60371119 0.62083203 0.38456976
0.64272976 0.61765641 0.38578218
0.68575931 0.61746591 0.38697353
0.72165424 0.61141008 0.38219029
0.59627128 0.60422188 0.36440176
