# .PCD v0.7 - Point Cloud Data file format
VERSION 0.7
FIELDS x y z
SIZE 4 4 4
TYPE F F F
COUNT 1 1 1
WIDTH 1399
HEIGHT 1
VIEWPOINT 0 0 0 1 0 0 0
POINTS 1399
DATA ascii
-0.02611593 -0.059798401 0.050936799
-0.02611593 -0.059798401 0.050936799
-0.02611593 -0.059798401 0.050936799
-0.02611593 -0.059798401 0.050936799
-0.15748391 -0.030889308 -0.026106816
-0.15252618 -0.031870905 -0.028218113
-0.19151422 -0.025713868 -0.028376821
-0.18557541 -0.026680965 -0.031506576
-0.02611593 -0.059798401 0.050936799
-0.02611593 -0.059798401 0.050936799
-0.02611593 -0.059798401 0.050936799
-0.02611593 -0.059798401 0.050936799
-0.17449167 -0.02881055 -0.026751
-0.16046856 -0.031896461 -0.025068805
-0.21754599 -0.02056714 -0.030797169
-0.20154198 -0.023642141 -0.030152217
-0.02611593 -0.059798401 0.050936799
-0.02611593 -0.059798401 0.050936799
-0.02611593 -0.059798401 0.050936799
-0.02611593 -0.059798401 0.050936799
-0.19651331 -0.025695924 -0.02828287
-0.18049057 -0.028789017 -0.026638258
-0.24553995 -0.015449411 -0.031180598
-0.22955859 -0.019506158 -0.031553324
-0.02611593 -0.059798401 0.050936799
-0.02611593 -0.059798401 0.050936799
-0.02611593 -0.059798401 0.050936799
-0.02611593 -0.059798401 0.050936799
-0.22053066 -0.021574292 -0.029759157
-0.2025122 -0.025674392 -0.028170127
-0.2704635 -0.011414637 -0.027639776
-0.25753385 -0.014406514 -0.030937098
-0.02611593 -0.059798401 0.050936799
-0.02611593 -0.059798401 0.050936799
-0.02611593 -0.059798401 0.050936799
-0.02611593 -0.059798401 0.050936799
-0.24549556 -0.018503167 -0.028235674
-0.22952901 -0.021541994 -0.02959004
-0.98651379 0.1287031 -0.20976055
-0.96499866 0.12105965 -0.23430994
-0.02611593 -0.059798401 0.050936799
-0.02611593 -0.059798401 0.050936799
-0.99311942 0.12834837 -0.18863614
-0.97863644 0.12176602 -0.21503529
-0.02611593 -0.059798401 0.050936799
-0.26052636 -0.017413327 -0.029935122
-0.99970227 0.12897533 -0.16649401
-0.98222768 0.1203826 -0.19298558
-0.02611593 -0.059798401 0.050936799
-0.02611593 -0.059798401 0.050936799
-1.0123175 0.13065989 -0.14622049
-0.99986082 0.12210315 -0.1736178
-0.97635382 0.11245286 -0.19824083
-0.95990568 0.10188213 -0.22574931
-1.0118721 0.12922592 -0.12224664
-1.0054479 0.12172672 -0.1515125
-0.9939909 0.11317361 -0.178891
-0.97352868 0.10157059 -0.20549303
-1.0094419 0.12880269 -0.099292025
-1.0180484 0.12239335 -0.13025731
-1.002596 0.11282604 -0.157729
-0.98615175 0.10125546 -0.1852555
-1.0310516 0.13151936 -0.078831345
-1.0216357 0.12200975 -0.10818961
-1.0061873 0.1114426 -0.13567932
-1.0017931 0.1009692 -0.16596131
-1.0496391 0.135207 -0.057409376
-1.0412458 0.12471924 -0.087766521
-1.0278198 0.11317752 -0.11623631
-1.00337 0.098560661 -0.14296755
-1.0622357 0.13687344 -0.036136173
-1.0598413 0.12640722 -0.06638059
-1.028378 0.11074731 -0.092261709
-1.0240065 0.099292167 -0.12356137
-1.0827857 0.14053206 -0.012677297
-1.0754186 0.12806633 -0.044051349
-1.0509915 0.11246774 -0.071800262
-1.035611 0.098955363 -0.10234301
-1.0973593 0.14318743 0.0096511617
-1.0939766 0.12971814 -0.020666093
-1.0685872 0.11415213 -0.050433107
-1.0421872 0.096564792 -0.079255298
-1.1049045 0.14378184 0.033811368
-1.1045361 0.13134122 0.0025688484
-1.0921631 0.11583997 -0.027953558
-1.062782 0.098259926 -0.057831787
-1.1274313 0.14842941 0.058325514
-1.1190763 0.13296059 0.026878607
-1.0977125 0.11542736 -0.003848955
-1.0793484 0.097904891 -0.034520134
-1.1289816 0.14800243 0.082354963
-1.1355971 0.13456903 0.052225608
-1.1192514 0.11707184 0.020592347
-1.0899158 0.097528324 -0.011321239
-1.1424992 0.15059996 0.10766362
-1.1401429 0.13515267 0.076329447
-1.1258007 0.11666283 0.044715747
-1.1064633 0.097155198 0.012990069
-1.1639701 0.15518966 0.13515794
-1.1586636 0.1367683 0.10171403
-1.1333125 0.11622122 0.070857257
-1.128002 0.098799691 0.037431367
-0.02611593 -0.059798401 0.050936799
-1.1661527 0.13730842 0.12887321
-1.1498523 0.11784775 0.095204599
-1.1355178 0.097358257 0.063554853
-1.177978 0.15830217 0.18749425
-1.1816324 0.13987693 0.15621877
-1.1663357 0.11942001 0.12255092
-1.1540422 0.097974055 0.08892142
-1.2043918 0.16285555 0.21808152
-1.1961163 0.14144203 0.18352753
-1.1768283 0.11897109 0.14974847
-0.02611593 -0.059798401 0.050936799
-0.02611593 -0.059798401 0.050936799
-1.2065823 0.14297467 0.21176077
-1.1813217 0.11850063 0.17683327
-1.2109864 0.10118663 0.14506471
-1.2601507 0.17491831 0.28236547
-1.2190253 0.14549622 0.24104927
-1.2037629 0.12105809 0.20630968
-0.02611593 -0.059798401 0.050936799
-0.02611593 -0.059798401 0.050936799
-0.02611593 -0.059798401 0.050936799
-1.2122144 0.12156564 0.23548698
-1.2119454 0.098181166 0.20104727
-0.02611593 -0.059798401 0.050936799
-1.2568109 0.1514954 0.30488688
-1.2505509 0.12608972 0.27029839
-0.02611593 -0.059798401 0.050936799
-0.02611593 -0.059798401 0.050936799
-1.2960647 0.15795037 0.34375173
-0.02611593 -0.059798401 0.050936799
-0.02611593 -0.059798401 0.050936799
-1.3265586 0.19073895 0.41794091
-1.3134131 0.16039944 0.37813252
-0.02611593 -0.059798401 0.050936799
-0.02611593 -0.059798401 0.050936799
-3.1078019 0.53740048 0.99475688
-1.3317199 0.16381572 0.41454941
-1.2897077 0.12948139 0.368126
-0.02611593 -0.059798401 0.050936799
-3.1004283 0.5380581 1.0676554
-3.1141801 0.46954212 0.9876464
-1.3637147 0.13984424 0.4197166
-0.02611593 -0.059798401 0.050936799
-3.1635337 0.55353385 1.1661502
-3.0889192 0.46622631 1.0551363
-3.1195438 0.4006623 0.98149872
-1.3300909 0.10294556 0.40641508
-3.2245791 0.56994802 1.2676245
-3.155998 0.47868073 1.1556516
-3.0882919 0.39532527 1.0488399
-3.1209583 0.32378751 0.97413212
-3.2904737 0.58623546 1.37719
-3.2259603 0.49203718 1.2622392
-3.1543491 0.40374058 1.1512636
-3.0847154 0.31643286 1.0413433
-3.3622475 0.60443538 1.4929023
-3.2849133 0.50333643 1.3695837
-3.2203314 0.41208357 1.257686
-3.1547275 0.32180882 1.1467872
-3.4368813 0.62451929 1.6157045
-3.3735189 0.52043492 1.4945943
-3.2842355 0.4213469 1.3680874
-3.2266457 0.32710147 1.2572669
-3.5173607 0.64547968 1.7466347
-3.4560511 0.53743941 1.6234908
-3.3688431 0.43341365 1.4939325
-3.2935047 0.33332181 1.3706696
-3.4868269 0.64489216 1.8280802
-4.0763288 0.64876354 2.0192518
-3.4612916 0.44736421 1.6279612
-3.3671937 0.3394044 1.4932007
-3.4464149 0.64237761 1.9033035
-4.060338 0.64879549 2.124989
-5.066226 0.6838764 2.5065858
-3.454648 0.34731987 1.628027
-3.4465482 0.64861065 2.001452
-4.0165944 0.64494473 2.218132
-4.9862914 0.67268056 2.6109221
-4.8110023 0.50493461 2.3905311
-3.36461 0.63736302 2.0527318
-3.47841 0.55325323 2.0273323
-4.667901 0.62690502 2.5841238
-4.6776857 0.48710698 2.4627371
-3.313298 0.63389957 2.1227322
-3.9468803 0.6411081 2.4158244
-3.4518313 0.44717446 2.024915
-4.5741267 0.4721694 2.5475569
-3.1761286 0.61114019 2.1347566
-3.9120142 0.63918078 2.5151703
-4.6507158 0.62686861 2.859895
-3.4519558 0.3389034 2.0389638
-3.2423067 0.63276094 2.2814364
-3.1169686 0.50032365 2.1106362
-4.5383272 0.61206144 2.9355483
-3.5171373 0.34546873 2.1883533
-2.6181753 0.50454235 1.9343138
-3.8174999 0.63343579 2.7023602
-4.420033 0.59732336 3.0060911
-3.5090604 0.34343931 2.2992029
-3.1515329 0.62974983 2.4287322
-2.60534 0.41533005 1.9424626
-4.3126764 0.58357012 3.0798573
-3.4634175 0.33767211 2.387274
-3.0953383 0.62537712 2.4926229
-2.79775 0.45579672 2.1808777
-2.9157951 0.37699848 2.1946673
-4.2868814 0.43212265 3.097641
-3.0430593 0.62294614 2.5606232
-3.9970887 0.68732071 3.2478824
-2.7493093 0.35378295 2.1701219
-4.1804795 0.42033654 3.1734614
-2.9868269 0.61853731 2.6265125
-3.8909533 0.67478806 3.3096893
-2.6912537 0.34753004 2.2269411
-4.0672331 0.40767026 3.2411346
-1.8930062 0.37402353 1.7483128
-2.3445125 0.38553235 2.0960922
-2.6509352 0.34510592 2.2971659
-3.9618676 0.39592397 3.3149745
-1.8414881 0.36931661 1.7762724
-1.8741131 0.29978704 1.756619
-1.9067299 0.23225714 1.7370014
-2.37713 0.21262234 2.0965753
-1.8410337 0.37594405 1.8524096
-1.8245385 0.29503301 1.7876152
-1.8531789 0.22650702 1.766905
-1.8857849 0.15695934 1.748251
-1.9983183 0.42117575 2.0962553
-1.9172174 0.31827989 1.9608297
-1.8271163 0.22538622 1.8234159
-1.8312155 0.15118755 1.7791355
-2.1895382 0.47755414 2.3949566
-2.0978312 0.36094686 2.2410781
-2.0099187 0.25820678 2.0955243
-1.9228665 0.16236052 1.9561135
-2.6572249 0.60596579 3.030251
-3.3110197 0.61775738 3.6839268
-2.2128556 0.29528782 2.4131021
-2.113306 0.1868313 2.2492211
-2.6019433 0.6045239 3.098213
-3.2315667 0.61304897 3.7613802
-3.3011363 0.47937357 3.7572632
-3.3453345 0.33516768 3.7214701
-2.5378206 0.60119468 3.1579726
-3.1404085 0.6055693 3.8235593
-3.2000442 0.46991262 3.8162196
-3.2431636 0.32663059 3.7844241
-2.4727352 0.59789813 3.2157137
-3.0472841 0.59911841 3.8837194
-3.1038868 0.46241501 3.8783047
-3.1468902 0.32002425 3.8525252
-2.4076278 0.5955832 3.274473
-2.9571216 0.59264219 3.9459352
-3.011631 0.45584112 3.9454811
-3.0515831 0.3123855 3.9226263
-2.3347204 0.59042102 3.3230309
-2.8708236 0.58705342 4.0152421
-2.9164739 0.44834709 4.007585
-2.9465432 0.30396429 3.9785264
-2.281239 0.59180486 3.4010811
-2.7806573 0.58157694 4.0774755
-2.8164296 0.44094366 4.0635972
-2.8522508 0.29734704 4.0476646
-2.2131734 0.58851558 3.4577665
-2.6875706 0.57516235 4.1356363
-2.72417 0.43536967 4.1307912
-2.7530339 0.29078418 4.1127105
-2.1489866 0.58713174 3.5205612
-2.596386 0.56966424 4.1988511
-2.6290085 0.42887539 4.1929135
-2.6499674 0.28435174 4.1696835
-2.0740571 0.58294427 3.5700991
-2.5052345 0.56520212 4.2600846
-2.5319183 0.42344624 4.2510171
-2.557596 0.27866915 4.2428765
-2.0079083 0.58158946 3.6308568
-2.4092228 0.55884904 4.3141909
-2.4367158 0.4179157 4.3151565
-2.4564691 0.27318943 4.3029041
-1.9319749 0.57839799 3.6803944
-2.322876 0.55622369 4.3855505
-2.3414905 0.41336688 4.3803134
-2.3562672 0.26764089 4.3669496
-1.8599434 0.57613039 3.735023
-2.2278039 0.55081975 4.4426923
-2.2443626 0.40790147 4.4404163
-2.2589669 0.26301259 4.4360671
-1.7926971 0.57568133 3.8007782
-2.1297891 0.54545927 4.4967785
-2.1481147 0.40433085 4.5065722
-2.1567802 0.2584748 4.4990935
-1.712862 0.57156628 3.8452239
-2.0375407 0.54190296 4.5630097
-2.0518522 0.39974219 4.5737095
-2.0555749 0.25392255 4.563138
-1.6320273 0.56744754 3.8896511
-1.9404798 0.53850955 4.6191497
-1.9497966 0.39533108 4.6297379
-1.9542755 0.24927983 4.6321812
-0.99266976 0.33475614 2.5100038
-0.98528886 0.25403062 2.4923995
-0.9874934 0.17796026 2.4960659
-0.98390883 0.10106753 2.4886055
-0.90506727 0.31770602 2.4380307
-0.9014079 0.24074094 2.4345691
-0.89773667 0.16677532 2.4311612
-0.89218211 0.091911249 2.4216998
-0.83190334 0.30418444 2.395402
-0.82050359 0.22844374 2.3778126
-0.81491864 0.15656105 2.3694048
-0.81017965 0.085537091 2.3690314
-0.75890809 0.29082569 2.3437762
-0.74556094 0.21613193 2.323168
-0.73600227 0.14727056 2.3127401
-0.73213899 0.079141125 2.3184371
-0.6860891 0.27563012 2.2831175
-0.67451602 0.20574364 2.2736335
-0.66399097 0.13791472 2.2612052
-0.65432692 0.071962386 2.2558293
-0.62191176 0.26514035 2.2407117
-0.60648918 0.19538423 2.223155
-0.5958963 0.13050053 2.2137802
-0.58520591 0.066526204 2.2094212
-0.55979425 0.25371221 2.1953266
-0.5433827 0.18597026 2.1767876
-0.53078234 0.12307903 2.1674111
-0.51908422 0.061100774 2.1630692
-0.49969897 0.24130952 2.1489613
-0.48412177 0.17742574 2.1385105
-0.47053245 0.11654867 2.1281517
-0.45598072 0.055704191 2.1157742
-0.44528344 0.23363808 2.1187935
-0.42781892 0.16985565 2.1023073
-0.4132219 0.11097465 2.0919652
-0.39666271 0.052122656 2.0795867
-0.39114177 0.22322033 2.0745764
-0.3735719 0.16234702 2.0631425
-0.35785484 0.10535356 2.058816
-0.34131041 0.047519471 2.0454555
-0.3406693 0.21550901 2.047483
-0.32301667 0.15656295 2.0400836
-0.30363739 0.099880747 2.0176878
-0.28868765 0.044673465 2.0254118
-0.29219645 0.2078048 2.0204268
-0.27622822 0.15257584 2.0291317
-0.26098585 0.10009672 2.0519049
-0.24665362 0.046530899 2.0796771
-0.25352159 0.20901687 2.0557365
-0.23526497 0.15550905 2.0794349
-0.21979791 0.10281288 2.1142037
-0.20148909 0.048250955 2.1408834
-0.21347933 0.21288115 2.1100752
-0.19405439 0.15920696 2.1427519
-0.17566673 0.10557251 2.1734476
-0.15521239 0.049858894 2.2080686
-0.17230229 0.21761508 2.1714108
-0.14990449 0.1619485 2.2029951
-0.34819251 0.46777061 6.9208388
-0.28841788 0.31156808 7.4170628
-0.1290694 0.22228752 2.2357075
-0.21646571 0.49858153 5.5154533
-0.18704225 0.46605676 6.9808106
-0.10653742 0.29373044 7.1462421
-0.13991672 0.51910251 4.5820756
-0.093649447 0.49632978 5.5581274
-0.025313511 0.45563138 6.9135714
0.062349312 0.27693933 6.8756847
-0.040533461 0.52141148 4.6542807
0.03285867 0.49235356 5.5846963
0.13058321 0.43795839 6.7502775
0.21788697 0.26258296 6.6394334
0.059675924 0.51681817 4.6653252
0.15817975 0.48856169 5.6012869
0.27979523 0.41795865 6.551055
0.36465484 0.24904162 6.4153643
0.16207609 0.51303655 4.6863461
0.28841841 0.48888648 5.6658764
0.41655624 0.39743632 6.3280473
0.50276923 0.23720658 6.2094946
0.26707202 0.51268625 4.7383924
0.41885483 0.48596799 5.6883888
0.54582113 0.38047165 6.1312532
0.63103533 0.22526276 6.0118103
0.37139696 0.50896978 4.7553768
0.57988727 0.51167208 6.0029454
0.66925561 0.36336574 5.9435692
0.7514081 0.21625671 5.8193283
0.48116335 0.50781888 4.7953153
0.69812393 0.49281004 5.8583417
0.78498036 0.34801686 5.7710667
-0.02611593 -0.059798401 0.050936799
0.59071982 0.50586712 4.8242383
0.81349635 0.47483194 5.7208095
-0.02611593 -0.059798401 0.050936799
0.18454404 -0.0061652493 1.1913494
-0.02611593 -0.059798401 0.050936799
-0.02611593 -0.059798401 0.050936799
1.0029347 0.32089832 5.4523873
1.081061 0.19089121 5.3235292
0.17174044 0.071976677 1.1870012
1.022754 0.43842161 5.4201312
0.26471353 0.03468328 1.4046596
0.29043725 0.0037399586 1.3956152
-0.02611593 -0.059798401 0.050936799
0.27089036 0.065602198 1.4081045
1.1931307 0.29666275 5.1462846
1.273566 0.17839316 5.0316
0.2741574 0.09544161 1.4165859
1.2050885 0.40605333 5.1230316
1.2833853 0.28591791 5.0013514
1.3598036 0.17269799 4.8848329
-0.02611593 -0.059798401 0.050936799
1.2946646 0.39098722 4.9960389
1.3688507 0.27599192 4.8675261
1.447438 0.1676192 4.7590575
1.2896917 0.49334955 4.9779773
1.3792081 0.376975 4.8671589
1.4535449 0.26685223 4.7457337
1.5331515 0.16347514 4.6373363
1.3724296 0.47614604 4.8600769
1.4597749 0.36395893 4.7393708
1.5362433 0.25871956 4.6239967
-0.02611593 -0.059798401 0.050936799
1.4520144 0.45809817 4.7342176
1.5405891 0.35170746 4.624598
-0.02611593 -0.059798401 0.050936799
0.39416826 -0.0076378481 1.1163726
1.5320832 0.44359744 4.6334224
-0.02611593 -0.059798401 0.050936799
0.3868362 0.012781832 1.094872
1.7602416 0.15120468 4.2697382
1.6090921 0.42816195 4.5296659
0.37544087 0.031270482 1.0704114
0.49653843 0.026870983 1.2881384
1.8291347 0.14895841 4.1573696
-0.02611593 -0.059798401 0.050936799
0.49676374 0.050740272 1.2955685
1.8328308 0.23057196 4.1787839
1.9001547 0.14557856 4.0519428
0.48978049 0.073833853 1.2921158
1.8252134 0.30851504 4.1843381
1.8935746 0.22348192 4.0594783
1.9672393 0.14415845 3.9496267
1.8107995 0.38528442 4.2010031
1.8870951 0.2982772 4.072957
1.960681 0.21802628 3.9590888
2.0312831 0.14178543 3.8453493
1.8717031 0.37101465 4.091567
1.9543021 0.28971356 3.9785116
2.023788 0.21258503 3.8587747
2.0943871 0.14036158 3.7441077
1.9369546 0.35940444 4.0001044
2.0153604 0.28131616 3.8761818
2.0849366 0.20811456 3.7605159
2.1638122 0.13960847 3.6597657
1.9970535 0.34695706 3.9007204
2.0755684 0.27277762 3.7818682
2.1533692 0.20434746 3.6771383
2.2241268 0.13899624 3.5695949
2.0542691 0.3354117 3.8074086
2.1379566 0.26706859 3.6965678
2.2126908 0.20072123 3.5879316
2.2782702 0.1375685 3.4705217
2.1135259 0.32482284 3.7160769
2.1931281 0.2585842 3.6003489
2.2627854 0.19634452 3.4868805
2.3406775 0.13685861 3.3853116
2.1750147 0.3160094 3.6367393
2.2514942 0.2519078 3.5141063
2.3232191 0.1926062 3.4036531
2.3980527 0.13720268 3.2982142
2.2292912 0.30542037 3.5465007
2.308902 0.24619864 3.4298995
2.3816571 0.18987481 3.3204813
2.4482753 0.13671678 3.2032328
2.2856646 0.29573357 3.4612415
2.3622317 0.23957632 3.3417513
2.4329429 0.18631348 3.2294259
2.5088375 0.13686919 3.1260755
2.3421168 0.28697425 3.3799982
2.4207556 0.23475486 3.2635419
2.4904413 0.18453129 3.1492901
2.5612319 0.13721317 3.0400717
2.3914542 0.27734873 3.2928708
2.4680488 0.2281903 3.1735075
2.5408807 0.18182862 3.0662687
2.6116872 0.13850984 2.9571223
2.4480414 0.26946262 3.2186437
2.5226336 0.22432879 3.0983899
2.5913241 0.18012583 2.9832654
2.6692722 0.13965477 2.8810391
2.4974802 0.26174632 3.1365504
2.5761395 0.21954335 3.0192747
2.6489534 0.17821701 2.9101269
2.7197461 0.14093336 2.7990894
2.5479562 0.25399023 3.0564382
2.6286829 0.21472535 2.9421778
2.699434 0.176478 2.8291228
2.7692163 0.14121568 2.7171404
2.6005256 0.24613655 2.9812865
2.6792121 0.21093242 2.8641365
2.7448788 0.17479312 2.7462134
2.8157136 0.1434904 2.6362839
2.6490433 0.23935136 2.9032285
2.7257009 0.20619023 2.7841535
2.7954383 0.17398164 2.6692259
2.8682809 0.14467138 2.5592949
2.6996167 0.23250467 2.8281326
2.7772863 0.20233943 2.7090924
2.845017 0.17315561 2.5932572
2.962553 0.15003502 2.5186131
2.748172 0.22568327 2.7520742
2.8248198 0.19955711 2.6311257
2.8965952 0.17232242 2.5172508
3.022258 0.15306392 2.4485261
2.7936904 0.21890883 2.6740732
2.8662906 0.19485091 2.5502367
2.9908972 0.17565027 2.4785321
3.0657141 0.15438572 2.3657086
2.8382127 0.21313778 2.5961087
2.9687326 0.1960057 2.5193291
3.0404794 0.17582406 2.4025812
3.1091747 0.15670733 2.2829087
2.8878467 0.20724027 2.5240483
3.016289 0.19420508 2.4423802
3.085984 0.17508477 2.3226888
3.1749573 0.16064218 2.2167258
2.9872818 0.20640612 2.493161
3.0638788 0.19136854 2.3674121
3.1376264 0.17619696 2.2497172
3.2184927 0.16289143 2.1379247
3.0267262 0.19972554 2.411274
3.1175237 0.1884561 2.2953308
3.1882277 0.1763491 2.1747472
3.263994 0.16616955 2.0571046
3.074327 0.19487122 2.3372698
3.1590209 0.1857315 2.2154777
3.2307174 0.1766385 2.0939295
4.6850653 0.26369625 2.7735052
3.1269827 0.18994464 2.266171
3.211674 0.18482238 2.143451
4.6684532 0.27647415 2.8450718
4.7742343 0.27014148 2.6739187
3.171524 0.18415551 2.1892061
3.2622633 0.18197505 2.0684266
4.7303786 0.27723441 2.7338886
4.6603541 0.26326451 2.4698572
3.2211244 0.17929401 2.1151643
4.6855068 0.28033155 2.7938049
4.802361 0.27890438 2.6255343
4.6375332 0.26205036 2.3202116
3.2677293 0.17544308 2.0411971
4.7565308 0.27795154 2.6883965
4.5926127 0.26218417 2.3780749
4.7147079 0.26953852 2.2208688
4.7038865 0.26680845 2.7632055
4.8053298 0.27486762 2.5713873
4.6637688 0.26469475 2.2787545
4.931057 0.2854082 2.1810918
4.7850132 0.26228431 2.6635714
4.6198726 0.2567721 2.3394535
4.9517684 0.28167617 2.2726674
4.9445829 0.28773853 2.048836
4.6045022 0.24020763 2.4294724
4.6909938 0.25530145 2.2390614
4.9299769 0.27842256 2.1249666
7.3238492 0.45778644 2.8056219
4.6332326 0.2332505 2.309768
5.0284004 0.27270883 2.2540641
5.100749 0.28899744 2.0559371
7.3251972 0.46129587 2.610594
4.7376437 0.23037213 2.2247322
5.1084304 0.27229619 2.1485226
7.5862465 0.45541218 2.8246727
7.3648682 0.46736082 2.4319005
5.0639119 0.24092881 2.2338176
5.1793313 0.27204245 2.0361524
7.6589971 0.45926869 2.6503215
7.372313 0.47175816 2.2417765
5.1247578 0.23574793 2.1195459
8.1175461 0.45119825 2.9426892
7.7165928 0.46132404 2.4682183
7.3597569 0.47522739 2.0520098
8.8518181 0.43545347 3.3788044
8.3339596 0.45788962 2.8017106
7.8194818 0.46794564 2.3003547
7.3743534 0.48045459 1.8697693
9.161541 0.43848601 3.2540185
8.4083519 0.45606554 2.6092196
7.855988 0.47016686 2.1136484
7.3679142 0.48479363 1.6859061
9.4095812 0.43738949 3.0943005
8.5471039 0.45866725 2.4346097
7.9045148 0.47332671 1.9277341
7.3554969 0.49013594 1.5031732
9.6997423 0.44003302 2.9398634
8.78228 0.46752518 2.2803144
7.9721766 0.47829145 1.7484962
7.3390727 0.49349284 1.3204794
9.9896936 0.4418757 2.7744119
8.8755798 0.46772307 2.082504
8.024725 0.48241866 1.5635244
7.2916327 0.49597931 1.1373507
10.094432 0.43353853 2.5482235
8.9939785 0.46974042 1.8892584
8.072238 0.48659998 1.376647
7.2492881 0.49935719 0.95914412
10.425234 0.43737841 2.3740404
9.1343575 0.47269669 1.6946175
8.0916395 0.48999053 1.1842799
7.2841406 0.50827688 0.78959548
10.948465 0.44911176 2.219404
9.3138199 0.47944 1.5033147
8.1802721 0.49791557 1.0027024
6.1196847 0.42357162 0.52677596
11.079912 0.44396657 1.9767677
9.3567095 0.47821558 1.2844155
8.1555939 0.49853688 0.8071093
5.9868317 0.41878912 0.37712604
11.258414 0.44059804 1.7362831
9.4326992 0.47978181 1.0699482
6.0483446 0.35688362 0.46888566
-0.02611593 -0.059798401 0.050936799
12.129627 0.46709773 1.5743961
6.1530399 0.29062545 0.5707615
6.0526848 0.35942712 0.32680222
-0.02611593 -0.059798401 0.050936799
11.550856 0.43163401 1.2264729
5.9960556 0.2800386 0.41545647
6.0130248 0.36012891 0.18550956
3.0404575 0.19406246 0.0030981987
6.1058812 0.19456676 0.52789223
6.021421 0.28047094 0.27494174
3.0571477 0.15519749 0.047097597
3.0761447 0.201213 -0.068464875
5.9859686 0.18477461 0.37590867
3.630214 0.14498812 0.10020158
3.0778224 0.15840255 -0.024255697
3.1097729 0.2074251 -0.14300738
6.0073004 0.18124005 0.23439738
3.0694938 0.11362831 0.020105353
3.106462 0.16261484 -0.097740613
2.6709063 0.17378099 -0.17841122
3.085264 0.061642524 0.070886925
3.1091421 0.1157834 -0.052622635
2.7763793 0.14081267 -0.14797199
2.7186706 0.18181592 -0.24618311
3.0978832 0.059913278 -0.0024054518
3.1267533 0.1170538 -0.12695457
2.7312148 0.13909262 -0.20917824
2.7633939 0.18889795 -0.31591597
3.1375048 0.060086794 -0.076169148
2.7287912 0.094387308 -0.16992825
2.7689314 0.14420013 -0.2788156
2.3411798 0.15456332 -0.3166323
2.8623207 0.048212159 -0.13425145
2.7585166 0.096505933 -0.23846968
1.9445169 0.085520141 -0.22842476
2.3680708 0.16054733 -0.37704802
2.76315 0.042686585 -0.19451508
2.794203 0.098639213 -0.30912322
2.3745081 0.11895391 -0.34591037
2.4019086 0.16756029 -0.44057626
3.1052771 0.054240946 -0.29974729
2.3240857 0.072421208 -0.30579448
2.4003541 0.12297802 -0.40834266
2.4317098 0.17462382 -0.50602859
1.9434472 0.010319417 -0.21776143
2.4037986 0.078377798 -0.37620303
2.4291472 0.12804547 -0.47381228
2.7233808 0.2068788 -0.63895106
3.0585387 0.049023144 -0.4440155
2.4295993 0.080438435 -0.44067067
2.7517371 0.15524432 -0.61040628
2.6415188 0.20400229 -0.68348551
2.9763732 0.045436211 -0.5045625
2.5579741 0.088544428 -0.52995783
2.7823243 0.16050355 -0.68690979
2.5228872 0.19602424 -0.71441925
2.8892834 0.04179487 -0.56101704
2.8246248 0.10485568 -0.66069955
2.6038973 0.14954239 -0.70577383
2.4013913 0.18893017 -0.73828095
2.8162098 0.0380852 -0.6167348
2.8541479 0.10817312 -0.74021918
2.4872923 0.14353873 -0.73570937
2.452919 0.19918554 -0.81908751
2.8447213 0.038406737 -0.69628978
2.5722487 0.093079388 -0.72921056
2.5407894 0.15080553 -0.81760734
-0.02611593 -0.059798401 0.050936799
2.7587624 0.034635186 -0.74576539
2.4327936 0.086013742 -0.75073475
2.6269925 0.16124283 -0.91606587
0.18937677 -0.037079547 -0.035716202
2.540621 0.027563643 -0.74981052
3.0616703 0.12470673 -1.036906
-0.02611593 -0.059798401 0.050936799
-0.02611593 -0.059798401 0.050936799
2.4091346 0.022505131 -0.77344823
-0.02611593 -0.059798401 0.050936799
0.18632025 -0.04203175 -0.037749257
0.16435479 -0.038971394 -0.036282144
3.0646024 0.044429719 -1.0784271
0.18833771 -0.047074255 -0.035877597
-0.02611593 -0.059798401 0.050936799
-0.02611593 -0.059798401 0.050936799
-0.02611593 -0.059798401 0.050936799
-0.02611593 -0.059798401 0.050936799
0.15933608 -0.043952599 -0.036278285
0.14435454 -0.039899446 -0.035924353
0.18131541 -0.053048111 -0.035854176
0.16926235 -0.047933538 -0.039537247
-0.02611593 -0.059798401 0.050936799
-0.02611593 -0.059798401 0.050936799
-0.02611593 -0.059798401 0.050936799
-0.02611593 -0.059798401 0.050936799
0.13437417 -0.044898886 -0.033827223
0.12238814 -0.041856326 -0.033547677
0.15729716 -0.053943723 -0.036420889
0.14826226 -0.048858002 -0.039160665
-0.02611593 -0.059798401 0.050936799
-0.02611593 -0.059798401 0.050936799
-0.02611593 -0.059798401 0.050936799
-0.02611593 -0.059798401 0.050936799
0.11935425 -0.045826793 -0.034563035
0.10836805 -0.04278782 -0.034302283
0.13827798 -0.054857273 -0.037081555
0.12924311 -0.049771558 -0.039821327
-0.02611593 -0.059798401 0.050936799
-0.02611593 -0.059798401 0.050936799
-0.02611593 -0.059798401 0.050936799
-0.02611593 -0.059798401 0.050936799
0.10633397 -0.046761878 -0.035336439
0.097347401 -0.043730088 -0.035113271
0.11631945 -0.054814491 -0.034668829
0.11126118 -0.050724868 -0.038501456
-0.02611593 -0.059798401 0.050936799
-0.02611593 -0.059798401 0.050936799
-0.02611593 -0.059798401 0.050936799
-0.02611593 -0.059798401 0.050936799
0.091351517 -0.047725961 -0.034072936
0.08733052 -0.043676108 -0.035925031
0.10329917 -0.05574958 -0.035442237
0.097278543 -0.051692545 -0.037256744
-0.02611593 -0.059798401 0.050936799
-0.02611593 -0.059798401 0.050936799
-0.02611593 -0.059798401 0.050936799
-0.02611593 -0.059798401 0.050936799
0.075425409 -0.048740722 -0.029791668
0.073381387 -0.045679793 -0.032699019
0.090301558 -0.055702925 -0.035197962
0.085280739 -0.051649477 -0.037031256
-0.02611593 -0.059798401 0.050936799
-0.02611593 -0.059798401 0.050936799
-0.02611593 -0.059798401 0.050936799
-0.02611593 -0.059798401 0.050936799
0.069370344 -0.048664924 -0.032677911
0.068326131 -0.045607582 -0.035604052
0.077318728 -0.056674182 -0.033972032
0.076263666 -0.051599089 -0.037861802
-0.02611593 -0.059798401 0.050936799
-0.02611593 -0.059798401 0.050936799
-0.02611593 -0.059798401 0.050936799
-0.02611593 -0.059798401 0.050936799
0.061349157 -0.049617954 -0.033545256
0.057361666 -0.046604104 -0.033416037
0.072244756 -0.056583881 -0.037876733
0.065280475 -0.052577529 -0.036673464
-0.02611593 -0.059798401 0.050936799
-0.02611593 -0.059798401 0.050936799
-0.02611593 -0.059798401 0.050936799
-0.02611593 -0.059798401 0.050936799
0.054350436 -0.04959283 -0.033413723
0.051344048 -0.046564482 -0.034302961
0.059303299 -0.056591496 -0.034633469
0.056282114 -0.052545231 -0.036504351
-0.02611593 -0.059798401 0.050936799
-0.02611593 -0.059798401 0.050936799
-0.02611593 -0.059798401 0.050936799
-0.02611593 -0.059798401 0.050936799
0.04929518 -0.049520619 -0.036318764
0.043364231 -0.046553861 -0.033152968
0.050323673 -0.056577284 -0.033464689
0.050279286 -0.053523529 -0.036409628
-0.02611593 -0.059798401 0.050936799
-0.02611593 -0.059798401 0.050936799
-0.02611593 -0.059798401 0.050936799
-0.02611593 -0.059798401 0.050936799
0.038386878 -0.050571416 -0.031131774
0.038323771 -0.047499571 -0.035076369
0.044287324 -0.056519572 -0.035351276
0.042280752 -0.053494815 -0.036259301
-0.02611593 -0.059798401 0.050936799
-0.02611593 -0.059798401 0.050936799
-0.02611593 -0.059798401 0.050936799
-0.02611593 -0.059798401 0.050936799
0.034350168 -0.050520878 -0.033055931
0.033305965 -0.047463536 -0.035982076
0.035363864 -0.05655963 -0.031183511
0.036263127 -0.053455193 -0.037146218
-0.02611593 -0.059798401 0.050936799
-0.02611593 -0.059798401 0.050936799
-0.02611593 -0.059798401 0.050936799
-0.02611593 -0.059798401 0.050936799
-0.02611593 -0.059798401 0.050936799
0.027325783 -0.047460094 -0.034869675
0.031308427 -0.056491002 -0.034107335
0.030264223 -0.05343366 -0.037033476
-0.02611593 -0.059798401 0.050936799
-0.02611593 -0.059798401 0.050936799
-0.02611593 -0.059798401 0.050936799
-0.02611593 -0.059798401 0.050936799
0.0252582 -0.050398137 -0.037885129
0.022307977 -0.047424059 -0.035775378
0.026253177 -0.056418791 -0.037012368
0.02330295 -0.053444717 -0.034902621
-0.02611593 -0.059798401 0.050936799
-0.02611593 -0.059798401 0.050936799
-0.02611593 -0.059798401 0.050936799
-0.02611593 -0.059798401 0.050936799
-0.02611593 -0.059798401 0.050936799
-0.02611593 -0.059798401 0.050936799
-0.02611593 -0.059798401 0.050936799
-0.02611593 -0.059798401 0.050936799
-0.02611593 -0.059798401 0.050936799
-0.02611593 -0.059798401 0.050936799
-0.02611593 -0.059798401 0.050936799
-0.02611593 -0.059798401 0.050936799
-0.02611593 -0.059798401 0.050936799
-0.02611593 -0.059798401 0.050936799
-0.02611593 -0.059798401 0.050936799
-0.02611593 -0.059798401 0.050936799
-0.02611593 -0.059798401 0.050936799
-0.02611593 -0.059798401 0.050936799
-0.02611593 -0.059798401 0.050936799
-0.02611593 -0.059798401 0.050936799
-0.02611593 -0.059798401 0.050936799
-0.02611593 -0.059798401 0.050936799
-0.02611593 -0.059798401 0.050936799
-0.02611593 -0.059798401 0.050936799
-0.02611593 -0.059798401 0.050936799
-0.02611593 -0.059798401 0.050936799
-0.02611593 -0.059798401 0.050936799
-0.02611593 -0.059798401 0.050936799
-0.02611593 -0.059798401 0.050936799
-0.02611593 -0.059798401 0.050936799
-0.02611593 -0.059798401 0.050936799
-0.02611593 -0.059798401 0.050936799
-0.02611593 -0.059798401 0.050936799
-0.02611593 -0.059798401 0.050936799
-0.02611593 -0.059798401 0.050936799
-0.02611593 -0.059798401 0.050936799
-0.02611593 -0.059798401 0.050936799
-0.02611593 -0.059798401 0.050936799
-0.02611593 -0.059798401 0.050936799
-0.02611593 -0.059798401 0.050936799
-0.02611593 -0.059798401 0.050936799
-0.02611593 -0.059798401 0.050936799
-0.02611593 -0.059798401 0.050936799
-0.02611593 -0.059798401 0.050936799
-0.02611593 -0.059798401 0.050936799
-0.02611593 -0.059798401 0.050936799
-0.02611593 -0.059798401 0.050936799
-0.02611593 -0.059798401 0.050936799
-0.02611593 -0.059798401 0.050936799
-0.02611593 -0.059798401 0.050936799
-0.02611593 -0.059798401 0.050936799
-0.02611593 -0.059798401 0.050936799
-0.02611593 -0.059798401 0.050936799
-0.02611593 -0.059798401 0.050936799
-0.02611593 -0.059798401 0.050936799
-0.02611593 -0.059798401 0.050936799
-0.02611593 -0.059798401 0.050936799
-0.02611593 -0.059798401 0.050936799
-0.02611593 -0.059798401 0.050936799
-0.02611593 -0.059798401 0.050936799
-0.02611593 -0.059798401 0.050936799
-0.02611593 -0.059798401 0.050936799
-0.02611593 -0.059798401 0.050936799
-0.02611593 -0.059798401 0.050936799
-0.02611593 -0.059798401 0.050936799
-0.02611593 -0.059798401 0.050936799
-0.02611593 -0.059798401 0.050936799
-0.02611593 -0.059798401 0.050936799
-0.02611593 -0.059798401 0.050936799
-0.02611593 -0.059798401 0.050936799
-0.02611593 -0.059798401 0.050936799
-0.02611593 -0.059798401 0.050936799
-0.02611593 -0.059798401 0.050936799
-0.02611593 -0.059798401 0.050936799
-0.02611593 -0.059798401 0.050936799
-0.02611593 -0.059798401 0.050936799
-0.02611593 -0.059798401 0.050936799
-0.02611593 -0.059798401 0.050936799
-0.02611593 -0.059798401 0.050936799
-0.02611593 -0.059798401 0.050936799
-0.02611593 -0.059798401 0.050936799
-0.02611593 -0.059798401 0.050936799
-0.02611593 -0.059798401 0.050936799
-0.02611593 -0.059798401 0.050936799
-0.02611593 -0.059798401 0.050936799
-0.02611593 -0.059798401 0.050936799
-0.02611593 -0.059798401 0.050936799
-0.02611593 -0.059798401 0.050936799
-0.02611593 -0.059798401 0.050936799
-0.02611593 -0.059798401 0.050936799
-0.02611593 -0.059798401 0.050936799
-0.02611593 -0.059798401 0.050936799
-0.02611593 -0.059798401 0.050936799
-0.02611593 -0.059798401 0.050936799
-0.02611593 -0.059798401 0.050936799
-0.02611593 -0.059798401 0.050936799
-0.02611593 -0.059798401 0.050936799
-0.02611593 -0.059798401 0.050936799
-0.02611593 -0.059798401 0.050936799
-0.02611593 -0.059798401 0.050936799
-0.02611593 -0.059798401 0.050936799
-0.02611593 -0.059798401 0.050936799
-0.02611593 -0.059798401 0.050936799
-0.02611593 -0.059798401 0.050936799
-0.02611593 -0.059798401 0.050936799
-0.02611593 -0.059798401 0.050936799
-0.02611593 -0.059798401 0.050936799
-0.02611593 -0.059798401 0.050936799
-0.02611593 -0.059798401 0.050936799
-0.02611593 -0.059798401 0.050936799
-0.02611593 -0.059798401 0.050936799
-0.02611593 -0.059798401 0.050936799
-0.02611593 -0.059798401 0.050936799
-0.02611593 -0.059798401 0.050936799
-0.02611593 -0.059798401 0.050936799
-0.02611593 -0.059798401 0.050936799
-0.02611593 -0.059798401 0.050936799
-0.02611593 -0.059798401 0.050936799
-0.02611593 -0.059798401 0.050936799
-0.02611593 -0.059798401 0.050936799
-0.02611593 -0.059798401 0.050936799
-0.02611593 -0.059798401 0.050936799
-0.02611593 -0.059798401 0.050936799
-0.02611593 -0.059798401 0.050936799
-0.02611593 -0.059798401 0.050936799
-0.02611593 -0.059798401 0.050936799
-0.02611593 -0.059798401 0.050936799
-0.02611593 -0.059798401 0.050936799
-0.02611593 -0.059798401 0.050936799
-0.02611593 -0.059798401 0.050936799
-0.02611593 -0.059798401 0.050936799
-0.02611593 -0.059798401 0.050936799
-0.02611593 -0.059798401 0.050936799
-0.02611593 -0.059798401 0.050936799
-0.02611593 -0.059798401 0.050936799
-0.02611593 -0.059798401 0.050936799
-0.02611593 -0.059798401 0.050936799
-0.02611593 -0.059798401 0.050936799
-0.02611593 -0.059798401 0.050936799
-0.02611593 -0.059798401 0.050936799
-0.02611593 -0.059798401 0.050936799
-0.02611593 -0.059798401 0.050936799
-0.02611593 -0.059798401 0.050936799
-0.02611593 -0.059798401 0.050936799
-0.02611593 -0.059798401 0.050936799
-0.02611593 -0.059798401 0.050936799
-0.02611593 -0.059798401 0.050936799
-0.02611593 -0.059798401 0.050936799
-0.02611593 -0.059798401 0.050936799
-0.02611593 -0.059798401 0.050936799
-0.02611593 -0.059798401 0.050936799
-0.02611593 -0.059798401 0.050936799
-0.02611593 -0.059798401 0.050936799
-0.02611593 -0.059798401 0.050936799
-0.02611593 -0.059798401 0.050936799
-0.02611593 -0.059798401 0.050936799
-0.02611593 -0.059798401 0.050936799
-0.02611593 -0.059798401 0.050936799
-0.02611593 -0.059798401 0.050936799
-0.02611593 -0.059798401 0.050936799
-0.02611593 -0.059798401 0.050936799
-0.02611593 -0.059798401 0.050936799
-0.02611593 -0.059798401 0.050936799
-0.02611593 -0.059798401 0.050936799
-0.02611593 -0.059798401 0.050936799
-0.02611593 -0.059798401 0.050936799
-0.02611593 -0.059798401 0.050936799
-0.02611593 -0.059798401 0.050936799
-0.02611593 -0.059798401 0.050936799
-0.02611593 -0.059798401 0.050936799
-0.02611593 -0.059798401 0.050936799
-0.02611593 -0.059798401 0.050936799
-0.02611593 -0.059798401 0.050936799
-0.02611593 -0.059798401 0.050936799
-0.02611593 -0.059798401 0.050936799
-0.074750073 -0.052020818 -0.037041776
-0.02611593 -0.059798401 0.050936799
-0.02611593 -0.059798401 0.050936799
-0.02611593 -0.059798401 0.050936799
-0.02611593 -0.059798401 0.050936799
-0.0747087 -0.051057164 -0.035024431
-0.02611593 -0.059798401 0.050936799
-0.07970085 -0.054056801 -0.033984877
-0.079749167 -0.052002873 -0.036947824
-0.02611593 -0.059798401 0.050936799
-0.02611593 -0.059798401 0.050936799
-0.02611593 -0.059798401 0.050936799
-0.02611593 -0.059798401 0.050936799
-0.078670532 -0.051078986 -0.032949951
-0.078700118 -0.049043149 -0.034913234
-0.086737014 -0.053995501 -0.035852659
-0.08369226 -0.052042782 -0.033873674
-0.02611593 -0.059798401 0.050936799
-0.02611593 -0.059798401 0.050936799
-0.02611593 -0.059798401 0.050936799
-0.02611593 -0.059798401 0.050936799
-0.084684223 -0.050039534 -0.033818848
-0.02611593 -0.059798401 0.050936799
-0.093731806 -0.052970547 -0.035703108
-0.093784049 -0.051916447 -0.038684074
-0.02611593 -0.059798401 0.050936799
-0.02611593 -0.059798401 0.050936799
-0.02611593 -0.059798401 0.050936799
-0.02611593 -0.059798401 0.050936799
-0.090683132 -0.050017998 -0.033706106
-0.086642496 -0.049068704 -0.031763922
-0.096656367 -0.053032137 -0.031648092
-0.099779025 -0.050895084 -0.038553312
-0.02611593 -0.059798401 0.050936799
-0.02611593 -0.059798401 0.050936799
-0.02611593 -0.059798401 0.050936799
-0.02611593 -0.059798401 0.050936799
-0.09460751 -0.050076 -0.0296323
-0.094697185 -0.048985727 -0.034612585
-0.10874779 -0.052898623 -0.036420915
-0.10370339 -0.050953083 -0.034479503
-0.02611593 -0.059798401 0.050936799
-0.02611593 -0.059798401 0.050936799
-0.02611593 -0.059798401 0.050936799
-0.02611593 -0.059798401 0.050936799
-0.10571782 -0.049927987 -0.035423566
-0.0986403 -0.04902564 -0.031538438
-0.11063116 -0.052000146 -0.030367337
-0.11475755 -0.05085934 -0.037271794
-0.02611593 -0.059798401 0.050936799
-0.02611593 -0.059798401 0.050936799
-0.02611593 -0.059798401 0.050936799
-0.02611593 -0.059798401 0.050936799
-0.10660531 -0.050032932 -0.029406812
-0.10665756 -0.048978839 -0.032387778
-0.12270385 -0.051884726 -0.034140501
-0.11969654 -0.04989583 -0.034160841
-0.02611593 -0.059798401 0.050936799
-0.02611593 -0.059798401 0.050936799
-0.02611593 -0.059798401 0.050936799
-0.02611593 -0.059798401 0.050936799
-0.11764076 -0.049957275 -0.031199437
-0.11261901 -0.048993483 -0.030275702
-0.12964247 -0.050914042 -0.030991964
-0.12971343 -0.049841855 -0.034972593
-0.02611593 -0.059798401 0.050936799
-0.02611593 -0.059798401 0.050936799
-0.02611593 -0.059798401 0.050936799
-0.02611593 -0.059798401 0.050936799
-0.12359827 -0.048972093 -0.029069353
-0.12366923 -0.047899906 -0.033049978
-0.14065918 -0.050856475 -0.031784937
-0.13665599 -0.049870998 -0.031842083
-0.02611593 -0.059798401 0.050936799
-0.02611593 -0.059798401 0.050936799
-0.02611593 -0.059798401 0.050936799
-0.02611593 -0.059798401 0.050936799
-0.13361517 -0.048918113 -0.029881101
-0.12961197 -0.04793264 -0.029938243
-0.15063471 -0.049838841 -0.030579347
-0.14665024 -0.048835281 -0.031636156
-0.02611593 -0.059798401 0.050936799
-0.02611593 -0.059798401 0.050936799
-0.02611593 -0.059798401 0.050936799
-0.02611593 -0.059798401 0.050936799
-0.14461315 -0.048878636 -0.029674403
-0.1385916 -0.047918428 -0.028769478
-0.16462821 -0.048788771 -0.030298259
-0.16166228 -0.047763526 -0.032335941
-0.02611593 -0.059798401 0.050936799
-0.02611593 -0.059798401 0.050936799
-0.02611593 -0.059798401 0.050936799
-0.02611593 -0.059798401 0.050936799
-0.15660703 -0.047835737 -0.0294309
-0.15264522 -0.047813918 -0.031505395
-0.18465808 -0.047680981 -0.031903755
-0.17364137 -0.047738552 -0.031110793
-0.02611593 -0.059798401 0.050936799
-0.02611593 -0.059798401 0.050936799
-0.02611593 -0.059798401 0.050936799
-0.02611593 -0.059798401 0.050936799
-0.16858612 -0.047810763 -0.02820576
-0.16563889 -0.046767432 -0.031243097
-0.19255908 -0.046742886 -0.026737101
-0.18761614 -0.046706565 -0.029830039
-0.02611593 -0.059798401 0.050936799
-0.02611593 -0.059798401 0.050936799
-0.02611593 -0.059798401 0.050936799
-0.02611593 -0.059798401 0.050936799
-0.18457925 -0.046753507 -0.027887091
-0.17052959 -0.047857851 -0.025169194
-0.22060226 -0.044588469 -0.029173918
-0.20962299 -0.044609863 -0.030380279
-0.02611593 -0.059798401 0.050936799
-0.02611593 -0.059798401 0.050936799
-0.02611593 -0.059798401 0.050936799
-0.02611593 -0.059798401 0.050936799
-0.20457165 -0.045681901 -0.027493261
-0.18954089 -0.046771742 -0.025793813
-0.25160745 -0.042459466 -0.029555038
-0.23863247 -0.043487862 -0.030816995
-0.02611593 -0.059798401 0.050936799
-0.02611593 -0.059798401 0.050936799
-0.02611593 -0.059798401 0.050936799
-0.02611593 -0.059798401 0.050936799
-0.23461449 -0.043520309 -0.029892497
-0.21456985 -0.045646012 -0.027305357
-1.0066991 0.017513908 -0.25140804
-0.26560095 -0.041409392 -0.02927395
-0.02611593 -0.059798401 0.050936799
-0.02611593 -0.059798401 0.050936799
-1.0042127 0.017036416 -0.22545443
-0.02611593 -0.059798401 0.050936799
-0.26360524 -0.042416397 -0.029329553
-0.2496344 -0.044448216 -0.030628316
-1.0228456 0.018760566 -0.20606783
-1.0123127 0.01515591 -0.23033844
-0.02611593 -0.059798401 0.050936799
-0.02611593 -0.059798401 0.050936799
-1.0253958 0.018337194 -0.18201956
-1.0299311 0.015858559 -0.20998895
-1.019402 0.011254066 -0.23427765
-0.99982631 0.0045633465 -0.25577247
-1.035978 0.018978545 -0.15980232
-1.0335037 0.014457036 -0.18693961
-1.0229559 0.0098344535 -0.21022859
-1.0204896 0.0033132837 -0.23740196
-1.0535923 0.020681025 -0.13943481
-1.0400717 0.014066111 -0.16381589
-1.040597 0.0095553622 -0.19089684
-1.0320979 0.00197665 -0.2162016
-1.0441072 0.020178409 -0.11361275
-1.0536721 0.014736316 -0.14254192
-1.0461503 0.0081429277 -0.16681024
-1.0577788 0.00076261675 -0.19873688
-1.0556891 0.020823348 -0.091376707
-1.0562222 0.014312945 -0.11849368
-1.0557405 0.0067810304 -0.14464781
-1.0482829 -0.0017577456 -0.17195114
-1.0752658 0.022496821 -0.068972312
-1.0637901 0.013925608 -0.095351152
-1.0532955 0.0053398805 -0.12071154
-1.0608726 -0.0031088828 -0.14973235
-1.080834 0.022102308 -0.045867361
-1.0663402 0.013502238 -0.071302921
-1.0638628 0.0049633104 -0.09751264
-1.0694481 -0.0054922896 -0.12660706
-1.0953927 0.023739759 -0.022557266
-1.0829213 0.01416512 -0.048972912
-1.0724344 0.0035797353 -0.074369326
-1.0669844 -0.006951523 -0.10167112
-1.1069373 0.024348522 0.0016781092
-1.09347 0.013770462 -0.024774358
-1.0850016 0.003210343 -0.051132858
-1.0855918 -0.008263031 -0.080339245
-1.1394891 0.027050391 0.025344457
-1.1240444 0.015483412 -0.0021632612
-1.0895553 0.0017943232 -0.027065054
-1.0881308 -0.010704152 -0.055327401
-1.150992 0.028622804 0.051597171
-1.1355929 0.015092342 0.022054091
-1.1111392 0.0014753201 -0.0046591163
-0.02611593 -0.059798401 0.050936799
-1.154538 0.029202852 0.075682208
-1.1500994 0.01567569 0.048345156
-1.1336857 0.001123728 0.019764926
-0.02611593 -0.059798401 0.050936799
-1.1620458 0.029761078 0.10184175
-1.1596295 0.015259353 0.073524587
-1.1602087 0.0017682289 0.04528182
-1.1448214 -0.014761722 0.015684683
-1.1755339 0.030322742 0.12911367
-1.1671413 0.014817749 0.099666096
-1.1487318 -0.00074122573 0.071030274
-0.02611593 -0.059798401 0.050936799
-1.1780427 0.030863024 0.15517926
-1.1756489 0.015379564 0.12584442
-1.1652607 -0.0011324408 0.096341237
-1.1408601 -0.018712608 0.067556635
-1.2104632 0.033438276 0.18584323
-1.190118 0.015926735 0.15413481
-1.1847514 -0.0015490667 0.1237079
-0.02611593 -0.059798401 0.050936799
-0.02611593 -0.059798401 0.050936799
-1.1986108 0.015470631 0.18129477
-0.02611593 -0.059798401 0.050936799
-0.02611593 -0.059798401 0.050936799
-1.2154244 0.034464575 0.24097335
-1.214061 0.016003303 0.21060362
-1.2166783 -0.0024617091 0.18130867
-0.02611593 -0.059798401 0.050936799
-1.2457891 0.036978386 0.27459875
-0.02611593 -0.059798401 0.050936799
-0.02611593 -0.059798401 0.050936799
-0.02611593 -0.059798401 0.050936799
-0.02611593 -0.059798401 0.050936799
-1.2339487 0.016011246 0.26999623
-1.2365925 -0.0044353344 0.2396656
-1.233264 -0.026885018 0.20818651
-0.02611593 -0.059798401 0.050936799
-0.02611593 -0.059798401 0.050936799
-0.02611593 -0.059798401 0.050936799
-0.02611593 -0.059798401 0.050936799
-0.02611593 -0.059798401 0.050936799
-1.3244854 0.020965634 0.34780732
-0.02611593 -0.059798401 0.050936799
-0.02611593 -0.059798401 0.050936799
-1.3400843 0.046773914 0.4175899
-1.307968 0.019401887 0.37547916
-0.02611593 -0.059798401 0.050936799
-0.02611593 -0.059798401 0.050936799
-3.1131935 0.19250974 0.98661631
-0.02611593 -0.059798401 0.050936799
-0.02611593 -0.059798401 0.050936799
-0.02611593 -0.059798401 0.050936799
-3.0918677 0.19115363 1.0572164
-3.1224434 0.12855291 0.9856323
-6.282805 0.19260485 1.7832317
-0.02611593 -0.059798401 0.050936799
-3.1589663 0.19860892 1.1576416
-3.0862031 0.12521566 1.0519159
-3.1107686 0.060575679 0.98118252
-1.5305102 -0.035358761 0.46568576
-3.2249937 0.20498842 1.2620287
-3.1522987 0.12864996 1.1532497
-3.0904508 0.05722351 1.0517653
-3.1081052 -0.015385988 0.97775745
-3.2829671 0.21128497 1.3692642
-3.2262805 0.13200442 1.2607321
-3.1575284 0.055626061 1.1550274
-3.0897574 -0.020766817 1.0503411
-3.3766031 0.22040269 1.4942247
-3.2921927 0.134258 1.3720446
-3.2334692 0.05493411 1.2654741
-3.1628122 -0.026378233 1.1556431
-3.4572046 0.22943753 1.6209402
-3.3679497 0.13740256 1.4915603
-3.2983975 0.053184774 1.3766958
-3.2347693 -0.031083854 1.2659427
-4.8317466 0.34815976 2.3810806
-3.465414 0.14235443 1.6265205
-3.3771133 0.052286536 1.4991949
-3.2986948 -0.036854185 1.3780732
-4.7004685 0.3394101 2.4494874
-4.8043485 0.22017148 2.3732495
-3.4675984 0.052214123 1.6339333
-3.3823359 -0.042824082 1.5055743
-4.5811996 0.3327212 2.5171564
-4.6918755 0.21230891 2.4520283
-4.7917151 0.089002401 2.3786421
-3.4748068 -0.048924476 1.6422417
-4.6469421 0.34087378 2.6895931
-4.5745196 0.20353712 2.5246971
-4.6723228 0.080187246 2.4532726
-4.8059411 -0.055248469 2.3943045
-4.691823 0.34807771 2.8546197
-4.744154 0.21201716 2.7571054
-4.571754 0.072277285 2.5372751
-4.6696267 -0.064052284 2.464617
-4.567596 0.34040725 2.9201775
-4.6693254 0.20696488 2.8546457
-4.7463284 0.071686365 2.7746136
-4.6156235 -0.07320942 2.5724769
-3.1616335 0.21911334 2.1293917
-4.548027 0.19823298 2.9242406
-4.6487036 0.063732937 2.8616712
-4.7505059 -0.083688959 2.794888
-4.3529739 0.3280431 3.0599828
-4.4436045 0.1914532 3.0001886
-3.4660394 0.028037 2.2536769
-3.2892275 -0.083011575 2.0502887
-2.6142852 0.1743997 1.9382703
-4.3244333 0.18385495 3.0628414
-4.4150071 0.047210831 3.0060458
-3.2131336 -0.088365406 2.1087871
-4.1434264 0.31576926 3.1958835
-2.618237 0.086049154 1.9577528
-3.2633784 0.014635216 2.3426702
-3.1795342 -0.096052974 2.1950481
-4.0362635 0.3102318 3.257798
-2.7535398 0.093037039 2.154479
-2.60833 -0.0042246729 1.9699384
-3.2525256 -0.10369171 2.3573315
-3.9379861 0.30461812 3.3258796
-4.0056214 0.16292846 3.2665625
-2.7238741 -0.0051082298 2.1551485
-2.5777125 -0.10031959 1.9676261
-2.3790488 0.16136684 2.1106887
-2.4170618 0.074165806 2.0738106
-3.9847684 0.01646189 3.2865293
-2.4961257 -0.10520656 1.9990209
-1.8809241 0.11693013 1.748436
-1.9136692 0.045509443 1.7227484
-2.4188759 -0.017336123 2.1011987
-2.4490452 -0.11043823 2.0570645
-1.8343227 0.11416842 1.7805245
-1.8660491 0.042726073 1.7558178
-1.8977795 -0.029716117 1.731093
-2.4236233 -0.11591655 2.1335154
-1.9064534 0.1237222 1.9320991
-1.8223534 0.039884705 1.7929608
-1.8491222 -0.032539248 1.7661428
-1.8847886 -0.10803893 1.7454379
-2.0647125 0.14183545 2.1824746
-1.9778397 0.048169792 2.0331032
-1.8770798 -0.035403118 1.8756516
-1.8312111 -0.11180748 1.7763772
-2.2588599 0.16403149 2.491616
-2.1624141 0.057693925 2.3218291
-2.0461833 -0.035464395 2.1379056
-1.9484864 -0.12097193 1.9774752
-3.2737751 0.27012783 3.7629681
-3.3319867 0.12197272 3.7273655
-2.2649102 -0.036663141 2.474093
-2.1449168 -0.13261822 2.278044
-3.1826241 0.26566571 3.8242013
-3.2358589 0.11651094 3.7874875
-3.2901044 -0.030622467 3.7498288
-3.3493245 -0.18579085 3.7151189
-3.093431 0.26217443 3.8874898
-3.1406939 0.11101656 3.8496275
-3.1929247 -0.037141938 3.8129129
-3.2481265 -0.19234276 3.7791276
-3.0023358 0.2577666 3.9457242
-3.0475655 0.10556555 3.9098058
-3.0947828 -0.043628827 3.8739786
-3.1470037 -0.19882232 3.8391373
-2.9082642 0.25236624 4.0028849
-2.9514563 0.10012184 3.9689276
-2.9995797 -0.049159389 3.938118
-3.0497305 -0.20543224 3.9072199
-2.8181274 0.24892567 4.0631552
-2.8563657 0.094699815 4.0270691
-2.9043994 -0.055671677 4.0012393
-2.9495513 -0.21196249 3.970247
-2.725126 0.2446011 4.1163535
-2.7671206 0.090154454 4.0933385
-2.8101594 -0.061234828 4.0673971
-2.8504095 -0.21845296 4.0312943
-2.6398761 0.24106988 4.1827164
-2.6740298 0.084739611 4.1515174
-2.7160125 -0.066707522 4.1285563
-2.7570975 -0.22508469 4.1014514
-2.5477815 0.23665845 4.240932
-2.5799165 0.080302924 4.2106948
-2.6208134 -0.073237911 4.1926775
-2.6550124 -0.23153168 4.1594429
-2.4557238 0.23228323 4.2971482
-2.4877319 0.074801221 4.273891
-2.524667 -0.078717798 4.253799
-2.5548666 -0.23702592 4.2204895
-2.3694742 0.22874844 4.363492
-2.394618 0.070368104 4.3330879
-2.4265587 -0.084168665 4.3128834
-2.4575973 -0.24463567 4.2885532
-2.2734361 0.22437695 4.418633
-2.3004529 0.064877331 4.395246
-2.3293974 -0.090670057 4.3749681
-2.3593616 -0.25121301 4.3546181
-2.1794164 0.2200307 4.4728127
-2.2101328 0.060256004 4.4654951
-2.2341721 -0.095218867 4.4401245
-2.2601595 -0.25675792 4.4186821
-2.0930917 0.21642357 4.5431552
-2.1111326 0.055909902 4.5185814
-2.1350675 -0.10167316 4.4991722
-2.1638486 -0.26340041 4.4887824
-1.9999931 0.21300837 4.6013703
-2.0160236 0.050469801 4.5777225
-2.040771 -0.10729057 4.5683289
-2.0626469 -0.26895252 4.5528088
-1.0342922 0.08360225 2.525245
-1.9227378 0.046873726 4.6459341
-1.9415689 -0.11283548 4.6323929
-1.9604679 -0.27548993 4.615799
-0.94842547 0.076340526 2.465486
-0.98067433 -0.0065581575 2.5216093
-1.8423816 -0.11736248 4.6954751
-1.8581955 -0.28211778 4.6837869
-0.86849755 0.070045918 2.4088564
-0.88145757 -0.011237342 2.4266348
-1.7411463 -0.12395057 4.7614827
-1.7529945 -0.28768423 4.7477384
-0.79624599 0.06447234 2.3693895
