# .PCD v0.7 - Point Cloud Data file format
VERSION 0.7
FIELDS x y z
SIZE 4 4 4
TYPE F F F
COUNT 1 1 1
WIDTH 1406
HEIGHT 1
VIEWPOINT 0 0 0 1 0 0 0
POINTS 1406
DATA ascii
-0.077790856 -0.38575271 7.0493803
-0.05058156 -0.60593283 6.9958701
0.045784995 0.041693009 6.8907452
0.063416779 -0.17183226 6.8585415
0.083663605 -0.37797153 6.8044147
0.11099007 -0.59224319 6.756011
0.1907275 0.039030351 6.6739097
0.20917282 -0.16930041 6.6307812
0.23266339 -0.37066841 6.5886841
0.26273203 -0.57868046 6.5253372
0.32576549 0.036313124 6.4622602
0.3472673 -0.16706543 6.421165
0.37255251 -0.36322439 6.367125
0.40577132 -0.56637466 6.3108091
0.45329562 0.034154132 6.2767706
0.47864392 -0.16507666 6.226675
0.50379503 -0.35709158 6.1647096
0.53899962 -0.55421388 6.1064653
0.5737108 0.031128973 6.0853968
0.60002238 -0.16305201 6.0323734
0.62928605 -0.35017258 5.9754214
0.6633566 -0.54314721 5.9092703
0.68949044 0.029777683 5.913146
0.71668261 -0.16128075 5.8531604
0.74688685 -0.34433323 5.792263
0.78508478 -0.53343147 5.7321072
0.79730511 0.027419135 5.7430272
0.82979292 -0.15992926 5.6980147
-0.02611593 -0.059798401 0.050936799
-0.02611593 -0.059798401 0.050936799
-0.02611593 -0.059798401 0.050936799
-0.02611593 -0.059798401 0.050936799
0.17877592 -0.115803 1.1714674
0.18419889 -0.15240219 1.1476958
1.0006335 0.023079202 5.4400392
1.0340174 -0.15714735 5.3881364
0.19919167 -0.11531761 1.1400833
0.20676404 -0.15206869 1.1242714
1.0950536 0.021191888 5.3021903
-0.02611593 -0.059798401 0.050936799
0.22079445 -0.11501668 1.1186769
0.23044531 -0.15084748 1.1068443
0.29015601 -0.039144203 1.3888425
1.2174894 -0.15452522 5.0916486
0.24560268 -0.11492552 1.1082107
0.25316027 -0.15065868 1.0914171
1.2688369 0.016525492 5.0237584
0.3166222 -0.083934456 1.3155119
0.26617214 -0.11358501 1.0848418
0.27902445 -0.15062538 1.0839309
1.3513756 0.015572518 4.8921509
0.33909374 -0.083510503 1.2870892
0.29007018 -0.11458053 1.0793746
0.30497831 -0.15168235 1.0814251
1.4343411 0.013203666 4.7835178
0.373256 -0.083795331 1.2954472
0.32024798 -0.11586892 1.0887895
0.33504379 -0.15286219 1.0848421
1.5090082 0.011152953 4.65904
0.40951157 -0.084177777 1.3087661
0.34829903 -0.11602367 1.0912623
0.36305344 -0.1539806 1.0852975
1.5859599 0.0098235533 4.5495386
0.36249405 -0.08013431 1.0946469
0.37838325 -0.11722162 1.0956788
0.39522699 -0.156276 1.0946567
-0.02611593 -0.059798401 0.050936799
0.46190274 -0.08378914 1.275781
0.4105607 -0.11851718 1.1050562
0.43986246 -0.16006652 1.1287642
0.47714376 -0.040922642 1.2802726
1.7649392 -0.14663954 4.2572579
0.45831186 -0.12142718 1.145123
1.8491197 -0.44537172 4.1102285
1.7929654 0.0047769547 4.2294631
1.8319232 -0.14495164 4.1489978
1.874121 -0.29090878 4.0805445
1.9181005 -0.43967354 4.0010033
1.8558595 0.002552256 4.1172075
1.8949414 -0.14428541 4.0427942
1.9381281 -0.28822839 3.9733582
1.9842126 -0.43409127 3.8988318
1.9169828 0.0011174679 4.0170031
1.962221 -0.14388677 3.9505107
2.0033262 -0.28473261 3.8761678
2.0452135 -0.42838258 3.7907562
1.9802552 -0.00046918541 3.9247582
2.0203152 -0.14327493 3.8483992
2.0634465 -0.28214639 3.7750549
2.1125841 -0.42405695 3.7025433
2.0405285 -0.0020450875 3.8325703
2.0826147 -0.14287645 3.7572093
2.128828 -0.27983138 3.6878431
2.1778982 -0.41966993 3.6113691
2.0978022 -0.003610231 3.7404382
2.1501379 -0.14271295 3.6779211
2.1860425 -0.27732483 3.5917847
2.2351019 -0.41514564 3.5143466
2.1592247 -0.0053344257 3.6562285
2.2053859 -0.14123526 3.5838816
2.2453692 -0.27493399 3.5016866
2.2964544 -0.41078037 3.425247
2.2155735 -0.0069683194 3.568114
2.2586308 -0.14075018 3.4898615
2.3078258 -0.27268055 3.4185297
2.3538079 -0.4064008 3.3362222
2.2709789 -0.0086529031 3.4830174
2.3150251 -0.1404206 3.4037824
2.3632095 -0.27032962 3.331506
2.4101431 -0.40199956 3.2462165
2.3233654 -0.010308616 3.3969777
2.3756053 -0.14028627 3.327625
2.4155557 -0.26793176 3.2425389
2.4666085 -0.39772493 3.1632085
2.3829796 -0.011206701 3.3228202
2.4218702 -0.13979417 3.2347362
2.4730701 -0.26571465 3.1624753
2.5220709 -0.39444652 3.0802014
2.4272742 -0.012743264 3.2319322
2.4784181 -0.13860947 3.1566725
2.5255098 -0.26340723 3.0785067
2.5744624 -0.39008516 2.9932697
2.4818666 -0.014605138 3.1568511
2.5360327 -0.13950038 3.0825524
2.5780063 -0.26115406 2.9975369
2.627948 -0.38581789 2.9113176
2.5323477 -0.01634413 3.0758471
2.5814326 -0.13813148 2.9966979
2.6325395 -0.25894427 2.9185293
2.6824665 -0.38259014 2.8313284
2.5849633 -0.017217092 3.0018208
2.636014 -0.13797562 2.9206531
2.6728692 -0.25648528 2.8287885
2.7248037 -0.37813863 2.7415857
2.6385934 -0.019111566 2.9287579
2.6855593 -0.13776562 2.8427029
2.7254217 -0.25428635 2.7508175
2.7834711 -0.37507004 2.6695185
2.6851165 -0.019872539 2.8498464
2.7341046 -0.13755204 2.7647715
2.7790489 -0.25216344 2.676827
2.8329949 -0.37082452 2.5896409
2.7224874 -0.021456346 2.7630885
2.7847056 -0.1373999 2.6898012
2.8296351 -0.25099337 2.6008754
2.8805146 -0.36757165 2.509783
2.777211 -0.023444843 2.6950047
2.8271623 -0.1360745 2.6070023
2.8751328 -0.24871509 2.5200372
2.9686329 -0.3680588 2.4621081
2.8187308 -0.025187716 2.6161692
2.8737452 -0.13588993 2.5311079
2.973474 -0.24945521 2.4841707
3.0212116 -0.36387837 2.3851733
2.8693655 -0.02607158 2.5431805
2.9771795 -0.13673842 2.5001457
3.0280783 -0.24831758 2.4091434
3.065676 -0.36056048 2.3023727
2.9627266 -0.026811827 2.5084074
3.0267804 -0.13658269 2.4251943
3.0695579 -0.24600686 2.3273807
3.1212881 -0.35742679 2.2273629
3.011358 -0.028688356 2.4354384
3.0692899 -0.1363114 2.345376
3.1262405 -0.24394897 2.2563324
3.1678309 -0.35318866 2.1485415
3.058974 -0.029543374 2.3615062
3.1260018 -0.13628934 2.2762914
3.1717901 -0.24272479 2.1784756
3.2224576 -0.35106927 2.0745318
3.1045868 -0.031391039 2.2875936
3.1705666 -0.13607949 2.1994348
3.2203622 -0.24052963 2.1015799
4.6673174 -0.46920717 2.8205962
3.1552215 -0.032274906 2.2146046
3.2181497 -0.1358985 2.1235216
4.6332769 -0.3124339 2.8420765
4.7382751 -0.46449798 2.7103157
3.2008345 -0.034122583 2.1406922
3.2657554 -0.13473576 2.0486257
4.7184262 -0.31097341 2.742475
4.7981071 -0.45862281 2.5932617
3.2555244 -0.035075068 2.0706275
4.6984305 -0.16633874 2.7684746
4.787395 -0.30827481 2.6331956
-0.02611593 -0.059798401 0.050936799
4.679564 -0.026851535 2.8023624
4.7623916 -0.16562182 2.6592526
4.57165 -0.29085261 2.3794641
-0.02611593 -0.059798401 0.050936799
4.7445703 -0.029191963 2.6960671
4.771821 -0.16418652 2.5220559
4.6548934 -0.28947538 2.2848983
5.0119052 -0.44442648 2.2584023
4.8156171 -0.030590273 2.5916762
4.7449799 -0.16135085 2.3705585
4.9720478 -0.29884684 2.2917933
5.0939169 -0.43981099 2.1509137
4.7321963 -0.034009762 2.4111149
4.7403922 -0.15984723 2.2326248
5.0742502 -0.29750162 2.1948712
5.1587067 -0.43491748 2.031749
-0.02611593 -0.059798401 0.050936799
5.050436 -0.1640678 2.2327437
5.1411262 -0.29470539 2.080631
13.617953 -1.0198288 4.8947592
5.022656 -0.036672875 2.273582
5.1163421 -0.16330379 2.1204855
13.554566 -0.6627658 5.0194468
13.827436 -1.0082834 4.5969448
5.0966415 -0.039027508 2.1661177
13.497826 -0.3284708 5.1295938
13.745019 -0.65513349 4.7209177
14.018796 -0.99554706 4.2924891
5.1524811 -0.041172836 2.0509944
13.683424 -0.32698229 4.8400474
13.93345 -0.64847571 4.4214087
14.22508 -0.98279208 3.9837532
13.612875 -0.015904441 4.9650378
13.877924 -0.32643548 4.5453157
14.137896 -0.64189339 4.1225991
14.434341 -0.97002977 3.6739609
13.804502 -0.021490566 4.6782517
14.073408 -0.32487434 4.2495842
14.340174 -0.63514125 3.8148296
14.608335 -0.95587081 3.3498499
13.994979 -0.026928376 4.3834877
14.260739 -0.3241396 3.945987
14.542399 -0.62733495 3.5040793
13.477331 -0.86273962 2.7575092
14.176378 -0.033261359 4.0848751
14.464998 -0.32239372 3.6380901
14.000497 -0.59163499 3.0287101
13.04276 -0.81367081 2.3493948
14.390779 -0.037713114 3.7856791
14.566736 -0.3187573 3.3031378
13.194162 -0.54750031 2.5314367
12.287665 -0.74884093 1.9135572
14.580956 -0.042861499 3.4749203
14.100275 -0.30584741 2.8549526
12.588267 -0.51152605 2.1102884
11.780967 -0.70034218 1.5527987
14.506971 -0.04890779 3.1050708
13.362334 -0.28844082 2.3829236
11.997036 -0.4782528 1.7248291
11.467109 -0.66441709 1.237218
13.690403 -0.055692442 2.6050668
12.708476 -0.27339917 1.9682971
11.510592 -0.45014811 1.3813286
6.1340427 -0.37282434 0.53810489
13.006039 -0.061123542 2.1676333
12.144349 -0.26040038 1.5919666
11.14986 -0.42721489 1.0753937
5.9741716 -0.35440534 0.38337886
12.411564 -0.065742664 1.7765474
11.601837 -0.24707404 1.2482486
6.0480423 -0.25311032 0.46285504
6.0205798 -0.34706765 0.24359532
11.862707 -0.069120571 1.4176407
6.1398711 -0.15686093 0.54090333
6.0423813 -0.2465135 0.320032
6.0769114 -0.33969355 0.099625245
11.364479 -0.073292948 1.091783
5.9759459 -0.15242521 0.38600016
6.0276842 -0.23984821 0.1753787
3.8788295 -0.23206118 -0.01031106
6.0477276 -0.069101848 0.46418995
6.0243306 -0.15109371 0.24607095
3.8749876 -0.17193997 0.039865408
-0.02611593 -0.059798401 0.050936799
6.0440497 -0.071528755 0.32216677
6.0716968 -0.1497405 0.10516083
3.8933027 -0.1693839 -0.050461881
-0.02611593 -0.059798401 0.050936799
6.0273738 -0.073909022 0.18038787
3.8913393 -0.11617824 -0.0054474268
3.6317942 -0.15791474 -0.13038537
-0.02611593 -0.059798401 0.050936799
3.8884232 -0.070040144 0.043458339
3.9675984 -0.11579379 -0.098899931
3.6621635 -0.15545602 -0.21793917
-0.02611593 -0.059798401 0.050936799
-0.02611593 -0.059798401 0.050936799
3.6461713 -0.11019874 -0.17280579
3.7553864 -0.15409659 -0.31369239
3.839396 -0.19870555 -0.46512356
3.611196 -0.070908435 -0.12542418
-0.02611593 -0.059798401 0.050936799
3.7995882 -0.15052547 -0.41048822
1.9311998 -0.12593043 -0.25801036
-0.02611593 -0.059798401 0.050936799
-0.02611593 -0.059798401 0.050936799
1.930773 -0.1044009 -0.23160399
4.1299462 -0.19451353 -0.70556909
-0.02611593 -0.059798401 0.050936799
3.8398056 -0.10877512 -0.46050289
-0.02611593 -0.059798401 0.050936799
3.4446793 -0.16654436 -0.66521949
3.8079188 -0.075603105 -0.40728781
1.9244409 -0.083984792 -0.25312343
3.5722351 -0.1344399 -0.64301938
3.9330113 -0.17488958 -0.86358052
1.9279524 -0.06843242 -0.22889963
4.0585966 -0.10855917 -0.68667203
3.962054 -0.1378648 -0.81543827
3.7371352 -0.16226906 -0.91070086
4.2192054 -0.080644824 -0.66116548
3.4958355 -0.10064817 -0.66998684
3.3449523 -0.1223547 -0.76458663
3.6319501 -0.1527033 -0.97458017
3.4539113 -0.077438556 -0.61676407
3.5031862 -0.099088639 -0.75812614
3.4448929 -0.12074907 -0.87546635
2.6259036 -0.12261096 -0.76012725
4.0190954 -0.081916079 -0.82449722
3.5393593 -0.098470196 -0.8558253
3.7178161 -0.12182675 -1.041652
2.5024104 -0.11464613 -0.78668004
3.3670423 -0.079368614 -0.76822388
3.70683 -0.098674133 -0.99201065
2.571738 -0.10016765 -0.7727114
2.4098105 -0.10870177 -0.81884968
3.4232039 -0.080821618 -0.86633492
2.6121976 -0.086711556 -0.7512182
2.4333479 -0.095257014 -0.79303843
-0.02611593 -0.059798401 0.050936799
2.6556408 -0.077265523 -0.72985351
2.4668009 -0.083775453 -0.77144969
-0.02611593 -0.059798401 0.050936799
0.18627521 -0.063064359 -0.036128312
2.5648668 -0.077182621 -0.7701661
2.4119165 -0.081713542 -0.8184008
0.19427769 -0.062093239 -0.03626062
-0.02611593 -0.059798401 0.050936799
2.4314194 -0.077252895 -0.79267651
-0.02611593 -0.059798401 0.050936799
-0.02611593 -0.059798401 0.050936799
0.15334135 -0.062000357 -0.032491229
-0.02611593 -0.059798401 0.050936799
0.18828273 -0.061071876 -0.036129858
0.17024855 -0.060971096 -0.037790962
-0.02611593 -0.059798401 0.050936799
0.19031979 -0.061115231 -0.034168124
-0.02611593 -0.059798401 0.050936799
-0.02611593 -0.059798401 0.050936799
0.13631095 -0.060903341 -0.0341531
-0.02611593 -0.059798401 0.050936799
0.15928802 -0.060967796 -0.035584934
0.14230986 -0.060924876 -0.034265842
-0.02611593 -0.059798401 0.050936799
0.16032527 -0.061007567 -0.033604406
-0.02611593 -0.059798401 0.050936799
-0.02611593 -0.059798401 0.050936799
0.11635598 -0.059867911 -0.031759944
-0.02611593 -0.059798401 0.050936799
0.13829578 -0.059892599 -0.035172313
0.12826017 -0.059820533 -0.036983743
-0.02611593 -0.059798401 0.050936799
0.1353673 -0.060954019 -0.031135324
-0.02611593 -0.059798401 0.050936799
-0.02611593 -0.059798401 0.050936799
0.10136265 -0.05881425 -0.031460065
-0.02611593 -0.059798401 0.050936799
0.11831816 -0.05983891 -0.033796851
0.1103009 -0.059792109 -0.03464618
-0.02611593 -0.059798401 0.050936799
0.12033261 -0.060864009 -0.032852784
-0.02611593 -0.059798401 0.050936799
-0.02611593 -0.059798401 0.050936799
0.093307942 -0.058731265 -0.03430872
-0.02611593 -0.059798401 0.050936799
0.10628291 -0.059759669 -0.035570681
0.099269398 -0.058716625 -0.036420796
-0.02611593 -0.059798401 0.050936799
0.10433552 -0.060806587 -0.032552134
-0.02611593 -0.059798401 0.050936799
-0.02611593 -0.059798401 0.050936799
0.080329053 -0.0587027 -0.03306479
-0.02611593 -0.059798401 0.050936799
0.091323107 -0.059742011 -0.033289507
0.088252693 -0.058659054 -0.037213761
-0.02611593 -0.059798401 0.050936799
0.093318813 -0.060749017 -0.033345107
-0.02611593 -0.059798401 0.050936799
-0.02611593 -0.059798401 0.050936799
0.066406496 -0.058724813 -0.02880308
-0.02611593 -0.059798401 0.050936799
0.082287304 -0.059673533 -0.035119709
0.075292513 -0.058648579 -0.034970157
-0.02611593 -0.059798401 0.050936799
0.080339924 -0.060720451 -0.032101162
-0.02611593 -0.059798401 0.050936799
-0.02611593 -0.059798401 0.050936799
0.061351247 -0.058652602 -0.031708103
-0.02611593 -0.059798401 0.050936799
0.069327138 -0.059663054 -0.032876115
0.067275256 -0.058601778 -0.035819501
-0.02611593 -0.059798401 0.050936799
0.067379743 -0.060709972 -0.029857568
-0.02611593 -0.059798401 0.050936799
-0.02611593 -0.059798401 0.050936799
0.052375544 -0.057638556 -0.030521311
-0.02611593 -0.059798401 0.050936799
0.060328782 -0.059630752 -0.032706998
0.062201291 -0.058511477 -0.03972419
-0.02611593 -0.059798401 0.050936799
0.061324671 -0.060634173 -0.032743808
-0.02611593 -0.059798401 0.050936799
-0.02611593 -0.059798401 0.050936799
0.045376826 -0.05761344 -0.030389778
-0.02611593 -0.059798401 0.050936799
0.055296179 -0.0585768 -0.034594346
0.055183843 -0.058468267 -0.040592317
-0.02611593 -0.059798401 0.050936799
0.052345037 -0.060619961 -0.031575028
-0.02611593 -0.059798401 0.050936799
-0.02611593 -0.059798401 0.050936799
0.037415739 -0.057620902 -0.028240133
-0.02611593 -0.059798401 0.050936799
0.043391988 -0.058624178 -0.029370554
0.047204033 -0.058457643 -0.039442334
-0.02611593 -0.059798401 0.050936799
0.04534632 -0.060594842 -0.031443492
-0.02611593 -0.059798401 0.050936799
-0.02611593 -0.059798401 0.050936799
0.033364229 -0.056552451 -0.03114593
-0.02611593 -0.059798401 0.050936799
0.039317828 -0.058537465 -0.03329403
0.039224215 -0.058447022 -0.038292341
-0.02611593 -0.059798401 0.050936799
0.037385233 -0.060602304 -0.02929385
-0.02611593 -0.059798401 0.050936799
-0.02611593 -0.059798401 0.050936799
-0.02611593 -0.059798401 0.050936799
-0.02611593 -0.059798401 0.050936799
0.035262395 -0.058468845 -0.036217861
0.031263124 -0.058454487 -0.036142699
-0.02611593 -0.059798401 0.050936799
0.033329796 -0.060533684 -0.032217674
-0.02611593 -0.059798401 0.050936799
-0.02611593 -0.059798401 0.050936799
-0.02611593 -0.059798401 0.050936799
-0.02611593 -0.059798401 0.050936799
-0.02611593 -0.059798401 0.050936799
0.027230339 -0.057404127 -0.038048837
-0.02611593 -0.059798401 0.050936799
0.029274359 -0.06046506 -0.035141498
-0.02611593 -0.059798401 0.050936799
-0.02611593 -0.059798401 0.050936799
-0.02611593 -0.059798401 0.050936799
-0.02611593 -0.059798401 0.050936799
0.023283312 -0.058443867 -0.034992713
0.023193628 -0.05735359 -0.039972998
-0.02611593 -0.059798401 0.050936799
-0.02611593 -0.059798401 0.050936799
-0.02611593 -0.059798401 0.050936799
-0.02611593 -0.059798401 0.050936799
-0.02611593 -0.059798401 0.050936799
-0.02611593 -0.059798401 0.050936799
-0.02611593 -0.059798401 0.050936799
-0.02611593 -0.059798401 0.050936799
-0.02611593 -0.059798401 0.050936799
-0.02611593 -0.059798401 0.050936799
-0.02611593 -0.059798401 0.050936799
-0.02611593 -0.059798401 0.050936799
-0.02611593 -0.059798401 0.050936799
-0.02611593 -0.059798401 0.050936799
-0.02611593 -0.059798401 0.050936799
-0.02611593 -0.059798401 0.050936799
-0.02611593 -0.059798401 0.050936799
-0.02611593 -0.059798401 0.050936799
-0.02611593 -0.059798401 0.050936799
-0.02611593 -0.059798401 0.050936799
-0.02611593 -0.059798401 0.050936799
-0.02611593 -0.059798401 0.050936799
-0.02611593 -0.059798401 0.050936799
-0.02611593 -0.059798401 0.050936799
-0.02611593 -0.059798401 0.050936799
-0.02611593 -0.059798401 0.050936799
-0.02611593 -0.059798401 0.050936799
-0.02611593 -0.059798401 0.050936799
-0.02611593 -0.059798401 0.050936799
-0.02611593 -0.059798401 0.050936799
-0.02611593 -0.059798401 0.050936799
-0.02611593 -0.059798401 0.050936799
-0.02611593 -0.059798401 0.050936799
-0.02611593 -0.059798401 0.050936799
-0.02611593 -0.059798401 0.050936799
-0.02611593 -0.059798401 0.050936799
-0.02611593 -0.059798401 0.050936799
-0.02611593 -0.059798401 0.050936799
-0.02611593 -0.059798401 0.050936799
-0.02611593 -0.059798401 0.050936799
-0.02611593 -0.059798401 0.050936799
-0.02611593 -0.059798401 0.050936799
-0.02611593 -0.059798401 0.050936799
-0.02611593 -0.059798401 0.050936799
-0.02611593 -0.059798401 0.050936799
-0.02611593 -0.059798401 0.050936799
-0.02611593 -0.059798401 0.050936799
-0.02611593 -0.059798401 0.050936799
-0.02611593 -0.059798401 0.050936799
-0.02611593 -0.059798401 0.050936799
-0.02611593 -0.059798401 0.050936799
-0.02611593 -0.059798401 0.050936799
-0.02611593 -0.059798401 0.050936799
-0.02611593 -0.059798401 0.050936799
-0.02611593 -0.059798401 0.050936799
-0.02611593 -0.059798401 0.050936799
-0.02611593 -0.059798401 0.050936799
-0.02611593 -0.059798401 0.050936799
-0.02611593 -0.059798401 0.050936799
-0.02611593 -0.059798401 0.050936799
-0.02611593 -0.059798401 0.050936799
-0.02611593 -0.059798401 0.050936799
-0.02611593 -0.059798401 0.050936799
-0.02611593 -0.059798401 0.050936799
-0.02611593 -0.059798401 0.050936799
-0.02611593 -0.059798401 0.050936799
-0.02611593 -0.059798401 0.050936799
-0.02611593 -0.059798401 0.050936799
-0.02611593 -0.059798401 0.050936799
-0.02611593 -0.059798401 0.050936799
-0.02611593 -0.059798401 0.050936799
-0.02611593 -0.059798401 0.050936799
-0.02611593 -0.059798401 0.050936799
-0.02611593 -0.059798401 0.050936799
-0.02611593 -0.059798401 0.050936799
-0.02611593 -0.059798401 0.050936799
-0.02611593 -0.059798401 0.050936799
-0.02611593 -0.059798401 0.050936799
-0.02611593 -0.059798401 0.050936799
-0.02611593 -0.059798401 0.050936799
-0.02611593 -0.059798401 0.050936799
-0.02611593 -0.059798401 0.050936799
-0.02611593 -0.059798401 0.050936799
-0.02611593 -0.059798401 0.050936799
-0.02611593 -0.059798401 0.050936799
-0.02611593 -0.059798401 0.050936799
-0.02611593 -0.059798401 0.050936799
-0.02611593 -0.059798401 0.050936799
-0.02611593 -0.059798401 0.050936799
-0.02611593 -0.059798401 0.050936799
-0.02611593 -0.059798401 0.050936799
-0.02611593 -0.059798401 0.050936799
-0.02611593 -0.059798401 0.050936799
-0.02611593 -0.059798401 0.050936799
-0.02611593 -0.059798401 0.050936799
-0.02611593 -0.059798401 0.050936799
-0.02611593 -0.059798401 0.050936799
-0.02611593 -0.059798401 0.050936799
-0.02611593 -0.059798401 0.050936799
-0.02611593 -0.059798401 0.050936799
-0.02611593 -0.059798401 0.050936799
-0.02611593 -0.059798401 0.050936799
-0.02611593 -0.059798401 0.050936799
-0.02611593 -0.059798401 0.050936799
-0.02611593 -0.059798401 0.050936799
-0.02611593 -0.059798401 0.050936799
-0.02611593 -0.059798401 0.050936799
-0.02611593 -0.059798401 0.050936799
-0.02611593 -0.059798401 0.050936799
-0.02611593 -0.059798401 0.050936799
-0.02611593 -0.059798401 0.050936799
-0.02611593 -0.059798401 0.050936799
-0.02611593 -0.059798401 0.050936799
-0.02611593 -0.059798401 0.050936799
-0.02611593 -0.059798401 0.050936799
-0.02611593 -0.059798401 0.050936799
-0.02611593 -0.059798401 0.050936799
-0.02611593 -0.059798401 0.050936799
-0.02611593 -0.059798401 0.050936799
-0.02611593 -0.059798401 0.050936799
-0.02611593 -0.059798401 0.050936799
-0.02611593 -0.059798401 0.050936799
-0.02611593 -0.059798401 0.050936799
-0.02611593 -0.059798401 0.050936799
-0.02611593 -0.059798401 0.050936799
-0.02611593 -0.059798401 0.050936799
-0.02611593 -0.059798401 0.050936799
-0.02611593 -0.059798401 0.050936799
-0.02611593 -0.059798401 0.050936799
-0.02611593 -0.059798401 0.050936799
-0.02611593 -0.059798401 0.050936799
-0.02611593 -0.059798401 0.050936799
-0.02611593 -0.059798401 0.050936799
-0.02611593 -0.059798401 0.050936799
-0.02611593 -0.059798401 0.050936799
-0.02611593 -0.059798401 0.050936799
-0.02611593 -0.059798401 0.050936799
-0.02611593 -0.059798401 0.050936799
-0.02611593 -0.059798401 0.050936799
-0.02611593 -0.059798401 0.050936799
-0.02611593 -0.059798401 0.050936799
-0.02611593 -0.059798401 0.050936799
-0.02611593 -0.059798401 0.050936799
-0.02611593 -0.059798401 0.050936799
-0.02611593 -0.059798401 0.050936799
-0.02611593 -0.059798401 0.050936799
-0.02611593 -0.059798401 0.050936799
-0.02611593 -0.059798401 0.050936799
-0.02611593 -0.059798401 0.050936799
-0.02611593 -0.059798401 0.050936799
-0.02611593 -0.059798401 0.050936799
-0.02611593 -0.059798401 0.050936799
-0.02611593 -0.059798401 0.050936799
-0.02611593 -0.059798401 0.050936799
-0.02611593 -0.059798401 0.050936799
-0.02611593 -0.059798401 0.050936799
-0.02611593 -0.059798401 0.050936799
-0.02611593 -0.059798401 0.050936799
-0.02611593 -0.059798401 0.050936799
-0.02611593 -0.059798401 0.050936799
-0.02611593 -0.059798401 0.050936799
-0.02611593 -0.059798401 0.050936799
-0.02611593 -0.059798401 0.050936799
-0.02611593 -0.059798401 0.050936799
-0.02611593 -0.059798401 0.050936799
-0.02611593 -0.059798401 0.050936799
-0.02611593 -0.059798401 0.050936799
-0.02611593 -0.059798401 0.050936799
-0.02611593 -0.059798401 0.050936799
-0.02611593 -0.059798401 0.050936799
-0.02611593 -0.059798401 0.050936799
-0.02611593 -0.059798401 0.050936799
-0.02611593 -0.059798401 0.050936799
-0.02611593 -0.059798401 0.050936799
-0.02611593 -0.059798401 0.050936799
-0.02611593 -0.059798401 0.050936799
-0.02611593 -0.059798401 0.050936799
-0.02611593 -0.059798401 0.050936799
-0.02611593 -0.059798401 0.050936799
-0.02611593 -0.059798401 0.050936799
-0.02611593 -0.059798401 0.050936799
-0.02611593 -0.059798401 0.050936799
-0.02611593 -0.059798401 0.050936799
-0.081790172 -0.052959345 -0.038927577
-0.02611593 -0.059798401 0.050936799
-0.081678756 -0.058085121 -0.03202004
-0.02611593 -0.059798401 0.050936799
-0.02611593 -0.059798401 0.050936799
-0.079647698 -0.050093658 -0.031913474
-0.02611593 -0.059798401 0.050936799
-0.083670534 -0.056078278 -0.031946421
-0.085751988 -0.052981168 -0.036853097
-0.02611593 -0.059798401 0.050936799
-0.086659119 -0.058085263 -0.030926421
-0.02611593 -0.059798401 0.050936799
-0.02611593 -0.059798401 0.050936799
-0.02611593 -0.059798401 0.050936799
-0.02611593 -0.059798401 0.050936799
-0.087632351 -0.0561001 -0.029871941
-0.089691162 -0.05202125 -0.033760931
-0.02611593 -0.059798401 0.050936799
-0.090602219 -0.058125176 -0.027852282
-0.02611593 -0.059798401 0.050936799
-0.02611593 -0.059798401 0.050936799
-0.08962322 -0.049076028 -0.030707885
-0.02611593 -0.059798401 0.050936799
-0.09363126 -0.056078568 -0.029759198
-0.09772715 -0.051956363 -0.035609927
-0.02611593 -0.059798401 0.050936799
-0.097600937 -0.058100052 -0.027720749
-0.02611593 -0.059798401 0.050936799
-0.02611593 -0.059798401 0.050936799
-0.093566321 -0.049115941 -0.027633745
-0.02611593 -0.059798401 0.050936799
-0.10266313 -0.055010267 -0.031571385
-0.10167026 -0.051996272 -0.032535784
-0.02611593 -0.059798401 0.050936799
-0.10459965 -0.058074929 -0.027589213
-0.02611593 -0.059798401 0.050936799
-0.02611593 -0.059798401 0.050936799
-0.10058376 -0.049072728 -0.028501868
-0.02611593 -0.059798401 0.050936799
-0.10660623 -0.055050176 -0.028497238
-0.10866505 -0.050971318 -0.032386232
-0.02611593 -0.059798401 0.050936799
-0.11159837 -0.058049805 -0.027457681
-0.02611593 -0.059798401 0.050936799
-0.02611593 -0.059798401 0.050936799
-0.10657874 -0.048051365 -0.028371107
-0.02611593 -0.059798401 0.050936799
-0.11967481 -0.053931333 -0.032233596
-0.11768212 -0.05092093 -0.033216778
-0.02611593 -0.059798401 0.050936799
-0.12365235 -0.057952471 -0.03023117
-0.02611593 -0.059798401 0.050936799
-0.02611593 -0.059798401 0.050936799
-0.11762897 -0.046957791 -0.031145379
-0.02611593 -0.059798401 0.050936799
-0.12359919 -0.053989332 -0.028159779
-0.1246582 -0.049914066 -0.032067567
-0.02611593 -0.059798401 0.050936799
-0.12755801 -0.058028564 -0.025157712
-0.02611593 -0.059798401 0.050936799
-0.02611593 -0.059798401 0.050936799
-0.12055352 -0.047019377 -0.027090363
-0.02611593 -0.059798401 0.050936799
-0.13563445 -0.053910088 -0.029933613
-0.13972642 -0.048788048 -0.035766337
-0.02611593 -0.059798401 0.050936799
-0.14362995 -0.057898786 -0.028855707
-0.02611593 -0.059798401 0.050936799
-0.02611593 -0.059798401 0.050936799
-0.12649626 -0.047052111 -0.023978632
-0.02611593 -0.059798401 0.050936799
-0.14461012 -0.052896045 -0.028746825
-0.14868732 -0.048791926 -0.033597894
-0.02611593 -0.059798401 0.050936799
-0.15358676 -0.056899242 -0.026650459
-0.02611593 -0.059798401 0.050936799
-0.02611593 -0.059798401 0.050936799
-0.13852757 -0.045973033 -0.025734454
-0.02611593 -0.059798401 0.050936799
-0.15658922 -0.052871067 -0.027521674
-0.1576443 -0.047795974 -0.031411443
-0.02611593 -0.059798401 0.050936799
-0.1574737 -0.056993421 -0.020577334
-0.02611593 -0.059798401 0.050936799
-0.02611593 -0.059798401 0.050936799
-0.15054017 -0.044912055 -0.02649061
-0.02611593 -0.059798401 0.050936799
-0.16552748 -0.051893204 -0.024335559
-0.16658647 -0.047817942 -0.028243341
-0.02611593 -0.059798401 0.050936799
-0.17752227 -0.055867545 -0.023182482
-0.02611593 -0.059798401 0.050936799
-0.02611593 -0.059798401 0.050936799
-0.16251533 -0.043887243 -0.025247447
-0.02611593 -0.059798401 0.050936799
-0.18757568 -0.05076015 -0.026903126
-0.18561259 -0.045713909 -0.0298496
-0.02611593 -0.059798401 0.050936799
-0.2005555 -0.05574882 -0.024749625
-0.02611593 -0.059798401 0.050936799
-0.02611593 -0.059798401 0.050936799
-0.18154144 -0.041783217 -0.026853707
-0.02611593 -0.059798401 0.050936799
-0.20958646 -0.049663275 -0.027471386
-0.20460518 -0.044645898 -0.029474564
-0.02611593 -0.059798401 0.050936799
-0.23058353 -0.054605149 -0.02616721
-0.02611593 -0.059798401 0.050936799
-0.02611593 -0.059798401 0.050936799
-0.19549751 -0.040769316 -0.0245733
-0.02611593 -0.059798401 0.050936799
-0.24061038 -0.047516182 -0.028852161
-0.23161112 -0.042531244 -0.029930849
-0.02611593 -0.059798401 0.050936799
-0.23339182 -0.053775441 -0.016096212
-0.02611593 -0.059798401 0.050936799
-0.02611593 -0.059798401 0.050936799
-0.22555514 -0.037589803 -0.027954169
-0.02611593 -0.059798401 0.050936799
-0.24544096 -0.04766104 -0.019761257
-0.26866746 -0.039326608 -0.033180192
-0.02611593 -0.059798401 0.050936799
-1.0333468 -0.027888037 -0.22372103
-0.02611593 -0.059798401 0.050936799
-0.02611593 -0.059798401 0.050936799
-0.25354216 -0.035489656 -0.027391993
-1.0529608 -0.026178382 -0.20331593
-1.0372775 -0.00084209209 -0.22515868
-0.99640828 0.020206168 -0.23654699
-0.02611593 -0.059798401 0.050936799
-1.0534886 -0.025627188 -0.17828761
-1.0418233 -0.00025845738 -0.20105486
-1.0019727 0.020811483 -0.213424
-0.98022038 0.040036809 -0.23048928
-1.0700845 -0.023946386 -0.15693924
-1.042351 0.00029273517 -0.17602649
-1.0135961 0.02049277 -0.1932053
-0.99383944 0.040725105 -0.21021494
-1.0605578 -0.023485351 -0.12909983
-1.0649871 0.0010314186 -0.15658274
-1.0251968 0.021155797 -0.17196891
-1.0014448 0.040373944 -0.18907174
-1.0741355 -0.021833405 -0.10680819
-1.0565019 0.00053239195 -0.13074189
-1.0377973 0.021822412 -0.15071374
-1.0130682 0.04005523 -0.16885304
-1.090698 -0.021188609 -0.083478525
-1.0630473 0.0011232079 -0.10660046
-1.0513974 0.022492617 -0.12943976
-1.0246727 0.039718427 -0.14763469
-1.0731915 -0.020738196 -0.0567891
-1.0706114 0.0017356977 -0.083439909
-1.0449345 0.021019028 -0.10457899
-1.0392916 0.04041031 -0.1273416
-0.02611593 -0.059798401 0.050936799
-1.0791751 0.0023517839 -0.060260572
-1.0635339 0.021707177 -0.083211079
-1.030829 0.038929541 -0.10251841
-1.1233201 -0.016370025 -0.010755926
-1.0907155 0.0039603673 -0.036007181
-1.0680985 0.022308895 -0.060106896
-1.0434334 0.038596328 -0.081281237
-0.02611593 -0.059798401 0.050936799
-1.1092776 0.0046123434 -0.01263994
-1.0816613 0.02294293 -0.036833599
-1.061033 0.039280888 -0.05993212
-1.1393504 -0.014232061 0.040600277
-1.1258173 0.0062388745 0.011707406
-1.0882107 0.022533916 -0.012710206
-1.0826131 0.039961718 -0.03750816
-1.1478728 -0.012652326 0.065796956
-1.1433568 0.0078689996 0.036073536
-1.121781 0.025257464 0.0099752769
-1.100194 0.040628187 -0.015159369
-1.146401 -0.012108315 0.090787709
-1.1538643 0.008437993 0.062289443
-1.137306 0.025862493 0.035285465
-1.1187561 0.041280158 0.00820788
-1.1618994 -0.0095217163 0.1171336
-1.1683854 0.010039261 0.087598868
-1.1458324 0.026442396 0.060464136
-1.1272862 0.040860236 0.033368517
-0.02611593 -0.059798401 0.050936799
-1.1808738 0.010597343 0.11485201
-1.1663566 0.027065367 0.085868277
-1.1518059 0.042497382 0.058865849
-0.02611593 -0.059798401 0.050936799
-1.1833597 0.01211936 0.14193527
-1.175864 0.027630771 0.11206539
-1.1483608 0.041052654 0.082783327
-1.2172514 -0.0038739953 0.20430164
-1.1878494 0.012648731 0.16903809
-1.1743773 0.027156869 0.13803779
-1.1698661 0.041661121 0.10920592
-0.02611593 -0.059798401 0.050936799
-1.2092944 0.014202765 0.19847769
-1.1908423 0.028711047 0.16638377
-1.1913341 0.042233415 0.13762784
-1.2211863 -0.00086972257 0.26044869
-1.2317168 0.016742131 0.22895375
-1.2062923 0.029243711 0.19569261
-1.1958277 0.041762952 0.16471264
-0.02611593 -0.059798401 0.050936799
-1.2242126 0.016228603 0.25581306
-1.2207386 0.030772632 0.22500068
-0.02611593 -0.059798401 0.050936799
-0.02611593 -0.059798401 0.050936799
-1.2794714 0.020741343 0.29494256
-1.2242138 0.030280491 0.25306636
-1.2197521 0.041821439 0.22218111
-1.300185 0.0075380243 0.36611566
-0.02611593 -0.059798401 0.050936799
-1.251579 0.032783527 0.28663534
-0.02611593 -0.059798401 0.050936799
-0.02611593 -0.059798401 0.050936799
-1.3340707 0.025620807 0.36907819
-0.02611593 -0.059798401 0.050936799
-0.02611593 -0.059798401 0.050936799
-3.1267636 0.11382307 0.97144192
-1.3653041 0.028011583 0.40971997
-1.3241377 0.037691403 0.36310858
-0.02611593 -0.059798401 0.050936799
-3.0825613 0.11551052 1.0346663
-3.1298954 0.14708146 0.95809764
-1.327534 0.038126744 0.39519089
-0.02611593 -0.059798401 0.050936799
-3.1396992 0.12296611 1.1329042
-3.077744 0.1457769 1.0191183
-3.1389003 0.17421772 0.95275521
-0.02611593 -0.059798401 0.050936799
-3.2196376 0.132323 1.241607
-3.1369226 0.15227601 1.1153764
-3.0827987 0.16993549 1.0116473
-3.1658354 0.19432929 0.95262331
-3.2776215 0.14063728 1.3478789
-3.1950083 0.15868106 1.2166141
-3.1300476 0.17344628 1.104627
-3.0828669 0.18605939 1.0049381
-3.3533924 0.14981702 1.4655037
-3.2748382 0.1669296 1.3312969
-3.1930795 0.1788152 1.2089397
-3.1221473 0.18656006 1.0967137
-3.4379058 0.16179338 1.5963469
-3.3416746 0.17413166 1.4457171
-3.2729363 0.18508217 1.3225865
-3.1862063 0.189951 1.2000093
-3.5025437 0.17180684 1.7207804
-3.420295 0.18317746 1.5713955
-3.3338192 0.19029918 1.434859
-3.2650709 0.19421475 1.3136016
-4.7160196 0.2607125 2.4353504
-3.4948452 0.19113666 1.7009792
-3.4134469 0.19734892 1.5605199
-3.3398614 0.19839172 1.4311172
-4.594667 0.26096103 2.5061066
-4.7460799 0.28697854 2.4273856
-3.4860616 0.2033556 1.687031
-3.4195199 0.20246004 1.5557244
-4.6455836 0.27323991 2.6683371
-4.611866 0.28128996 2.4917915
-4.7581172 0.30110967 2.4228652
-3.4950483 0.20638739 1.6872542
-3.4316533 0.19200626 2.0829413
-4.6261315 0.28774461 2.6362245
-4.6209188 0.29141101 2.4871426
-4.7374139 0.29830617 2.4074214
-4.5858755 0.28755322 2.9155622
-3.4387996 0.20221055 2.0732563
-4.6143765 0.29295394 2.6220937
-4.6348538 0.28838941 2.4913502
-3.1866009 0.18806362 2.1373005
-4.5921617 0.29588088 2.8988247
-3.4319844 0.20336616 2.0631461
-4.627327 0.28592944 2.6262107
-4.3632007 0.28915796 3.0554693
-3.2253644 0.19400361 2.1491375
-4.5972395 0.29497138 2.8949018
-3.4280767 0.19440758 2.0599101
-2.6233766 0.15545332 1.9370974
-4.3753591 0.29136351 3.0467341
-3.2264359 0.19006214 2.1460853
-4.6022606 0.27995569 2.8967249
-4.1545525 0.29284886 3.1936765
-3.1207688 0.19412264 2.2862279
-4.3754921 0.28145564 3.0415554
-3.2205484 0.17609726 2.1427214
-4.0513043 0.29427025 3.2587912
-4.1597886 0.28506708 3.1826301
-3.2599337 0.19589162 2.3848987
-4.3735414 0.25941604 3.0431209
-3.9480758 0.29570979 3.3229063
-4.056478 0.28341672 3.2516894
-4.1489658 0.26913884 3.176137
-2.6443174 0.13138807 1.9450569
-2.3742075 0.15949394 2.1025617
-3.9473033 0.2808716 3.3136201
-4.050591 0.26443461 3.2492349
-4.157793 0.2409046 3.1907966
-1.8848929 0.11992587 1.7495649
-2.3832076 0.14949177 2.1045499
-3.949296 0.25879204 3.3182597
-4.0485711 0.23128831 3.2565999
-1.8362988 0.12017459 1.7806702
-1.8869544 0.10895301 1.7484046
-2.3822148 0.13343665 2.1072416
-3.9462504 0.22260651 3.3275511
-1.899588 0.13285837 1.9231328
-1.8373643 0.10819831 1.7794729
-1.8820331 0.093955711 1.7470406
-2.3841214 0.10926701 2.1168432
-2.0647099 0.15688717 2.1797459
-1.9085101 0.11876641 1.9300473
-1.8343942 0.091154255 1.7811096
-1.8780227 0.072854489 1.7515855
-2.2578297 0.18607843 2.4889946
-2.0833988 0.13959648 2.1997898
-1.9241433 0.10141067 1.9530338
-1.8264297 0.06807518 1.7835438
-3.2765722 0.31209525 3.7657802
-2.2627692 0.16295555 2.4966712
-2.1087613 0.11900578 2.237905
-1.9495214 0.076820686 1.9910769
-3.1824317 0.31465739 3.8250842
-3.2756507 0.27302596 3.7690578
-3.3578534 0.23133695 3.7138238
-2.1438868 0.091198973 2.2900774
-3.0932298 0.318183 3.8874991
-3.1814468 0.27251622 3.8323059
-3.2616656 0.22682071 3.7769625
-3.3369422 0.1761443 3.7194357
-3.0059752 0.32066172 3.9529324
-3.0863178 0.27207524 3.891537
-3.169394 0.22424614 3.8442111
-3.2416909 0.1685598 3.7865381
-2.9109282 0.32331067 4.0072193
-2.9970758 0.27154729 3.9568787
-3.0713379 0.21984938 3.9003148
-3.1454737 0.16200775 3.85164
-2.8256471 0.32777813 4.0737257
-2.9019656 0.27112442 4.0151105
-2.9702818 0.21544182 3.9563622
-3.0492563 0.15545568 3.9167421
-2.7325435 0.33038002 4.1310492
-2.8068933 0.27073771 4.071342
-2.8790293 0.21288893 4.0226297
-2.950114 0.14896521 3.9777894
-2.6385112 0.33405051 4.1843734
-2.7156661 0.27122051 4.1356649
-2.7858367 0.20938328 4.0858431
-2.8500288 0.1425254 4.0358186
-2.5502677 0.33854336 4.2488241
-2.6225328 0.27178654 4.1949511
-2.6887164 0.20693552 4.1450005
-2.758713 0.13690068 4.1060309
-2.4562206 0.34119594 4.3031297
-2.5264604 0.27139631 4.2511644
-2.5955014 0.20441163 4.2092314
-2.6586084 0.13044281 4.1650596
-2.366075 0.34477222 4.3625269
-2.4381542 0.27281731 4.3195601
-2.4993846 0.20096755 4.2683897
-2.5623872 0.12489057 4.2301798
-2.2759256 0.34934837 4.4219422
-2.3459644 0.27333266 4.3818645
-2.4071693 0.1984473 4.3326392
-2.4661846 0.11935643 4.2943006
-2.1847391 0.35388476 4.4833374
-2.2489445 0.27399293 4.4350781
-2.3129134 0.19688347 4.3988681
-2.3690197 0.11385486 4.3564024
-2.0906508 0.35750097 4.5396605
-2.1576385 0.27540317 4.5034175
-2.215714 0.19536316 4.4620423
-2.2688138 0.10930619 4.4204659
-1.9993852 0.36296478 4.6050725
-2.0615022 0.27695826 4.5626659
-2.1176124 0.19292986 4.5201817
-2.172555 0.10371777 4.4875855
-1.0349356 0.16957311 2.5278132
-1.9634261 0.27756062 4.6188598
-2.0213566 0.19135883 4.5863733
-2.0723677 0.099187188 4.5506487
-0.94904226 0.16429299 2.4690895
-0.99966669 0.11895908 2.4982274
-1.0444046 0.073712185 2.5212543
-1.9731472 0.093624197 4.6157131
-0.86811453 0.15799479 2.4124415
-0.91473579 0.11364636 2.4415216
-0.95649296 0.06840679 2.4634929
-1.0048714 0.018813156 2.506516
-0.79404652 0.15359475 2.3629584
-0.83284557 0.10738075 2.3828554
-0.87350547 0.063046962 2.4098239
-0.93972647 0.015417572 2.5142376
-0.71828645 0.14747727 2.2974069
-0.7578153 0.10301329 2.3313541
-0.79640448 0.057600163 2.3622656
-0.82727301 0.008412227 2.3789597
-0.65110481 0.14299382 2.2540534
-0.6848821 0.097743623 2.2748742
-0.71664119 0.052468169 2.2966573
-0.85773742 0.014239464 2.672735
-0.58793736 0.13954264 2.2097931
-0.61771935 0.093278266 2.2305207
-0.64559138 0.04809697 2.2462308
-0.77286267 0.0089810118 2.6130304
-0.52865672 0.13599727 2.1716063
-0.55453306 0.089809 2.1872604
-0.578462 0.044667628 2.1998963
-0.68349433 0.0041930042 2.5262413
-0.47133839 0.13242292 2.1354563
-0.49434632 0.086350486 2.1440566
-0.51624209 0.040165942 2.1586361
-0.53801471 -0.0081449095 2.180177
-0.41615066 0.12898238 2.092346
-0.4361631 0.081899337 2.100872
-0.45692015 0.037584219 2.1224663
-0.47669312 -0.010733787 2.1439698
-0.36381263 0.12540786 2.0572896
-0.38182151 0.079317465 2.0657961
-0.40244752 0.034875739 2.094388
-0.43380213 -0.011752801 2.1911645
-0.31526005 0.12364838 2.0333407
-0.33125061 0.077532753 2.042809
-0.34624133 0.03141351 2.0522587
-0.3663322 -0.015552467 2.1098051
-0.27124548 0.12447222 2.0335317
-0.28354806 0.075632155 2.0268762
-0.29652044 0.029487651 2.037288
-0.30650112 -0.018667279 2.0476072
-0.23213904 0.13028549 2.0909243
-0.24264099 0.078619629 2.0741804
-0.25379008 0.030631106 2.0755212
-0.26112014 -0.020208471 2.0677364
-0.19197659 0.1360409 2.1512966
-0.20154276 0.082426079 2.1314991
-0.2116437 0.032380015 2.1357846
-0.77241617 0.093127668 8.1554232
-0.14973572 0.1427166 2.2156482
-0.15829511 0.086080596 2.1967778
-0.16648309 0.03310024 2.1969728
-0.55566877 0.080263615 7.8230195
-0.22516897 0.47135454 5.6961851
-0.3078053 0.42931437 7.2144861
-0.34017378 0.26239169 7.4931679
-0.35461485 0.068167403 7.5069289
-0.10249104 0.47120255 5.6778793
-0.14200579 0.42177504 7.0972061
-0.16145341 0.24672732 7.2134433
-0.16796605 0.058563709 7.2221642
0.021272123 0.46791232 5.6114802
0.016951397 0.41005412 6.9359636
0.0058051124 0.23359901 6.9619889
0.0041200668 0.049597681 6.9606919
0.14206667 0.46865872 5.5992274
0.16563618 0.39457831 6.7078228
0.15923864 0.22135794 6.7198129
0.16230235 0.040591434 6.7044802
0.26086819 0.46535024 5.5349221
0.30604976 0.38244668 6.517909
0.30505595 0.21078348 6.4978166
0.31117228 0.033969343 6.484499
0.37810859 0.46363261 5.4936819
0.43700784 0.36878189 6.3041377
0.44029108 0.20085037 6.2980371
0.45236191 0.027068466 6.281662
0.49327442 0.46199444 5.4484806
0.56359643 0.35753757 6.1235032
0.56839645 0.19106899 6.0913916
0.58142662 0.021337107 6.0720706
0.62147385 0.47139722 5.5092711
0.68016809 0.34634724 5.9420567
0.68790054 0.18193991 5.9059262
0.70253032 0.015598282 5.8646293
0.75524598 0.48323882 5.6000113
0.79062462 0.33428714 5.7547073
0.80382907 0.17542669 5.7425823
0.82248467 0.011052273 5.7022457
-0.02611593 -0.059798401 0.050936799
-0.02611593 -0.059798401 0.050936799
-0.02611593 -0.059798401 0.050936799
-0.02611593 -0.059798401 0.050936799
0.97870183 0.47681683 5.4636655
0.99911088 0.31773233 5.4624052
1.0168542 0.16130586 5.4252305
1.0384352 0.0020102337 5.37993
1.0718997 0.4661155 5.3156772
0.26386741 0.035541989 1.4126937
0.26636884 -0.0051362049 1.3939047
0.27296707 -0.044919368 1.3800567
0.28689319 0.076579086 1.4060026
1.1822195 0.29962936 5.1505437
1.2072847 0.14888732 5.1293406
1.2316039 -0.0051485673 5.0690784
1.2467735 0.44630328 5.0449524
1.271808 0.29257992 5.0226955
1.2933348 0.14337303 4.9725766
1.3251513 -0.0081587732 4.9382277
1.3315505 0.43909097 4.9271946
1.3542671 0.28568223 4.8879809
1.3820479 0.13921818 4.8507991
1.415741 -0.010194547 4.8094511
1.4102457 0.42997277 4.8055153
1.4392017 0.28032482 4.7782574
1.4668554 0.13498721 4.7340951
1.4951788 -0.013045952 4.6728659
1.4881549 0.42265895 4.6948867
1.5147181 0.27339798 4.6466732
1.5433795 0.13005644 4.602529
1.5799979 -0.014277458 4.5562162
1.5630873 0.41633758 4.5853324
1.5916166 0.26810542 4.5351
-0.02611593 -0.059798401 0.050936799
-0.02611593 -0.059798401 0.050936799
-0.02611593 -0.059798401 0.050936799
-0.02611593 -0.059798401 0.050936799
0.46012276 -0.0087223593 1.2731713
0.48220897 -0.048029844 1.2850507
0.38568214 0.050068535 1.0795629
0.48873195 0.032735877 1.2973938
1.7669691 0.12032955 4.2610507
1.8002331 -0.018632639 4.1948919
0.50068486 0.073884815 1.2869108
1.8045483 0.25407502 4.2127504
1.8349144 0.11703279 4.1516819
1.8722419 -0.01999836 4.0884833
1.8330059 0.38997906 4.1576571
1.867468 0.24881463 4.1024394
1.9019763 0.11463094 4.0483475
1.9371623 -0.020248674 3.9772251
1.8972024 0.38344392 4.0623045
1.9336759 0.24527182 4.0071039
1.9660575 0.11222174 3.9460697
2.0074 -0.020824466 3.8828678
1.9573288 0.37799531 3.9630466
1.991713 0.24092066 3.9029028
2.031255 0.11070024 3.8497889
2.0694709 -0.021208726 3.7796638
2.0186462 0.37336206 3.8737845
2.0570936 0.23821847 3.8166008
2.0965457 0.10908831 3.7585065
2.1336722 -0.021726787 3.6834197
2.0748708 0.36883724 3.7796183
2.1152885 0.23572229 3.7204335
2.1547256 0.10761004 3.6613576
2.1980088 -0.021371648 3.5941913
2.1342258 0.36417496 3.6923931
2.1736288 0.23208153 3.6322453
2.2181332 0.10689658 3.5761285
2.2572482 -0.021907955 3.5000405
2.1875448 0.3595705 3.6032813
2.229955 0.2294659 3.5431135
2.2702916 0.10445809 3.4780748
2.3124554 -0.021393891 3.4039836
2.2460389 0.35678482 3.5231085
2.2883782 0.22775245 3.4589598
2.3296812 0.10377707 3.3919213
2.3769829 -0.02021981 3.32477
2.298414 0.35212964 3.4370143
2.3417609 0.22509332 3.3728831
2.3860896 0.10308875 3.3068237
2.4302278 -0.019734751 3.2307498
2.3518903 0.34938005 3.3559361
2.4003007 0.22427118 3.2947457
2.442555 0.10234615 3.2247255
2.4866633 -0.018441517 3.1466882
2.4105718 0.34641352 3.2857599
2.4496653 0.22164446 3.2077446
2.4949682 0.10267199 3.1397212
2.5441506 -0.018205971 3.065589
2.4569333 0.34279779 3.198797
2.5011084 0.21993808 3.1247225
2.5515122 0.10285685 3.0616395
2.5975678 -0.01688388 2.9805837
2.5084474 0.3400192 3.1197555
2.5587792 0.21899293 3.0536017
2.599885 0.10223341 2.9746933
2.6469669 -0.015529338 2.894654
2.5631149 0.33808497 3.0486729
2.6083016 0.21822116 2.9746335
2.6514111 0.10245433 2.8957055
2.707593 -0.013431523 2.8205321
2.6127081 0.33624101 2.9736857
2.6577866 0.21748559 2.8936663
2.7090523 0.103545 2.8226213
2.7570486 -0.012131255 2.7376013
2.6622975 0.33339727 2.8986804
2.7114394 0.21657288 2.8216207
2.7545042 0.10385978 2.7397478
2.8034706 -0.0097842142 2.6527462
2.7118912 0.33155331 2.823693
2.7579813 0.2157938 2.7437091
2.8020127 0.10411313 2.6598361
2.8560381 -0.008603245 2.575757
2.7564631 0.3287456 2.747782
2.8075786 0.2149497 2.6687398
2.849539 0.10434839 2.5809236
2.9329829 -0.005870536 2.5183463
2.8040569 0.32690883 2.6728323
2.8520684 0.2152319 2.5878844
2.9174109 0.10718575 2.5196834
3.0068724 -0.0030727834 2.457993
2.8496735 0.32606098 2.598938
2.9027259 0.21532975 2.5159132
2.9964495 0.10982083 2.4672337
3.0604475 0.0001042448 2.3810213
2.896286 0.32420972 2.5250063
2.9970875 0.21960317 2.480212
3.0490725 0.11094754 2.3932436
3.1049263 0.0024041981 2.2992024
2.9917455 0.32938895 2.4943027
3.0477262 0.21971911 2.4072411
3.0925519 0.11325108 2.3114436
3.1544645 0.0056317747 2.2203066
3.0413985 0.32849056 2.4223323
3.0933094 0.21990731 2.3313653
3.1421385 0.11442472 2.2355106
3.2151504 0.0086751543 2.1492016
3.0900526 0.3275958 2.3503804
3.140892 0.22008829 2.2554519
3.1937656 0.11655483 2.1615577
3.26367 0.011924401 2.0693247
3.1356881 0.32672986 2.2774861
3.1966126 0.22211361 2.1864221
3.2433565 0.11872832 2.0856426
4.6814766 0.046490636 2.7836471
3.1843231 0.32585317 2.2045348
3.2371218 0.22239207 2.1066415
4.6727633 0.19683158 2.8235433
4.7676034 0.051983058 2.6820993
3.2299621 0.32598704 2.1316583
4.6578422 0.34137592 2.8534472
4.7457919 0.20046142 2.7172055
4.7446079 0.053949244 2.5225115
3.2745605 0.32516089 2.0567827
4.7157679 0.3421506 2.7423394
4.8188391 0.20407319 2.6118674
4.6237788 0.055077907 2.3197253
4.4248247 0.45250303 2.6207411
4.7969251 0.34562504 2.6428487
4.6030183 0.19246414 2.3596129
4.7089849 0.061501384 2.2222133
4.5062227 0.45474261 2.5342286
4.5881758 0.32388407 2.3962803
4.6842394 0.19788404 2.2631576
5.0623732 0.074852079 2.2368433
4.6017146 0.45784119 2.4524691
4.6623764 0.32834733 2.298939
5.016613 0.2163454 2.2762728
5.125205 0.080716439 2.1197333
4.641613 0.45569906 2.3406453
4.8192821 0.33884585 2.2371702
5.1006327 0.22295335 2.1687827
13.544067 0.32556757 5.1235566
4.7158432 0.45812649 2.2452672
4.8934221 0.34236357 2.1368115
5.1665163 0.22775286 2.0545976
13.70934 0.34350502 4.8136821
5.0079708 0.48400158 2.2442653
5.0279684 0.35128507 2.0564265
8.3012838 0.40367147 3.0424232
-0.02611593 -0.059798401 0.050936799
4.9096332 0.4675115 2.0707495
6.3865876 0.45927086 2.4280691
8.3545732 0.40904817 2.8434553
-0.02611593 -0.059798401 0.050936799
5.173244 0.48997617 2.043211
6.4508986 0.46161708 2.2838585
8.44806 0.41809982 2.6538045
-0.02611593 -0.059798401 0.050936799
5.2583079 0.49352673 1.938647
6.474946 0.46236053 2.1263683
8.4651089 0.42284104 2.4424994
-0.02611593 -0.059798401 0.050936799
5.3312764 0.49621111 1.8292925
6.5261278 0.46488005 1.9754043
8.4570847 0.42674458 2.2276475
-0.02611593 -0.059798401 0.050936799
5.4222865 0.50079417 1.721635
6.578351 0.46835974 1.8264393
8.5304422 0.43599451 2.0313749
-0.02611593 -0.059798401 0.050936799
5.4800997 0.50167733 1.6045288
6.6526899 0.4736515 1.6830944
8.5415545 0.44170284 1.8231994
-0.02611593 -0.059798401 0.050936799
5.5258026 0.50271213 1.4816502
6.7389979 0.48093599 1.5375611
8.4985085 0.44375041 1.6079695
-0.02611593 -0.059798401 0.050936799
5.6247592 0.50832069 1.3708613
6.712851 0.47804046 1.3709416
8.4575233 0.44673637 1.3957188
11.834393 0.41214901 1.468894
5.6764421 0.50935197 1.2468704
6.7870817 0.48444065 1.221617
8.5500021 0.45880911 1.2051412
11.346067 0.40803117 1.13785
5.7501936 0.51424944 1.125537
6.8111191 0.48720181 1.0631632
8.4920206 0.46185607 0.99320996
6.0761347 0.19941184 0.48752314
5.8278842 0.51818687 1.0011115
6.8161178 0.48906758 0.90304917
6.1655087 0.32425103 0.5891425
6.0273695 0.20627148 0.33951008
5.9055595 0.52314228 0.87570429
6.8712206 0.49566248 0.74708384
5.9995298 0.31971353 0.43311507
6.0337172 0.21582472 0.19651559
5.982142 0.52819186 0.74531764
6.1097341 0.4356055 0.52718008
6.0439239 0.32807627 0.29238749
3.1150053 0.087874107 0.051798131
6.0657082 0.53423405 0.61381775
5.9878478 0.42780209 0.37626973
-0.02611593 -0.059798401 0.050936799
3.0936348 0.092283979 -0.02174692
5.9959393 0.52511758 0.46890995
3.5596774 0.23216432 0.16212012
3.0587635 0.14351797 0.028849892
3.1342466 0.099488892 -0.097402588
6.0073266 0.52558208 0.329658
3.5361009 0.23176309 0.078525968
3.079423 0.1477409 -0.043485042
2.7562194 0.084839702 -0.14560623
3.5403233 0.28476638 0.1334243
3.0354507 0.19208075 0.0031561158
3.1220491 0.15392075 -0.11819665
2.7549994 0.09003292 -0.21151179
3.5027375 0.28141588 0.050039116
3.0801284 0.19719929 -0.068612121
2.7190657 0.13029045 -0.16209406
2.7767415 0.096179575 -0.27983081
3.0461905 0.23644985 -0.019249974
3.0937481 0.20048372 -0.14283286
2.738842 0.13540828 -0.22839421
1.9373926 0.053550702 -0.22886983
3.0758445 0.23964065 -0.09177205
2.6788628 0.16777141 -0.17966931
2.7715595 0.14053373 -0.29793763
2.3853123 0.083974652 -0.3497467
2.8076978 0.21365283 -0.14523983
2.7305806 0.1738285 -0.24955171
2.4081759 0.11818426 -0.31054267
2.4131284 0.090027422 -0.41417983
2.6096966 0.19428593 -0.1928992
2.7612987 0.17896111 -0.31905755
2.3741899 0.11926141 -0.36290464
2.4429104 0.09710902 -0.48063186
2.7383158 0.20717405 -0.2701003
2.342103 0.14459762 -0.31883064
2.4129665 0.1253109 -0.42954376
2.790369 0.1253446 -0.62467533
1.9317857 0.12946887 -0.22238934
2.3749516 0.14959642 -0.38137645
2.4417634 0.13137816 -0.49499539
2.8557858 0.1366581 -0.711725
2.3488481 0.17091176 -0.33748725
2.4027641 0.15464936 -0.4458276
2.7662899 0.16164167 -0.6355716
2.5957451 0.1246296 -0.70907295
2.3756897 0.17393245 -0.39995629
2.4893227 0.16474298 -0.52529252
2.6853566 0.15983376 -0.68410546
2.4801362 0.12263979 -0.73995495
2.4084973 0.17796762 -0.46451947
2.718195 0.18800852 -0.64519745
2.552773 0.15386944 -0.71274072
2.7026165 0.14630674 -0.88073999
