# .PCD v0.7 - Point Cloud Data file format
VERSION 0.7
FIELDS x y z
SIZE 4 4 4
TYPE F F F
COUNT 1 1 1
WIDTH 1422
HEIGHT 1
VIEWPOINT 0 0 0 1 0 0 0
POINTS 1422
DATA ascii
-1.8329779 0.6287322 1.7537981
-1.8720527 0.56973755 1.7614652
-1.4604751 0.61961406 1.5125772
-1.5973645 0.61508751 1.6270971
-1.78929 0.62389117 1.7909052
-1.8253506 0.56386781 1.7994974
-1.4259688 0.61598605 1.5398748
-1.5656439 0.61327088 1.6654832
-1.7406859 0.61710495 1.8238835
-1.922736 0.60892987 1.9841986
-1.399273 0.61722314 1.5764096
-1.5319612 0.61148334 1.7018327
-1.7028728 0.61517632 1.8671553
-1.9042848 0.61549276 2.0599976
-1.3628086 0.61262429 1.6016524
-1.4962974 0.6097067 1.7371447
-1.6582037 0.61034983 1.903244
-1.8564479 0.61049271 2.1050267
-1.332215 0.61193776 1.6330777
-1.4576983 0.6059739 1.7693655
-1.6213677 0.60940665 1.9475522
-1.8154026 0.61033595 2.160274
-1.3045419 0.61218947 1.6685762
-1.4229932 0.60516453 1.8067138
-1.5805928 0.60750347 1.9887685
-1.7724181 0.60922647 2.2124667
-1.2651341 0.60763419 1.6907635
-1.3912046 0.6062932 1.848153
-1.5476131 0.60944754 2.0402036
-1.7206342 0.60526615 2.2544398
-1.2374345 0.60986745 1.7272978
-1.3564955 0.60648358 1.8855193
-1.5028988 0.60658449 2.0783274
-1.6737105 0.6031968 2.3035407
-1.2000037 0.60630101 1.7505401
-1.3188696 0.60473597 1.9187944
-1.4591992 0.60474288 2.1154885
-1.622885 0.60020363 2.3475497
-1.1722854 0.60851622 1.788074
-1.2812023 0.60395193 1.954087
-1.4134811 0.60287613 2.1536117
-1.5720141 0.59917402 2.3935945
-1.133836 0.60492814 1.8122976
-1.2444935 0.60413516 1.9914156
-1.3726234 0.60290027 2.1988626
-1.5288866 0.60093749 2.4528389
-1.101235 0.60623413 1.8437214
-1.2048453 0.60336208 2.025671
-1.3250033 0.60011697 2.2319319
-1.4654162 0.59422392 2.4785378
-1.0666609 0.6055513 1.8740721
-1.1593785 0.59973079 2.0507627
-1.2744212 0.597359 2.2629457
-1.4048026 0.59039414 2.5113447
-1.0272453 0.60299563 1.8962954
-1.1187681 0.59899032 2.0829997
-1.2266996 0.59648484 2.301049
-1.3500111 0.58842266 2.5532975
-0.99070883 0.60234183 1.9246091
-1.0829538 0.60208619 2.1253996
-1.1790154 0.59564686 2.3371537
-1.299035 0.59030205 2.6043944
-0.95420992 0.60172427 1.9509236
-1.0307434 0.5956654 2.13731
-1.1274709 0.5929215 2.3661489
-1.2432587 0.58934492 2.6453466
-0.91287351 0.59823394 1.9690927
-0.98527271 0.59303391 2.1624198
-1.0730019 0.59025776 2.3910894
-1.1806974 0.58656198 2.6751349
-0.8743937 0.59762722 1.9943697
-0.94647759 0.59613717 2.2037632
-1.0242765 0.59037983 2.4291921
-1.1181177 0.58376098 2.7059233
-0.83495146 0.59705317 2.0176287
-0.89908218 0.59357083 2.2248368
-0.97360766 0.59054899 2.4642584
-0.96229249 0.52296025 2.493834
-0.79353613 0.59449023 2.0398145
-0.85156649 0.59289563 2.2519441
-0.90577573 0.57941544 2.4567847
-0.87060201 0.49978814 2.4276755
-0.7559734 0.59581447 2.0691452
-0.80695271 0.5931406 2.2841241
-0.82489604 0.55610192 2.4008296
-0.78777105 0.47852153 2.3687205
-0.71265209 0.59333485 2.0862951
-0.75857234 0.59158868 2.3041968
-0.74697042 0.5347628 2.3469663
-0.71083742 0.45918563 2.3149118
-0.67126644 0.59280783 2.1065173
-0.70635414 0.58716762 2.3161435
-0.67022109 0.51159042 2.2840889
-0.63407618 0.43901274 2.2520885
-0.630723 0.5941394 2.1347921
-0.64207327 0.56955236 2.2806094
-0.60118842 0.49319255 2.2354472
-0.56411475 0.42168349 2.1994474
-0.58640182 0.59165621 2.1519232
-0.57324755 0.54633635 2.2218807
-0.53707606 0.47574019 2.1909158
-0.4998931 0.40813997 2.1599867
-0.54401636 0.59112561 2.1721268
-0.51115751 0.5279094 2.1763697
-0.47585782 0.46120763 2.1514935
-0.43774992 0.39367616 2.1165466
-0.49407172 0.58396548 2.1700616
-0.45294651 0.51138788 2.1369674
-0.41668057 0.44571862 2.1100914
-0.37856084 0.3811866 2.0751987
-0.4388454 0.56643677 2.1316974
-0.39775372 0.49489525 2.0966222
-0.35959658 0.43032712 2.0637286
-0.32421327 0.37056994 2.0419776
-0.38563746 0.54893351 2.0923712
-0.34451526 0.48037335 2.0583498
-0.30727515 0.41773611 2.0295095
-0.27353093 0.36365944 2.0258985
-0.33538756 0.53240448 2.0551188
-0.29407725 0.46868077 2.0301843
-0.26288214 0.41919798 2.0497117
-0.23129302 0.37435254 2.0893226
-0.28699449 0.51875561 2.0249555
-0.25162771 0.47009552 2.0534229
-0.22081673 0.42905402 2.1041207
-0.18697278 0.38696578 2.1567438
-0.24726266 0.52492708 2.0623362
-0.21227995 0.48470822 2.1219738
-0.17747757 0.44165277 2.1725605
-0.13957816 0.39949587 2.2281072
-0.20901227 0.538634 2.1258895
-0.16911322 0.49646994 2.1813986
-0.13169938 0.46084517 2.2630816
-0.10843989 0.56044394 3.0026982
-0.16778113 0.55234838 2.1883867
-0.12882444 0.53630906 2.3484213
-0.091765076 0.56450242 2.718363
-0.037307017 0.5590446 3.0093434
-0.12599435 0.57355475 2.2790189
-0.080694735 0.57426441 2.5072608
-0.028529283 0.56504101 2.7301929
0.032458503 0.55499303 2.9969597
-0.078398995 0.57882434 2.3092332
-0.025679138 0.57103133 2.5081725
0.032507867 0.56276822 2.7320096
0.1035204 0.55466586 2.999624
-0.029224657 0.57746774 2.3182912
0.028378014 0.56876552 2.5111206
0.094586208 0.56145537 2.7358246
0.17456359 0.55435675 3.0012889
0.018912414 0.57615095 2.3253684
0.08447618 0.56745619 2.516048
0.15758947 0.56021136 2.7356229
0.24646766 0.55217105 2.9959016
0.069045186 0.57382709 2.3323901
0.14167562 0.56805241 2.5259917
0.22065285 0.55991292 2.7384374
0.31741726 0.55195242 2.992568
0.11924592 0.57444847 2.3424649
0.19777378 0.56674314 2.5309191
0.28479484 0.56053829 2.7452502
-0.02611593 -0.059798401 0.050936799
0.17044252 0.57406646 2.3525028
0.25485697 0.56644809 2.5348463
-0.02611593 -0.059798401 0.050936799
-0.02611593 -0.059798401 0.050936799
0.22152288 0.57279319 2.3565247
-0.02611593 -0.059798401 0.050936799
0.15809597 0.20014986 1.1815732
0.5278613 0.54868406 2.9615581
-0.02611593 -0.059798401 0.050936799
0.15313497 0.22421801 1.1791008
0.47560224 0.55799788 2.7336278
0.269793 0.22832844 1.4250742
0.14530951 0.24917012 1.1837001
0.42797506 0.56568247 2.5395927
0.26714396 0.26011667 1.4377033
0.66840094 0.54759425 2.9358985
0.20748895 0.30613479 1.3946379
0.26253265 0.29187593 1.452369
0.60229033 0.55581379 2.7162106
0.7402606 0.54846227 2.9275661
0.2429141 0.31061035 1.416063
0.54171777 0.56249094 2.5254009
0.66506892 0.55478686 2.7040124
0.80565256 0.54478687 2.8952644
0.27944049 0.31699157 1.4425033
0.32520586 0.28793997 1.4351184
0.72893012 0.55568361 2.6958303
0.87540019 0.5457707 2.8809714
0.31137457 0.31593117 1.4388851
0.35819983 0.28782153 1.4344983
0.79053247 0.55282331 2.6746182
0.94299453 0.54590648 2.8587008
0.34768325 0.31951183 1.4542753
0.71739686 0.56013095 2.5070627
0.85435224 0.55275643 2.6644185
1.0105889 0.54604232 2.8364301
0.37532151 0.3147378 1.4356651
0.77625108 0.55904603 2.4989383
0.91494399 0.55191755 2.642261
-0.02611593 -0.059798401 0.050936799
0.40617687 0.3127535 1.428049
0.83515066 0.55992454 2.4928496
-0.02611593 -0.059798401 0.050936799
0.5094884 0.2165966 1.3023328
0.43381509 0.30797946 1.409439
0.89181405 0.55802786 2.4747479
0.39376068 0.18043377 1.0587628
1.2091631 0.54566324 2.7586792
0.46153608 0.30513278 1.3948634
-0.02611593 -0.059798401 0.050936799
0.52956426 0.2415387 1.3014077
1.2694325 0.54413205 2.7195096
-0.02611593 -0.059798401 0.050936799
0.51260841 0.26163247 1.3000883
1.1646024 0.55126506 2.5685503
1.333915 0.54438722 2.6912973
0.38667774 0.21165264 1.0484565
1.0702236 0.55892795 2.4414127
1.2251793 0.55144411 2.5454116
1.3931661 0.54287761 2.6511474
0.52786452 0.28441191 1.3092177
1.1268121 0.55710357 2.419313
1.283659 0.55072099 2.5172939
1.4555553 0.54323041 2.617974
1.0338933 0.56231087 2.317112
1.1824007 0.55528277 2.3972318
1.3431573 0.54997611 2.4901574
1.5169114 0.54462272 2.5828388
1.0886134 0.56036711 2.3020473
1.2358549 0.55259597 2.3681722
1.4047233 0.55216932 2.4660363
1.577245 0.54503697 2.5467043
1.1433185 0.55944121 2.2860007
1.2976267 0.55459023 2.3550472
1.4631656 0.55148232 2.4359193
1.6324258 0.54461396 2.5026486
1.2011393 0.55939585 2.2759142
1.3531632 0.55382353 2.3299854
1.5184922 0.54991478 2.399843
1.691726 0.54606777 2.4645519
1.2599078 0.56040108 2.2628276
1.4107406 0.55401337 2.3069029
1.5759199 0.55024928 2.368763
1.7448469 0.5447064 2.4175165
1.3124745 0.5576092 2.239785
1.4724565 0.5560618 2.2907791
1.6271349 0.54880464 2.3267641
1.8000691 0.54524708 2.3754783
1.3701644 0.5576905 2.2227008
1.5289179 0.55536395 2.2616994
1.6866075 0.55109549 2.2976818
1.8521566 0.54492527 2.3264806
1.4288766 0.55874991 2.206615
1.5823385 0.55371308 2.230659
1.7409195 0.55054951 2.2606428
1.9033086 0.54655248 2.2805367
1.4854691 0.5579254 2.1845331
1.6367667 0.55405843 2.1996355
1.795198 0.55103952 2.2216222
1.9554377 0.54719436 2.2335563
1.5461622 0.55899572 2.1674104
1.6880901 0.55150545 2.1636162
1.8443758 0.54963809 2.1776612
2.0095892 0.54881078 2.1875563
1.6016986 0.55822909 2.1423481
1.7435182 0.5518471 2.1325741
1.9017179 0.55206281 2.1416192
2.0556216 0.54856491 2.1356723
1.6561754 0.55652046 2.1142876
1.8030094 0.55411983 2.1044919
1.9529366 0.55161798 2.099638
2.1036992 0.55027521 2.0857861
1.7137153 0.55674642 2.089206
1.8543221 0.55358464 2.0675089
1.9959847 0.55036485 2.0487921
2.1476986 0.55107242 2.0319588
1.7681584 0.55607378 2.0591643
1.9107351 0.55494064 2.0354664
2.0492485 0.55187631 2.0088086
2.1876349 0.54993862 1.9751712
1.8256236 0.55637211 2.0300841
1.9671109 0.55633283 2.0014246
2.1004376 0.55346739 1.9648641
2.2296159 0.5507611 1.9203814
1.8820661 0.55569232 2.0000048
2.0234489 0.55776125 1.9653834
2.1424711 0.55323577 1.9130554
2.276679 0.55349296 1.8695325
1.9507135 0.55978763 1.9797868
2.0705898 0.55640322 1.9194608
2.1936607 0.55482686 1.8691109
2.3135822 0.55340594 1.8108201
2.0030222 0.55824906 1.9427669
2.1228685 0.55690044 1.8804777
2.2366939 0.5545916 1.8172834
2.3505082 0.55430061 1.7531254
2.0603974 0.55963767 1.9087063
2.1761138 0.55843002 1.8394945
2.279772 0.55631995 1.7674911
2.3985786 0.55902851 1.7022938
2.1167505 0.5600481 1.8736469
2.2262993 0.55902481 1.7955508
2.3228092 0.55708456 1.7156817
2.4304454 0.5589956 1.6416759
2.1700065 0.55955994 1.8336273
2.2714069 0.5587101 1.7476844
2.3668461 0.55784559 1.6638534
2.4622972 0.55998063 1.5800766
2.2344217 0.56188703 1.8014525
2.3195369 0.55936635 1.7007792
2.4088876 0.5596137 1.6120807
2.4992266 0.56187516 1.5223998
2.2846038 0.56148201 1.7574908
2.3686705 0.56101876 1.6538733
2.4518909 0.5614143 1.55829
2.54022 0.56570071 1.467683
2.3347478 0.56111324 1.7115296
2.4208219 0.56264246 1.6079106
2.4898727 0.56225115 1.5035754
2.5549133 0.56389195 1.3983516
2.3960514 0.56355965 1.6734132
2.469918 0.56433105 1.5590054
2.5288396 0.56410223 1.4478604
2.5969102 0.56871372 1.3436341
2.445117 0.56226689 1.6234542
2.5088959 0.56416452 1.504254
2.5657692 0.56599683 1.3901838
2.6126447 0.56786507 1.2763013
2.5043466 0.56479281 1.5813768
2.5599768 0.56686389 1.4543296
2.5936141 0.56499654 1.3286234
2.6354423 0.56893665 1.211872
2.556438 0.56547087 1.532397
2.5958991 0.56676239 1.3966357
2.6295481 0.56789446 1.2709836
2.6622803 0.57095748 1.1493849
2.6054516 0.56523222 1.4794571
2.635843 0.5676282 1.3398842
2.6624372 0.56883973 1.2113646
2.6800785 0.572047 1.0850494
2.6544876 0.56597537 1.4275349
2.68185 0.57041782 1.2860551
2.6892712 0.56986076 1.1488595
2.7008762 0.57312572 1.0206578
2.703486 0.56675464 1.3736134
2.7197342 0.57034534 1.2263242
2.7272089 0.57375127 1.0912001
2.7247224 0.57715702 0.95826316
2.7595286 0.56947219 1.3215957
2.7556267 0.57227957 1.1666669
2.7580647 0.57573974 1.0296375
2.745543 0.57921749 0.89488918
2.8064713 0.57031298 1.2647127
2.7975368 0.57417434 1.1078967
2.7818806 0.57678962 0.96618903
2.7472389 0.5774554 0.82580209
2.862458 0.57308495 1.2096959
2.8364105 0.57611603 1.0471834
2.8006375 0.57691187 0.89981753
2.7751112 0.58345389 0.76436794
2.8972411 0.57111388 1.1449871
2.8702469 0.57811171 0.98456472
2.8274605 0.57995075 0.83634889
2.7848694 0.58360845 0.6981656
2.9491534 0.57397252 1.0860468
2.9040422 0.57914382 0.91992873
2.8482397 0.58104753 0.77095747
2.7825887 0.58284241 0.63017142
2.9919844 0.57493615 1.0232412
2.9318388 0.58019745 0.85540551
2.8630011 0.58218402 0.70467919
2.8004172 0.58691329 0.56688976
3.0407996 0.57689613 0.95934099
2.9585791 0.5813089 0.78790212
2.8797431 0.58333141 0.63736373
2.8051805 0.58808565 0.50079936
3.0725126 0.57600802 0.89070785
2.9893417 0.58338773 0.72134119
2.8975267 0.58543879 0.5720467
2.8039222 0.58829784 0.43380406
3.1222982 0.58000034 0.82482564
3.0110602 0.58353543 0.65291405
2.9072475 0.58562958 0.50384498
2.8147295 0.59141213 0.36963633
3.1599991 0.58110851 0.75511616
3.0397856 0.58565766 0.58439136
2.9269974 0.58876574 0.43650913
2.8295441 0.59651172 0.30542943
3.1886377 0.58030361 0.68254089
3.0634933 0.58781582 0.51496297
2.940748 0.59192359 0.36928603
2.8212833 0.59574914 0.23854765
3.2253056 0.5824514 0.61086893
3.08216 0.58902842 0.44361129
2.9444699 0.59213585 0.30119714
2.807061 0.5949719 0.17377791
3.2589324 0.5836463 0.53723598
3.10583 0.59122288 0.37218359
2.9551799 0.59434074 0.23201305
2.803844 0.59615487 0.10883752
3.2895224 0.5848881 0.46166012
3.1285045 0.59442073 0.30079272
2.9619093 0.59654194 0.16390379
2.8066342 0.599316 0.043820433
3.3220968 0.58714068 0.38506502
3.1371093 0.59372377 0.22659385
2.9716194 0.59875041 0.094738491
2.8274782 0.60737544 -0.019445488
3.3466468 0.58744043 0.30758452
3.1507432 0.59599024 0.15335475
2.9753304 0.60098046 0.02568594
2.3251932 0.49307975 -0.061122984
3.3731663 0.58976877 0.22810319
3.1763837 0.60021335 0.079926193
2.9030261 0.58644992 -0.040245514
1.2185309 0.23393102 -0.036082551
3.4056852 0.59207553 0.1485091
3.1319253 0.59074432 0.0045617428
2.9227688 0.5926038 -0.10852697
1.2339859 0.23941544 -0.066282943
3.4281678 0.59445447 0.067103595
2.9385223 0.55067056 -0.060564201
1.2672697 0.22697343 -0.049125351
2.3661587 0.51190382 -0.22660555
2.9513803 0.50162268 -0.0056735547
2.8562493 0.53414011 -0.12434448
2.7313769 0.55447787 -0.22667332
2.33219 0.5079456 -0.27705827
2.971051 0.50383151 -0.077026077
2.7230551 0.50668603 -0.18136665
2.4945045 0.50402105 -0.26116285
2.5168092 0.55675328 -0.36166063
2.7477915 0.46072122 -0.13364507
2.6898766 0.50192338 -0.24285246
2.4974108 0.50807345 -0.32016394
2.2663317 0.50094962 -0.37398461
2.7605195 0.46290085 -0.20186707
2.5059521 0.46436474 -0.28310195
2.4753356 0.50618041 -0.37680408
2.2523792 0.50191879 -0.42472306
2.518574 0.41755164 -0.24117085
2.5377603 0.47342071 -0.34855586
2.2558315 0.45931822 -0.39254737
2.3012161 0.51891243 -0.4903523
2.5233896 0.41766986 -0.30428025
2.2832243 0.42170307 -0.36473125
2.2996757 0.47331223 -0.45713705
2.3201282 0.52992427 -0.55052757
2.449393 0.40485677 -0.35414353
2.3001356 0.42770487 -0.42395937
2.3275263 0.48334628 -0.52049845
2.4356112 0.5650723 -0.63908392
2.2976515 0.37703675 -0.38681683
2.3299823 0.43673187 -0.48737642
2.4439979 0.51549119 -0.6091277
2.4832876 0.58423203 -0.71365523
2.3334513 0.38407874 -0.45238194
2.3747063 0.4488312 -0.55801886
2.4826934 0.52964789 -0.68162066
2.4125006 0.57220894 -0.75256056
2.3582489 0.39016035 -0.51775837
2.4891021 0.4760384 -0.64969957
2.469595 0.53175795 -0.74035716
2.3686273 0.56819624 -0.79782712
2.569237 0.4324511 -0.63498342
2.5008464 0.48222095 -0.71783072
2.4067583 0.52176017 -0.78237575
-0.02611593 -0.059798401 0.050936799
2.4584856 0.41351858 -0.67026424
2.4250412 0.47023395 -0.75764173
-0.02611593 -0.059798401 0.050936799
0.1875107 -0.0030781459 -0.035065994
2.4911065 0.42275187 -0.74573356
2.3880548 0.46630466 -0.8090378
0.19151299 -0.007109913 -0.03421358
-0.02611593 -0.059798401 0.050936799
2.4311795 0.41383359 -0.7927888
-0.02611593 -0.059798401 0.050936799
-0.02611593 -0.059798401 0.050936799
0.1555265 -0.0099982936 -0.032591511
-0.02611593 -0.059798401 0.050936799
0.18347214 -0.013062093 -0.035171017
0.17342961 -0.0099724485 -0.037928052
-0.02611593 -0.059798401 0.050936799
0.18847033 -0.018097276 -0.034355409
-0.02611593 -0.059798401 0.050936799
-0.02611593 -0.059798401 0.050936799
0.13551445 -0.013925831 -0.032287773
-0.02611593 -0.059798401 0.050936799
0.15845709 -0.017971519 -0.034791347
0.14843325 -0.014899964 -0.036548719
-0.02611593 -0.059798401 0.050936799
0.16145562 -0.022999525 -0.033938158
-0.02611593 -0.059798401 0.050936799
-0.02611593 -0.059798401 0.050936799
0.11553592 -0.018889382 -0.030002736
-0.02611593 -0.059798401 0.050936799
0.14041115 -0.020870235 -0.036506508
0.12447416 -0.019867243 -0.033188853
-0.02611593 -0.059798401 0.050936799
0.13844413 -0.026916299 -0.033578049
-0.02611593 -0.059798401 0.050936799
-0.02611593 -0.059798401 0.050936799
0.10647746 -0.019802643 -0.032850623
-0.02611593 -0.059798401 0.050936799
0.11745188 -0.025841102 -0.033165433
0.11341217 -0.02177316 -0.036017179
-0.02611593 -0.059798401 0.050936799
0.11745489 -0.029858515 -0.032237839
-0.02611593 -0.059798401 0.050936799
-0.02611593 -0.059798401 0.050936799
0.089521036 -0.023795221 -0.029604275
-0.02611593 -0.059798401 0.050936799
0.10244285 -0.02878676 -0.032937627
0.10236888 -0.023697166 -0.037845839
-0.02611593 -0.059798401 0.050936799
0.10344567 -0.032807756 -0.032028824
-0.02611593 -0.059798401 0.050936799
-0.02611593 -0.059798401 0.050936799
0.084447056 -0.02370492 -0.033508956
-0.02611593 -0.059798401 0.050936799
0.091422215 -0.029729024 -0.033748604
0.090363219 -0.025653757 -0.037656393
-0.02611593 -0.059798401 0.050936799
0.087459482 -0.034768082 -0.030764557
-0.02611593 -0.059798401 0.050936799
-0.02611593 -0.059798401 0.050936799
0.074441031 -0.025668688 -0.033357091
-0.02611593 -0.059798401 0.050936799
0.080416374 -0.031689201 -0.033577941
0.078391075 -0.028646357 -0.03548564
-0.02611593 -0.059798401 0.050936799
0.079419568 -0.035703026 -0.032631576
-0.02611593 -0.059798401 0.050936799
-0.02611593 -0.059798401 0.050936799
0.062487625 -0.028679382 -0.030186679
-0.02611593 -0.059798401 0.050936799
0.073376276 -0.032627735 -0.035463762
0.070351169 -0.029581301 -0.037352655
-0.02611593 -0.059798401 0.050936799
0.06843245 -0.037681296 -0.03146125
-0.02611593 -0.059798401 0.050936799
-0.02611593 -0.059798401 0.050936799
0.057432365 -0.028607171 -0.033091705
-0.02611593 -0.059798401 0.050936799
0.061408069 -0.034620505 -0.033274978
0.062329993 -0.030534325 -0.038220007
-0.02611593 -0.059798401 0.050936799
0.056482956 -0.039692156 -0.028272822
-0.02611593 -0.059798401 0.050936799
-0.02611593 -0.059798401 0.050936799
0.047478579 -0.031625032 -0.029958878
-0.02611593 -0.059798401 0.050936799
0.050477114 -0.036653046 -0.029105682
0.056308426 -0.031494536 -0.039124947
-0.02611593 -0.059798401 0.050936799
0.050446607 -0.039634444 -0.030159399
-0.02611593 -0.059798401 0.050936799
-0.02611593 -0.059798401 0.050936799
0.042460769 -0.031589001 -0.030864581
-0.02611593 -0.059798401 0.050936799
0.044436838 -0.03759516 -0.031010274
0.047324874 -0.032480154 -0.037974186
-0.02611593 -0.059798401 0.050936799
0.045406148 -0.04058015 -0.032082789
-0.02611593 -0.059798401 0.050936799
-0.02611593 -0.059798401 0.050936799
0.036439218 -0.03254921 -0.031769525
-0.02611593 -0.059798401 0.050936799
0.038434006 -0.038573459 -0.030915551
0.043269433 -0.032411531 -0.040898006
-0.02611593 -0.059798401 0.050936799
0.036441319 -0.041583858 -0.029932365
-0.02611593 -0.059798401 0.050936799
-0.02611593 -0.059798401 0.050936799
0.029474016 -0.033560097 -0.029656686
-0.02611593 -0.059798401 0.050936799
0.035344876 -0.037472416 -0.035839472
0.033353094 -0.035465579 -0.035765857
-0.02611593 -0.059798401 0.050936799
0.031404786 -0.041529734 -0.031837739
-0.02611593 -0.059798401 0.050936799
-0.02611593 -0.059798401 0.050936799
0.026437124 -0.033513151 -0.031599641
-0.02611593 -0.059798401 0.050936799
0.027375927 -0.039479546 -0.033725861
0.029316381 -0.035415046 -0.037690014
-0.02611593 -0.059798401 0.050936799
-0.02611593 -0.059798401 0.050936799
-0.02611593 -0.059798401 0.050936799
-0.02611593 -0.059798401 0.050936799
0.021415384 -0.034476947 -0.032523356
-0.02611593 -0.059798401 0.050936799
-0.02611593 -0.059798401 0.050936799
0.025260946 -0.035346422 -0.040613838
-0.02611593 -0.059798401 0.050936799
-0.02611593 -0.059798401 0.050936799
-0.02611593 -0.059798401 0.050936799
-0.02611593 -0.059798401 0.050936799
-0.02611593 -0.059798401 0.050936799
-0.02611593 -0.059798401 0.050936799
-0.02611593 -0.059798401 0.050936799
0.020243136 -0.035310391 -0.041519541
-0.02611593 -0.059798401 0.050936799
-0.02611593 -0.059798401 0.050936799
-0.02611593 -0.059798401 0.050936799
-0.02611593 -0.059798401 0.050936799
-0.02611593 -0.059798401 0.050936799
-0.02611593 -0.059798401 0.050936799
-0.02611593 -0.059798401 0.050936799
-0.02611593 -0.059798401 0.050936799
-0.02611593 -0.059798401 0.050936799
-0.02611593 -0.059798401 0.050936799
-0.02611593 -0.059798401 0.050936799
-0.02611593 -0.059798401 0.050936799
-0.02611593 -0.059798401 0.050936799
-0.02611593 -0.059798401 0.050936799
-0.02611593 -0.059798401 0.050936799
-0.02611593 -0.059798401 0.050936799
-0.02611593 -0.059798401 0.050936799
-0.02611593 -0.059798401 0.050936799
-0.02611593 -0.059798401 0.050936799
-0.02611593 -0.059798401 0.050936799
-0.02611593 -0.059798401 0.050936799
-0.02611593 -0.059798401 0.050936799
-0.02611593 -0.059798401 0.050936799
-0.02611593 -0.059798401 0.050936799
-0.02611593 -0.059798401 0.050936799
-0.02611593 -0.059798401 0.050936799
-0.02611593 -0.059798401 0.050936799
-0.02611593 -0.059798401 0.050936799
-0.02611593 -0.059798401 0.050936799
-0.02611593 -0.059798401 0.050936799
-0.02611593 -0.059798401 0.050936799
-0.02611593 -0.059798401 0.050936799
-0.02611593 -0.059798401 0.050936799
-0.02611593 -0.059798401 0.050936799
-0.02611593 -0.059798401 0.050936799
-0.02611593 -0.059798401 0.050936799
-0.02611593 -0.059798401 0.050936799
-0.02611593 -0.059798401 0.050936799
-0.02611593 -0.059798401 0.050936799
-0.02611593 -0.059798401 0.050936799
-0.02611593 -0.059798401 0.050936799
-0.02611593 -0.059798401 0.050936799
-0.02611593 -0.059798401 0.050936799
-0.02611593 -0.059798401 0.050936799
-0.02611593 -0.059798401 0.050936799
-0.02611593 -0.059798401 0.050936799
-0.02611593 -0.059798401 0.050936799
-0.02611593 -0.059798401 0.050936799
-0.02611593 -0.059798401 0.050936799
-0.02611593 -0.059798401 0.050936799
-0.02611593 -0.059798401 0.050936799
-0.02611593 -0.059798401 0.050936799
-0.02611593 -0.059798401 0.050936799
-0.02611593 -0.059798401 0.050936799
-0.02611593 -0.059798401 0.050936799
-0.02611593 -0.059798401 0.050936799
-0.02611593 -0.059798401 0.050936799
-0.02611593 -0.059798401 0.050936799
-0.02611593 -0.059798401 0.050936799
-0.02611593 -0.059798401 0.050936799
-0.02611593 -0.059798401 0.050936799
-0.02611593 -0.059798401 0.050936799
-0.02611593 -0.059798401 0.050936799
-0.02611593 -0.059798401 0.050936799
-0.02611593 -0.059798401 0.050936799
-0.02611593 -0.059798401 0.050936799
-0.02611593 -0.059798401 0.050936799
-0.02611593 -0.059798401 0.050936799
-0.02611593 -0.059798401 0.050936799
-0.02611593 -0.059798401 0.050936799
-0.02611593 -0.059798401 0.050936799
-0.02611593 -0.059798401 0.050936799
-0.02611593 -0.059798401 0.050936799
-0.02611593 -0.059798401 0.050936799
-0.02611593 -0.059798401 0.050936799
-0.02611593 -0.059798401 0.050936799
-0.02611593 -0.059798401 0.050936799
-0.02611593 -0.059798401 0.050936799
-0.02611593 -0.059798401 0.050936799
-0.02611593 -0.059798401 0.050936799
-0.02611593 -0.059798401 0.050936799
-0.02611593 -0.059798401 0.050936799
-0.02611593 -0.059798401 0.050936799
-0.02611593 -0.059798401 0.050936799
-0.02611593 -0.059798401 0.050936799
-0.02611593 -0.059798401 0.050936799
-0.02611593 -0.059798401 0.050936799
-0.02611593 -0.059798401 0.050936799
-0.02611593 -0.059798401 0.050936799
-0.02611593 -0.059798401 0.050936799
-0.02611593 -0.059798401 0.050936799
-0.02611593 -0.059798401 0.050936799
-0.02611593 -0.059798401 0.050936799
-0.02611593 -0.059798401 0.050936799
-0.02611593 -0.059798401 0.050936799
-0.02611593 -0.059798401 0.050936799
-0.02611593 -0.059798401 0.050936799
-0.02611593 -0.059798401 0.050936799
-0.02611593 -0.059798401 0.050936799
-0.02611593 -0.059798401 0.050936799
-0.02611593 -0.059798401 0.050936799
-0.02611593 -0.059798401 0.050936799
-0.02611593 -0.059798401 0.050936799
-0.02611593 -0.059798401 0.050936799
-0.02611593 -0.059798401 0.050936799
-0.02611593 -0.059798401 0.050936799
-0.02611593 -0.059798401 0.050936799
-0.02611593 -0.059798401 0.050936799
-0.02611593 -0.059798401 0.050936799
-0.02611593 -0.059798401 0.050936799
-0.02611593 -0.059798401 0.050936799
-0.02611593 -0.059798401 0.050936799
-0.02611593 -0.059798401 0.050936799
-0.02611593 -0.059798401 0.050936799
-0.02611593 -0.059798401 0.050936799
-0.02611593 -0.059798401 0.050936799
-0.02611593 -0.059798401 0.050936799
-0.02611593 -0.059798401 0.050936799
-0.02611593 -0.059798401 0.050936799
-0.02611593 -0.059798401 0.050936799
-0.02611593 -0.059798401 0.050936799
-0.02611593 -0.059798401 0.050936799
-0.02611593 -0.059798401 0.050936799
-0.02611593 -0.059798401 0.050936799
-0.02611593 -0.059798401 0.050936799
-0.02611593 -0.059798401 0.050936799
-0.02611593 -0.059798401 0.050936799
-0.02611593 -0.059798401 0.050936799
-0.02611593 -0.059798401 0.050936799
-0.02611593 -0.059798401 0.050936799
-0.02611593 -0.059798401 0.050936799
-0.02611593 -0.059798401 0.050936799
-0.02611593 -0.059798401 0.050936799
-0.02611593 -0.059798401 0.050936799
-0.02611593 -0.059798401 0.050936799
-0.02611593 -0.059798401 0.050936799
-0.02611593 -0.059798401 0.050936799
-0.02611593 -0.059798401 0.050936799
-0.02611593 -0.059798401 0.050936799
-0.02611593 -0.059798401 0.050936799
-0.02611593 -0.059798401 0.050936799
-0.02611593 -0.059798401 0.050936799
-0.02611593 -0.059798401 0.050936799
-0.02611593 -0.059798401 0.050936799
-0.02611593 -0.059798401 0.050936799
-0.02611593 -0.059798401 0.050936799
-0.02611593 -0.059798401 0.050936799
-0.02611593 -0.059798401 0.050936799
-0.02611593 -0.059798401 0.050936799
-0.02611593 -0.059798401 0.050936799
-0.02611593 -0.059798401 0.050936799
-0.062712088 -0.037048344 -0.037996642
-0.02611593 -0.059798401 0.050936799
-0.02611593 -0.059798401 0.050936799
-0.02611593 -0.059798401 0.050936799
-0.02611593 -0.059798401 0.050936799
-0.02611593 -0.059798401 0.050936799
-0.02611593 -0.059798401 0.050936799
-0.02611593 -0.059798401 0.050936799
-0.066692628 -0.03705208 -0.036921822
-0.02611593 -0.059798401 0.050936799
-0.02611593 -0.059798401 0.050936799
-0.02611593 -0.059798401 0.050936799
-0.02611593 -0.059798401 0.050936799
-0.02611593 -0.059798401 0.050936799
-0.02611593 -0.059798401 0.050936799
-0.02611593 -0.059798401 0.050936799
-0.071691714 -0.037034135 -0.03682787
-0.02611593 -0.059798401 0.050936799
-0.02611593 -0.059798401 0.050936799
-0.02611593 -0.059798401 0.050936799
-0.02611593 -0.059798401 0.050936799
-0.02611593 -0.059798401 0.050936799
-0.02611593 -0.059798401 0.050936799
-0.076605044 -0.039106295 -0.031771645
-0.077724136 -0.035976592 -0.038696427
-0.02611593 -0.059798401 0.050936799
-0.082607873 -0.040084586 -0.031676918
-0.02611593 -0.059798401 0.050936799
-0.02611593 -0.059798401 0.050936799
-0.02611593 -0.059798401 0.050936799
-0.02611593 -0.059798401 0.050936799
-0.080566868 -0.039128117 -0.029697161
-0.083719112 -0.03495523 -0.038565665
-0.02611593 -0.059798401 0.050936799
-0.087584309 -0.039084904 -0.03056528
-0.02611593 -0.059798401 0.050936799
-0.02611593 -0.059798401 0.050936799
-0.02611593 -0.059798401 0.050936799
-0.02611593 -0.059798401 0.050936799
-0.086561844 -0.038106754 -0.0295664
-0.087666139 -0.035994973 -0.035509534
-0.02611593 -0.059798401 0.050936799
-0.089509048 -0.039150085 -0.026529063
-0.02611593 -0.059798401 0.050936799
-0.02611593 -0.059798401 0.050936799
-0.02611593 -0.059798401 0.050936799
-0.02611593 -0.059798401 0.050936799
-0.093594082 -0.03704562 -0.031416167
-0.091627955 -0.036016796 -0.033435054
-0.02611593 -0.059798401 0.050936799
-0.099578187 -0.038042009 -0.030321777
-0.02611593 -0.059798401 0.050936799
-0.02611593 -0.059798401 0.050936799
-0.089568235 -0.03507841 -0.030455627
-0.02611593 -0.059798401 0.050936799
-0.098551787 -0.036064029 -0.029304877
-0.097604215 -0.035013523 -0.032304637
-0.02611593 -0.059798401 0.050936799
-0.10451717 -0.0370785 -0.027210824
-0.02611593 -0.059798401 0.050936799
-0.02611593 -0.059798401 0.050936799
-0.093533978 -0.036100063 -0.028399162
-0.02611593 -0.059798401 0.050936799
-0.10353215 -0.036064174 -0.028211255
-0.10561754 -0.033966888 -0.033135951
-0.02611593 -0.059798401 0.050936799
-0.11049342 -0.036075227 -0.026080403
-0.02611593 -0.059798401 0.050936799
-0.02611593 -0.059798401 0.050936799
-0.10156604 -0.035035342 -0.030230138
-0.02611593 -0.059798401 0.050936799
-0.10947489 -0.036096908 -0.025099535
-0.11363088 -0.032920256 -0.033967268
-0.02611593 -0.059798401 0.050936799
-0.12153972 -0.033981822 -0.02883666
-0.02611593 -0.059798401 0.050936799
-0.02611593 -0.059798401 0.050936799
-0.10652375 -0.034053747 -0.028118849
-0.02611593 -0.059798401 0.050936799
-0.1245875 -0.031917129 -0.031743232
-0.12162548 -0.031891715 -0.033798926
-0.02611593 -0.059798401 0.050936799
-0.13354839 -0.031921003 -0.029574785
-0.02611593 -0.059798401 0.050936799
-0.02611593 -0.059798401 0.050936799
-0.11453708 -0.033007115 -0.028950173
-0.02611593 -0.059798401 0.050936799
-0.13256337 -0.030906675 -0.030575223
-0.12858284 -0.030902941 -0.031650051
-0.02611593 -0.059798401 0.050936799
-0.14150555 -0.030928642 -0.027407125
-0.02611593 -0.059798401 0.050936799
-0.02611593 -0.059798401 0.050936799
-0.11947999 -0.033043437 -0.025857236
-0.02611593 -0.059798401 0.050936799
-0.14253891 -0.029889043 -0.029369637
-0.13554411 -0.030913997 -0.029519185
-0.02611593 -0.059798401 0.050936799
-0.15047733 -0.028914774 -0.026202314
-0.02611593 -0.059798401 0.050936799
-0.02611593 -0.059798401 0.050936799
-0.1315074 -0.030964531 -0.027595028
-0.02611593 -0.059798401 0.050936799
-0.15049607 -0.028896686 -0.027201973
-0.14956722 -0.027828086 -0.031201396
-0.02611593 -0.059798401 0.050936799
-0.15941559 -0.027936909 -0.023016196
-0.02611593 -0.059798401 0.050936799
-0.02611593 -0.059798401 0.050936799
-0.13746884 -0.030979175 -0.025482967
-0.02611593 -0.059798401 0.050936799
-0.16246727 -0.026872044 -0.025940791
-0.15649103 -0.027875319 -0.027071211
-0.02611593 -0.059798401 0.050936799
-0.17440106 -0.024883583 -0.022680283
-0.02611593 -0.059798401 0.050936799
-0.02611593 -0.059798401 0.050936799
-0.14540729 -0.030004902 -0.02231564
-0.02611593 -0.059798401 0.050936799
-0.1835039 -0.022743091 -0.028473094
-0.16846226 -0.02585068 -0.025810026
-0.02611593 -0.059798401 0.050936799
-0.19843319 -0.019744037 -0.025138203
-0.02611593 -0.059798401 0.050936799
-0.02611593 -0.059798401 0.050936799
-0.15436427 -0.029008951 -0.020129189
-0.02611593 -0.059798401 0.050936799
-0.02611593 -0.059798401 0.050936799
-0.18850298 -0.022725146 -0.028379139
-0.02611593 -0.059798401 0.050936799
-0.22744571 -0.014604626 -0.026502509
-0.02611593 -0.059798401 0.050936799
-0.02611593 -0.059798401 0.050936799
-0.17239057 -0.026908511 -0.021754239
-0.02611593 -0.059798401 0.050936799
-0.2244689 -0.015597136 -0.027576551
-0.21351622 -0.017600097 -0.029818617
-0.02611593 -0.059798401 0.050936799
-0.25441721 -0.0085087493 -0.025887053
-0.02611593 -0.059798401 0.050936799
-0.02611593 -0.059798401 0.050936799
-0.20145923 -0.02171484 -0.026117526
-0.02611593 -0.059798401 0.050936799
-0.25645819 -0.0094652204 -0.027866811
-0.23849593 -0.013511054 -0.029276781
-0.02611593 -0.059798401 0.050936799
-0.96860707 0.1487979 -0.21873537
-0.02611593 -0.059798401 0.050936799
-0.02611593 -0.059798401 0.050936799
-0.23149027 -0.016553754 -0.028462701
-0.98324072 0.15050772 -0.19942391
-0.96575832 0.14391461 -0.22587945
-0.26847079 -0.0084042372 -0.02862297
-0.02611593 -0.059798401 0.050936799
-0.99285662 0.15218148 -0.17920673
-0.97737777 0.14459571 -0.20564273
-0.02611593 -0.059798401 0.050936799
-0.25645521 -0.013482632 -0.026939217
-1.0074716 0.15387318 -0.1588956
-0.99301517 0.14530928 -0.1863305
-0.9775551 0.13774163 -0.21376616
-0.02611593 -0.059798401 0.050936799
-1.0130546 0.1544966 -0.1367723
-1.0086486 0.14702268 -0.16700023
-0.99319243 0.1384552 -0.19445391
-0.9687348 0.125838 -0.22114912
-1.0075953 0.15202676 -0.11191077
-1.0182496 0.14767854 -0.14580142
-0.99678767 0.13607192 -0.17242225
-0.98939002 0.12658758 -0.20274259
-1.0161926 0.15367886 -0.090712741
-1.0127904 0.14520869 -0.12093991
-1.0104067 0.13676022 -0.15214793
-0.99498093 0.12521133 -0.1806553
-1.0398167 0.15742061 -0.071196124
-1.0213916 0.14586096 -0.099759869
-1.0099612 0.13532625 -0.12817408
-1.0035901 0.12386392 -0.15951133
-1.0523908 0.1600688 -0.048905253
-1.0339923 0.14652757 -0.078504696
-1.0175519 0.13395719 -0.10604924
-1.009181 0.12248767 -0.13742405
-1.0739779 0.16376719 -0.027426898
-1.0575788 0.15023315 -0.056988776
-1.0351661 0.13565965 -0.085681744
-1.0287991 0.1231975 -0.11703701
-1.081538 0.16537952 -0.004248336
-1.0841838 0.15396759 -0.036416136
-1.0567799 0.13737649 -0.065239094
-1.0313758 0.12079255 -0.094024472
-1.1100783 0.17106652 0.019396905
-1.0837197 0.15251553 -0.011442624
-1.0713388 0.13901393 -0.041928984
-1.0469757 0.12146994 -0.072712913
-1.1046339 0.16961461 0.043276802
-1.0992743 0.15515639 0.011904284
-1.0919151 0.140691 -0.019505806
-1.0655564 0.12213999 -0.050345331
-1.1291602 0.17426935 0.067828521
-1.1128145 0.15677218 0.036195252
-1.1024785 0.14131424 0.0037111118
-1.0861367 0.12281724 -0.027940169
-1.1327064 0.17484942 0.091913573
-1.1233555 0.15837717 0.06042986
-1.1130085 0.14090151 0.028909333
-1.0936859 0.12241182 -0.0037979856
-1.1502007 0.17844301 0.11831506
-1.1299008 0.15896799 0.084571272
-1.1255488 0.14251369 0.053181514
-1.1032387 0.12101373 0.02036377
-0.02611593 -0.059798401 0.050936799
-1.1464179 0.16157624 0.1099363
-1.1271031 0.14108691 0.077192947
-1.1207595 0.12262578 0.045729563
-1.1781902 0.18560509 0.1709865
-1.1619016 0.16314493 0.13726383
-1.1386101 0.14165948 0.10342763
-1.1412836 0.12324874 0.07113371
-0.02611593 -0.059798401 0.050936799
-1.1704051 0.1647066 0.16346017
-1.1710789 0.14628866 0.13112867
-1.1837693 0.12793189 0.098022982
-1.2290289 0.19672243 0.23115984
-1.1898429 0.16825309 0.19289821
-1.1765723 0.14582178 0.15823226
-0.02611593 -0.059798401 0.050936799
-0.02611593 -0.059798401 0.050936799
-1.2023084 0.16979292 0.22116905
-1.1830616 0.14635834 0.18537265
-1.1747942 0.12294516 0.15078261
-0.02611593 -0.059798401 0.050936799
-0.02611593 -0.059798401 0.050936799
-1.1905359 0.14588055 0.21351349
-0.02611593 -0.059798401 0.050936799
-0.02611593 -0.059798401 0.050936799
-1.2510992 0.17884915 0.28426775
-1.2328826 0.15243675 0.24743643
-1.2056944 0.12401048 0.2094003
-1.2687234 0.20770027 0.3521426
-1.2814107 0.18532608 0.31996453
-0.02611593 -0.059798401 0.050936799
-0.02611593 -0.059798401 0.050936799
-0.02611593 -0.059798401 0.050936799
-1.3017546 0.18878575 0.35441971
-1.2805879 0.15939927 0.31547862
-0.02611593 -0.059798401 0.050936799
-1.3252459 0.22254901 0.42849535
-1.2981937 0.1882323 0.38435316
-1.2541443 0.15385459 0.33989149
-0.02611593 -0.059798401 0.050936799
-3.0911663 0.60898715 1.0147471
-1.3642088 0.20158403 0.43484774
-1.3520671 0.17024828 0.39504009
-1.2583284 0.12594607 0.33546346
-3.1126063 0.61760283 1.0963321
-3.0906019 0.54115796 1.0045061
-1.3345577 0.16668129 0.4226571
-0.02611593 -0.059798401 0.050936799
-3.1756849 0.63506013 1.1958624
-3.1060627 0.54475284 1.0858881
-3.0989277 0.47225267 1.0004141
-0.02611593 -0.059798401 0.050936799
-3.2287545 0.65046382 1.2961688
-3.1820302 0.56114846 1.191643
-3.1094012 0.47283015 1.0816482
-3.1043 0.3963559 0.99514008
-3.2579379 0.66187245 1.3909538
-3.23807 0.57452708 1.2939688
-3.1764092 0.4842124 1.1861441
-3.1107674 0.3939015 1.0772445
-3.2295799 0.65945524 1.4634035
-3.3178086 0.59171981 1.4118127
-3.2453229 0.49551141 1.2956759
-3.1738105 0.40128815 1.1805936
-3.198256 0.65806329 1.5338157
-3.38853 0.6088621 1.5304871
-3.3151391 0.50772333 1.4102427
-3.2446795 0.40954056 1.2931077
-3.1194148 0.64591688 1.5801356
-3.4749932 0.62882626 1.6625118
-3.3987348 0.52278608 1.5361232
-3.3184359 0.41769516 1.4116764
-3.080194 0.64258695 1.6453632
-3.5405474 0.64578784 1.7900892
-3.4831996 0.53772575 1.6690198
-3.3950713 0.42775172 1.5363355
-3.0538468 0.64219475 1.7168871
-3.497129 0.6402449 1.8662019
-4.1389303 0.65267181 2.0935199
-3.4894147 0.43960118 1.6763637
-3.0235226 0.64080632 1.7873181
-3.4714818 0.63956684 1.9537392
-4.1139503 0.6506719 2.1990521
-4.9988394 0.65615207 2.5318313
-2.9842978 0.63847619 1.8525636
-3.4586892 0.64180815 2.0485721
-4.0908761 0.6485886 2.3096197
-4.9258127 0.64389104 2.6412792
-2.9480312 0.63712049 1.919883
-3.3934743 0.63336772 2.1142209
-4.0529804 0.64461464 2.4108725
-4.8230853 0.62879431 2.7351148
-2.9186802 0.63771725 1.9913684
-3.3697853 0.63366044 2.2038131
-4.0130477 0.64059734 2.5140872
-4.7154932 0.61280632 2.8218408
-2.8212702 0.62190139 2.0152667
-3.2809088 0.62144196 2.2519443
-3.5633166 0.5647704 2.3502398
-4.596076 0.59593827 2.8993258
-2.8283906 0.63115907 2.1136007
-2.6299102 0.48923585 1.8982445
-4.2953558 0.69752699 2.9685564
-3.2186353 0.39901957 2.14872
-2.7970173 0.63273042 2.1860662
-3.2560873 0.62871081 2.4536793
-2.618969 0.40293968 1.911483
-4.3633075 0.56429565 3.0504465
-2.7351348 0.62562609 2.2337954
-2.8894935 0.55734384 2.2824667
-3.2125285 0.51355428 2.4517801
-2.6069691 0.31256819 1.9286295
-2.6889899 0.62234348 2.2948928
-3.1601579 0.62251943 2.6098242
-4.026825 0.6660617 3.2130427
-2.7796435 0.33916447 2.1554205
-2.6359775 0.61916226 2.3488612
-3.1077518 0.61896193 2.6848042
-3.9225769 0.6534276 3.2808852
-2.7402585 0.33467194 2.2296267
-1.8747411 0.42789546 1.7519464
-2.2975397 0.44760641 2.0823309
-2.367784 0.37283418 2.0842941
-2.683146 0.3283684 2.289464
-1.8301245 0.42412308 1.7850541
-1.8607084 0.35554999 1.7673804
-1.8883635 0.28803828 1.7456696
-2.4185348 0.29153302 2.1668017
-1.885563 0.44695726 1.9175501
-1.8091755 0.34982508 1.7963217
-1.8387555 0.28224829 1.7786472
-1.8654001 0.21271525 1.7578813
-2.0397644 0.49912277 2.1644645
-1.9635847 0.39215508 2.0340588
-1.8862872 0.29610959 1.9078317
-1.8167319 0.20787437 1.7938946
-2.2553587 0.57004577 2.4938955
-2.1479979 0.44267228 2.3235238
-2.0640295 0.33487505 2.1819537
-1.9789366 0.23498239 2.0455072
-2.3442864 0.60760993 2.7043111
-2.7694938 0.60171127 3.1243081
-2.2619169 0.37991869 2.5005813
-2.1780019 0.26815829 2.35694
-2.2902329 0.60538882 2.760278
-3.2322533 0.72720444 3.8094745
-3.2586489 0.58613229 3.7624009
-3.3085606 0.44769359 3.7408237
-2.2303529 0.60230917 2.807117
-2.6448691 0.59570527 3.2639134
-3.1614957 0.57763129 3.8244491
-3.2152152 0.44002593 3.8129618
-2.1752996 0.60008448 2.863065
-2.5873964 0.59507507 3.3418524
-3.0692632 0.57007563 3.8906078
-3.1150103 0.43045995 3.8779347
-2.1193025 0.5979104 2.9159951
-2.9470134 0.70293975 3.9837539
-2.9741015 0.56358141 3.9527299
-3.0109334 0.42200616 3.9358528
-2.0662074 0.59665656 2.9739981
-2.8529267 0.69652146 4.0418959
-2.8789065 0.55605119 4.0168333
-2.9136603 0.41539627 4.0039349
-2.0091505 0.59542447 3.0299263
-2.7607872 0.68905628 4.1030569
-2.7857072 0.549528 4.0809917
-2.8193672 0.408779 4.0730734
-1.9414335 0.58946127 3.0685642
-2.6705985 0.68456161 4.1663084
-2.6914897 0.54298317 4.1461315
-2.7192256 0.40228492 4.1341014
-1.889214 0.59110206 3.1326375
-2.5755868 0.67821211 4.2204328
-2.5963619 0.53752494 4.2062716
-2.620986 0.3967075 4.2001839
-1.8263345 0.58801156 3.1794205
-2.478617 0.67089176 4.2725024
-2.5021589 0.53199798 4.2704301
-2.5228064 0.39018437 4.2632489
-1.7682552 0.58775765 3.2363477
-2.1082118 0.58041686 3.8287807
-2.4050124 0.52651453 4.331533
-2.4206426 0.38466489 4.3252573
-1.7014701 0.5847432 3.2780569
-2.2904317 0.66105479 4.3888407
-2.3088808 0.52205265 4.3916726
-2.3224213 0.37910551 4.3903403
-1.633689 0.58072555 3.3197293
-2.1944351 0.65571964 4.4419646
-2.2136178 0.51746756 4.4588289
-2.2221406 0.37448442 4.4584017
-1.5697458 0.57957691 3.3695283
-2.1022053 0.65218133 4.5071964
-2.1164494 0.5129658 4.5209494
-2.1219308 0.37093562 4.5224829
-1.5057648 0.57839209 3.4213262
-2.0118961 0.6495778 4.5764818
-2.015337 0.50850403 4.5799956
-2.0207067 0.36636525 4.5875273
-1.4350181 0.57539952 3.4609611
-1.7046726 0.56754464 4.1220918
-1.0485598 0.2455381 2.5334444
-1.0478061 0.16849333 2.535037
-0.97566664 0.3888849 2.499661
-0.96526766 0.30813053 2.483
-0.95867574 0.23322672 2.4755192
-0.95212537 0.15735921 2.4660208
-0.89289868 0.37069011 2.4367611
-0.88235295 0.29380843 2.4271696
-0.87096798 0.2190856 2.4085984
-0.86234599 0.14715602 2.4021337
-0.81405121 0.35343713 2.3779528
-0.80251652 0.27856961 2.3673792
-0.79286814 0.20861797 2.3619308
-0.78329474 0.13873869 2.3524847
-0.74298459 0.33901337 2.3303452
-0.72853613 0.26622519 2.3147526
-0.71507186 0.19743992 2.2992511
-0.70057029 0.12861489 2.2857299
-0.67493606 0.32461846 2.2817943
-0.65657806 0.2529062 2.2611463
-0.64308327 0.18710235 2.2466986
-0.62949085 0.12220787 2.237267
-0.6089434 0.31028503 2.2302821
-0.5914759 0.24248521 2.2147233
-0.57594013 0.17763783 2.2022552
-0.56137747 0.11477558 2.1908414
-0.54684848 0.29787514 2.1838791
-0.53027934 0.23198815 2.1733737
-0.51375061 0.17015474 2.1599412
-0.49624076 0.10833582 2.1454899
-0.48965517 0.28639257 2.1425867
-0.47107849 0.22249806 2.1320796
-0.45263985 0.16174777 2.1136291
-0.43408489 0.10188875 2.1011949
-0.43617234 0.27665269 2.1164005
-0.41483572 0.2139824 2.0928593
-0.39625818 0.15510514 2.0814426
-0.37769535 0.097245812 2.0690441
-0.38203466 0.26523519 2.0721653
-0.3614614 0.20535091 2.060693
-0.34277838 0.14938268 2.0543284
-0.31959102 0.091867171 2.021843
-0.3316223 0.25657827 2.0420547
-0.31000388 0.19865388 2.0325987
-0.29045212 0.14280868 2.019218
-0.27239755 0.090499684 2.0319381
-0.28505152 0.24979067 2.0200522
-0.26585126 0.19633353 2.0407329
-0.24945143 0.14570573 2.0715206
-0.23030344 0.093302682 2.08922
-0.2461441 0.2527853 2.067394
-0.22582772 0.20021588 2.0940719
-0.20731597 0.14947239 2.13082
-0.18588749 0.09679085 2.1634767
-0.20617673 0.25672194 2.117734
-0.18447433 0.20678662 2.1644404
-0.16208348 0.15413767 2.1950791
-0.1384494 0.10124998 2.2386947
-0.16483814 0.2643106 2.1871209
-0.13927931 0.21148811 2.2267003
-0.25202054 0.49841064 5.6991782
-0.2198685 0.45911157 7.1513577
-0.19830501 0.53734893 4.02631
-0.16261712 0.51496756 4.7054667
-0.11987318 0.49375665 5.7066226
-0.046663538 0.44408754 7.0037932
-0.11162803 0.53637099 4.0616813
-0.056906141 0.51388526 4.7424808
0.013660237 0.49173689 5.7340951
0.11715256 0.42441389 6.7832952
-0.023127757 0.53354907 4.0879822
0.049478512 0.51110721 4.7624459
0.14807719 0.48882216 5.7555332
0.2699559 0.4057976 6.5620227
0.065260187 0.53083557 4.1082854
0.15726793 0.5109452 4.8034382
0.28077111 0.48359895 5.7389488
0.41380221 0.38817725 6.342936
0.15494058 0.53084671 4.1436181
0.26519108 0.50559467 4.7993197
0.44860697 0.52464455 6.1997046
0.54705161 0.37221619 6.1450858
0.24513306 0.52630734 4.1538515
0.37465793 0.50473309 4.8232627
0.5746991 0.50183648 5.9948621
0.67226899 0.35731983 5.9454041
0.33998495 0.52713746 4.1981053
0.48723656 0.50375235 4.853147
0.69918996 0.48571718 5.8631954
0.7916972 0.34324583 5.7568498
0.43439448 0.52538425 4.2193131
0.59933537 0.50022417 4.8579865
0.81305689 0.46823111 5.6986909
-0.02611593 -0.059798401 0.050936799
0.52957124 0.52184486 4.2284703
-0.02611593 -0.059798401 0.050936799
-0.02611593 -0.059798401 0.050936799
1.0134794 0.32029319 5.4281707
-0.02611593 -0.059798401 0.050936799
0.17467588 0.070020504 1.1839097
1.0304677 0.43766448 5.4049678
0.26869798 0.035686843 1.4036027
-0.02611593 -0.059798401 0.050936799
-0.02611593 -0.059798401 0.050936799
0.27273628 0.064739913 1.4000515
1.2107311 0.30099541 5.1240258
0.82356906 0.51576287 4.2798729
0.27910033 0.095477939 1.4134929
1.2209289 0.40915817 5.1137881
1.3019334 0.2913011 4.9760923
0.27707964 0.12360699 1.4070375
1.2009827 0.50143242 4.9927897
1.3081349 0.3954609 4.9668574
1.3893502 0.28342184 4.8392668
-0.02611593 -0.059798401 0.050936799
1.3091865 0.494766 4.9506288
1.3946109 0.38351357 4.8339772
1.4781301 0.27719492 4.7214522
-0.02611593 -0.059798401 0.050936799
1.393857 0.47962731 4.8287282
1.4803907 0.37228015 4.7171283
1.5597204 0.27017421 4.5937543
1.2473119 0.5134936 4.3689284
1.4776216 0.46440184 4.7118449
1.5558727 0.36137208 4.5844727
-0.02611593 -0.059798401 0.050936799
1.3715152 0.51889324 4.4307218
1.5512044 0.45039293 4.5851707
-0.02611593 -0.059798401 0.050936799
0.46514004 0.029379856 1.2667645
1.4815809 0.51640838 4.4336171
-0.02611593 -0.059798401 0.050936799
0.41701984 0.042641401 1.1518663
1.7860571 0.25365481 4.240098
1.5896508 0.51493049 4.4365678
0.38154882 0.054226942 1.0717129
0.50669187 0.056793816 1.2904904
1.8528452 0.24850667 4.1227145
-0.02611593 -0.059798401 0.050936799
0.50070453 0.078883961 1.2870009
1.8422806 0.32540643 4.1313062
1.9208617 0.24413776 4.0173268
0.49907994 0.10261572 1.3024659
1.8402094 0.40380687 4.1657748
1.9145359 0.31978819 4.0388207
1.9889758 0.24067819 3.9169545
1.8188145 0.47556603 4.1844797
1.9020419 0.39060566 4.05234
1.9805784 0.31239071 3.9354153
2.0540714 0.23724751 3.8156395
1.8807514 0.46025664 4.0770073
1.9641106 0.38018695 3.9509552
2.040622 0.30501488 3.8321226
2.1162469 0.23475499 3.7183974
1.9439209 0.44672626 3.9815474
2.0262771 0.37067765 3.8545866
2.1049161 0.29938909 3.7417867
2.1826501 0.233031 3.6330941
2.0041733 0.43513402 3.8901787
2.0875828 0.36304483 3.7652702
2.1641591 0.29483539 3.6485636
2.2387886 0.2305962 3.5339653
2.0644031 0.42256004 3.797792
2.1478846 0.35441586 3.6759553
2.2224393 0.29024905 3.557358
2.2991405 0.22994784 3.4457934
2.1195962 0.41004014 3.7035005
2.205112 0.34587002 3.5826974
2.2838504 0.28552541 3.4730945
2.3554332 0.22836816 3.3546803
2.1789844 0.3993246 3.6191659
2.2655711 0.33909601 3.5014153
2.33915 0.28093177 3.3829455
2.4138188 0.22669092 3.2685275
2.2373536 0.38863075 3.5338509
2.3188407 0.33152816 3.4102502
2.3945098 0.2772837 3.2958136
2.4681909 0.22604592 3.1814682
2.2927418 0.37792972 3.4495916
2.3721855 0.32388794 3.3230836
2.4509442 0.27355975 3.2126615
2.5246785 0.22628507 3.1003878
2.3451159 0.36825722 3.3644071
2.4307466 0.31903034 3.2468736
2.5044205 0.2708101 3.131583
2.575088 0.22561827 3.015403
2.4026845 0.3603856 3.2891617
2.4831884 0.3123031 3.1647425
2.5538003 0.26716551 3.0455632
2.630595 0.22584289 2.9353406
2.4531152 0.35066605 3.2070136
2.5305607 0.30666599 3.0787244
2.6154852 0.26518807 2.9753487
2.6841204 0.22605664 2.8563156
2.5045686 0.34192467 3.1258645
2.5922942 0.3026346 3.0114729
2.6618879 0.26253596 2.8904033
2.7356093 0.2263137 2.7753286
2.5550594 0.33315066 3.0467336
2.6376626 0.29600486 2.9254742
2.7124059 0.26076081 2.8113987
2.7891986 0.22847283 2.6993387
2.6035731 0.32536566 2.9686584
2.6882102 0.29219383 2.848433
2.7599065 0.25901446 2.7314506
2.8326325 0.22881289 2.6155033
2.6541054 0.31755531 2.8915446
2.7367549 0.2873902 2.7714112
2.8084061 0.25726458 2.6514838
2.8811631 0.23004439 2.5365901
2.7067161 0.31066528 2.8184104
2.7852619 0.28262272 2.6923895
2.8549254 0.25550374 2.5725541
2.9835501 0.23627064 2.5017741
2.7573082 0.30380052 2.7443137
2.8379068 0.27971396 2.6203268
2.9360197 0.25807741 2.5230656
3.0310657 0.23852365 2.4218981
2.7977302 0.29613462 2.6613898
2.8783591 0.27502942 2.5384572
2.9998097 0.25900185 2.457866
3.0826368 0.24070805 2.3449459
2.8483827 0.29021543 2.5903106
2.9777496 0.27724907 2.5046248
3.0524473 0.2591106 2.3848577
3.1382828 0.24280572 2.2719173
2.907191 0.28612247 2.5271139
3.0233023 0.27445582 2.4276955
3.1060855 0.2592158 2.3118305
3.1838217 0.24604765 2.1930966
2.9903214 0.28363547 2.4804969
3.0789881 0.27249989 2.3575938
3.1546497 0.25941131 2.2348988
3.2283189 0.24832952 2.1122775
3.0399218 0.27877402 2.406455
3.1275592 0.26967779 2.2816076
3.1981733 0.25866103 2.1560435
3.2930832 0.25228602 2.0451138
3.0834591 0.2719886 2.3294911
3.1741304 0.2668629 2.2056589
3.2508154 0.25976968 2.0830531
4.6998754 0.3832553 2.7403796
3.129004 0.2671957 2.2525258
3.2257609 0.26497561 2.1326334
4.6823859 0.39391053 2.8189263
4.7951622 0.39157018 2.6467144
3.1796417 0.26229444 2.1804647
3.2642403 0.26227987 2.0518367
4.7453103 0.39466724 2.7077241
4.5913601 0.37086529 2.3970706
3.235357 0.25830269 2.1123261
4.6884403 0.39279014 2.7687757
4.8153124 0.39632627 2.6004074
4.6604757 0.37743664 2.2948608
