# .PCD v0.7 - Point Cloud Data file format
VERSION 0.7
FIELDS x y z
SIZE 4 4 4
TYPE F F F
COUNT 1 1 1
WIDTH 1390
HEIGHT 1
VIEWPOINT 0 0 0 1 0 0 0
POINTS 1390
DATA ascii
-0.02611593 -0.059798401 0.050936799
-0.14662156 -0.055888355 -0.028763298
-0.14768055 -0.051813092 -0.032671079
-0.02611593 -0.059798401 0.050936799
-0.15359461 -0.058898903 -0.026686497
-0.02611593 -0.059798401 0.050936799
-0.02611593 -0.059798401 0.050936799
-0.13852064 -0.048990615 -0.024788853
-0.02611593 -0.059798401 0.050936799
-0.15961917 -0.055841699 -0.028519023
-0.15865588 -0.050791875 -0.031446707
-0.02611593 -0.059798401 0.050936799
-0.16657351 -0.058870338 -0.025442559
-0.02611593 -0.059798401 0.050936799
-0.02611593 -0.059798401 0.050936799
-0.1495147 -0.047951307 -0.024564136
-0.02611593 -0.059798401 0.050936799
-0.16755763 -0.054867428 -0.025351696
-0.16759807 -0.050813839 -0.028278604
-0.02611593 -0.059798401 0.050936799
-0.17751534 -0.058885124 -0.02223688
-0.02611593 -0.059798401 0.050936799
-0.02611593 -0.059798401 0.050936799
-0.16756365 -0.04683261 -0.027206864
-0.02611593 -0.059798401 0.050936799
-0.1875914 -0.054759473 -0.026975203
-0.1866281 -0.04970964 -0.029902887
-0.02611593 -0.059798401 0.050936799
-0.20254427 -0.057759393 -0.023748424
-0.02611593 -0.059798401 0.050936799
-0.02611593 -0.059798401 0.050936799
-0.17346893 -0.04690152 -0.022095818
-0.02611593 -0.059798401 0.050936799
-0.21060199 -0.053659007 -0.027524669
-0.20460217 -0.048663303 -0.028546974
-0.02611593 -0.059798401 0.050936799
-0.23963112 -0.057536159 -0.028051469
-0.02611593 -0.059798401 0.050936799
-0.02611593 -0.059798401 0.050936799
-0.19853139 -0.044739783 -0.025588665
-0.02611593 -0.059798401 0.050936799
-0.23961148 -0.052537009 -0.027961377
-0.23464893 -0.047501538 -0.030964229
-0.02611593 -0.059798401 0.050936799
-1.0162454 -0.050170895 -0.26745912
-0.02611593 -0.059798401 0.050936799
-0.02611593 -0.059798401 0.050936799
-0.22757441 -0.042581778 -0.028006677
-1.0348635 -0.049464658 -0.24709083
-1.0120839 -0.023244111 -0.26404876
-0.26363578 -0.045397796 -0.030383267
-0.02611593 -0.059798401 0.050936799
-1.0434273 -0.048848573 -0.22391149
-1.029721 -0.022523372 -0.24469897
-0.02611593 -0.059798401 0.050936799
-0.25857958 -0.040452771 -0.0283878
-1.0640413 -0.047135331 -0.20348762
-1.0403031 -0.021882026 -0.22248173
-1.0235568 0.0003788257 -0.24039862
-0.02611593 -0.059798401 0.050936799
-1.0565331 -0.046649028 -0.17661029
-1.0569217 -0.021182965 -0.20215102
-1.0371573 0.001049031 -0.21912464
-0.99731451 0.020119311 -0.23152986
-1.0590606 -0.046090659 -0.15154439
-1.0584532 -0.021628013 -0.17712191
-1.0346894 0.00058962638 -0.1941707
-1.0189695 0.020872494 -0.21310456
-1.0676204 -0.044474743 -0.12834702
-1.0730346 -0.020972308 -0.1548295
-1.0493124 0.00028167944 -0.17389566
-1.0215424 0.019467384 -0.19007401
-1.0862012 -0.043804687 -0.10597944
-1.0685446 -0.020457147 -0.12889545
-1.0669118 0.00096624042 -0.15254653
-1.0401793 0.02019171 -0.17070541
-1.0997601 -0.042170826 -0.082688123
-1.070091 -0.019884277 -0.10484798
-1.0554271 0.00045644678 -0.12676203
-1.0507841 0.019851318 -0.14950582
-1.0972884 -0.041630402 -0.057716161
-1.0746408 -0.02030047 -0.080762163
-1.0499452 -0.0010316437 -0.10088281
-1.0523382 0.018424528 -0.12549439
-1.1148279 -0.040000282 -0.033350036
-1.0902181 -0.018641349 -0.058432929
-1.0755582 0.00069954828 -0.080364987
-1.0438756 0.01694376 -0.10067122
-1.110338 -0.039485119 -0.007415995
-1.1017625 -0.018032588 -0.034197561
-1.0811263 0.00030503306 -0.057260036
-1.0654783 0.016642846 -0.079264939
-1.139894 -0.037793841 0.016175967
-1.1193248 -0.017384205 -0.010849103
-1.1017066 0.00098226825 -0.034854881
-1.0750647 0.016280776 -0.057084478
-1.1473979 -0.036235787 0.042353518
-1.1418445 -0.015754227 0.014610637
-1.1102557 0.00058043096 -0.010693893
-1.0906271 0.01692198 -0.033773609
-1.1599046 -0.035659615 0.068606995
-1.1483753 -0.016181329 0.039733693
-1.1237998 0.0011963729 0.013579056
-1.1051937 0.016559765 -0.010499544
-0.02611593 -0.059798401 0.050936799
-1.1448849 -0.015662586 0.065686524
-1.1433241 0.0018157519 0.038964409
-1.1277549 0.017226093 0.012942858
-0.02611593 -0.059798401 0.050936799
-1.1644057 -0.014043372 0.091089904
-1.1578494 0.002417186 0.064255819
-1.1483018 0.016867325 0.037329327
-0.02611593 -0.059798401 0.050936799
-1.168914 -0.013495912 0.11719306
-1.1683754 0.003004272 0.089472055
-0.02611593 -0.059798401 0.050936799
-0.02611593 -0.059798401 0.050936799
-0.02611593 -0.059798401 0.050936799
-1.1828672 0.0025697011 0.11674477
-1.1663436 0.01601297 0.088669062
-1.2442431 -0.026863631 0.20939288
-1.2238021 -0.010344779 0.17629775
-1.1823616 0.0020812964 0.14373562
-1.1708559 0.015560599 0.1147542
-0.02611593 -0.059798401 0.050936799
-0.02611593 -0.059798401 0.050936799
-1.198849 0.0026537303 0.17106393
-1.1943419 0.01615816 0.14221403
-1.2391649 -0.024909571 0.26635244
-1.2297444 -0.0093329865 0.23244634
-1.2202758 0.0041896766 0.20150319
-0.02611593 -0.059798401 0.050936799
-0.02611593 -0.059798401 0.050936799
-0.02611593 -0.059798401 0.050936799
-1.2277499 0.0037118944 0.22964403
-1.2252502 0.015223839 0.20079568
-0.02611593 -0.059798401 0.050936799
-0.02611593 -0.059798401 0.050936799
-1.2321835 0.0041869981 0.25974584
-0.02611593 -0.059798401 0.050936799
-0.02611593 -0.059798401 0.050936799
-0.02611593 -0.059798401 0.050936799
-0.02611593 -0.059798401 0.050936799
-1.2242057 0.013211021 0.25675869
-1.4150629 -0.013181874 0.43091363
-1.3301103 -0.0034609763 0.37247914
-1.3097864 0.0071493448 0.3342776
-0.02611593 -0.059798401 0.050936799
-3.1219299 0.047725905 0.97515702
-0.02611593 -0.059798401 0.050936799
-1.3390803 0.0085873697 0.3718648
-0.02611593 -0.059798401 0.050936799
-3.0846848 0.050402135 1.0405302
-3.1269798 0.077901535 0.96679455
-1.3643563 0.009992958 0.41037655
-1.2992741 0.013641946 0.36020702
-3.1478112 0.055861507 1.1398445
-3.0847847 0.07759653 1.0300205
-3.1309824 0.10100244 0.96228588
-0.02611593 -0.059798401 0.050936799
-3.2247393 0.063189879 1.2494546
-3.1409538 0.082067125 1.1271858
-3.0828006 0.097676396 1.025345
-3.131983 0.1150579 0.95955789
-3.2836933 0.069471903 1.3577087
-3.2149088 0.087403163 1.2357038
-3.1508958 0.10111786 1.1267165
-3.0818098 0.10972503 1.0225434
-3.3574495 0.077626549 1.4762774
-3.2808506 0.091692552 1.3450532
-3.2129402 0.1034837 1.2309562
-3.1399937 0.11020348 1.1196743
-3.4479966 0.085643217 1.6061617
-3.352638 0.096858621 1.4625304
-3.2798669 0.10675878 1.3413059
-3.2149458 0.11152571 1.2291386
-4.8356471 0.15233049 2.3706074
-3.4372129 0.10287218 1.5912664
-3.3586233 0.10991411 1.4608781
-3.2808845 0.1117977 1.3394156
-4.70433 0.1535791 2.4391947
-3.5107896 0.10884628 1.7197955
-3.4352634 0.11395358 1.5864286
-3.3507104 0.11197552 1.4557655
-4.5879722 0.15484536 2.5100629
-4.7223682 0.17174917 2.4338593
-3.4959521 0.11597215 1.7096432
-3.4471641 0.11490603 1.5916705
-4.6932983 0.16676091 2.7043169
-4.5851841 0.16808565 2.4962459
-4.7174206 0.17780255 2.4298749
-3.5078042 0.11487065 1.7178479
-3.4198983 0.11090459 2.0852549
-4.6667404 0.17511487 2.6789618
-4.5881524 0.1710778 2.4973559
-4.7055063 0.17081495 2.4265244
-4.5702553 0.17746022 2.9162784
-3.4239945 0.11502679 2.0794041
-4.6558771 0.17420219 2.6717396
-4.5960412 0.16096348 2.5053234
-3.1897156 0.11090659 2.1459661
-4.5694575 0.17865545 2.9052811
-3.4190447 0.11204555 2.0772569
-4.6686859 0.16001606 2.6847272
-4.3426476 0.18111905 3.052129
-3.1987405 0.10895734 2.1450992
-4.5704737 0.16964246 2.9061377
-3.4279294 0.097917408 2.0861707
-2.6215055 0.089330748 1.9428684
-4.3507299 0.17420322 3.0491543
-3.18291 0.10002806 2.1376388
-4.5713911 0.14748698 2.9147568
-2.7587993 0.10334271 2.1387587
-2.6285088 0.083338797 1.9438914
-4.3457332 0.15913355 3.0517888
-3.1838534 0.080908254 2.1443129
-4.0317245 0.18821649 3.2565055
-2.7657957 0.094333172 2.1407275
-2.6245193 0.071290307 1.9455993
-4.3367219 0.12897973 3.0580769
-3.9373593 0.19056155 3.327805
-4.032795 0.17022318 3.2561998
-2.7627804 0.079252608 2.1443994
-2.6224484 0.051141821 1.9531987
-2.3792293 0.096305534 2.1135163
-3.93154 0.16863422 3.3222978
-4.0287862 0.14410469 3.2616541
-2.7537866 0.054134123 2.148778
-1.8761214 0.066920683 1.7474411
-1.9296911 0.05361978 1.7201943
-3.9284301 0.13941132 3.3337147
-4.0138001 0.10291313 3.2686307
-1.8295043 0.068158299 1.7796017
-1.8781011 0.052857891 1.7512251
-1.9266648 0.03652145 1.7248299
-2.4339273 0.035961945 2.0884402
-1.9242071 0.080396146 1.9536551
-1.8235871 0.052157599 1.7782009
-1.870136 0.034796059 1.7527497
-1.9117765 0.013489621 1.7231339
-2.0961416 0.099251971 2.2213058
-1.9447871 0.062004283 1.9797165
-1.8254553 0.032969028 1.7888924
-1.8561993 0.0097138863 1.7540356
-3.3600636 0.20645693 3.707413
-2.1245074 0.077672243 2.2594595
-1.9809228 0.041235998 2.0300345
-1.8330879 0.0065499246 1.8135657
-3.2698245 0.20994276 3.7718084
-3.3442578 0.16242504 3.7053196
-2.1703799 0.051669378 2.3248703
-2.0130761 0.011436839 2.0811148
-3.172744 0.21154854 3.8280385
-3.2559366 0.16282813 3.7746968
-3.3360362 0.11400652 3.7262971
-2.2230206 0.017439768 2.4042635
-3.0854859 0.21502709 3.8934901
-3.1646948 0.16229302 3.8400011
-3.2388818 0.11052272 3.7874358
-3.3119843 0.051641524 3.7407236
-2.9943221 0.21858174 3.9538682
-3.0705659 0.16185564 3.899251
-3.142694 0.1060065 3.8505747
-3.2157669 0.045089453 3.8058257
-2.8983126 0.22126329 4.0061369
-2.9754558 0.16143274 3.9574823
-3.0455775 0.10255887 3.9097142
-3.111701 0.038653389 3.8627801
-2.8130164 0.22471282 4.0736251
-2.8812892 0.16095921 4.0187311
-2.9493816 0.10004231 3.9728889
-3.016427 0.032050654 3.9309001
-2.7198901 0.22829646 4.1319661
-2.7891185 0.16149265 4.0800362
-2.8591139 0.096475087 4.0401573
-2.9192472 0.025531173 3.993984
-2.6278055 0.23091999 4.1883087
-2.6959708 0.16104078 4.1403046
-2.7619786 0.093009375 4.100296
-2.8191619 0.019091375 4.0520134
-2.5376225 0.23446018 4.2497048
-2.6047626 0.16154167 4.2036276
-2.6658804 0.089583419 4.1584549
-2.728827 0.01345215 4.1232438
-2.4445713 0.23811612 4.3040476
-2.5116518 0.16112596 4.2618961
-2.5726657 0.087059543 4.2226858
-2.6267605 0.00702326 4.1802363
-2.3563504 0.24162728 4.3674803
-2.4175 0.16167034 4.3221641
-2.4774923 0.083564803 4.2848616
-2.5286369 0.00055446476 4.2403021
-2.2642245 0.24521443 4.4258404
-2.3243523 0.16121845 4.382432
-2.3813903 0.081138708 4.3430381
-2.4362838 -0.0051100329 4.3124957
-2.1720002 0.2497111 4.4892163
-2.2310655 0.16263963 4.4497342
-2.2880445 0.078488193 4.4142666
-2.3370817 -0.010654949 4.3765597
-2.0789156 0.25233102 4.5455403
-2.134989 0.16324919 4.5059652
-2.1909051 0.076022297 4.4744239
-2.2379169 -0.016163677 4.4386244
-1.9866691 0.25780934 4.6099339
-2.0417624 0.16372478 4.57025
-2.0937095 0.073502146 4.5375795
-2.1416209 -0.021788269 4.5077429
-1.0242778 0.11165204 2.5205636
-1.9456298 0.16428006 4.6294804
-1.9964954 0.070963897 4.6017361
-2.042419 -0.02733317 4.5718069
-0.93460977 0.10657461 2.449769
-0.97930729 0.057274129 2.4757228
-1.8983188 0.068458244 4.6638727
-1.9402924 -0.032816503 4.6318164
-0.85846341 0.10309488 2.4042649
-0.89627451 0.053877793 2.4240894
-1.7971802 0.065977983 4.7239552
-0.97834933 -0.049073212 2.4937871
-0.78346664 0.099763408 2.3507824
-0.81448883 0.04972038 2.3594606
-0.85009027 0.0012969859 2.3902619
-1.7319275 -0.043906033 4.7577572
-0.70956713 0.095526181 2.2923021
-0.74416888 0.047099184 2.3230846
-0.78625971 -0.00078765675 2.381026
-1.6286701 -0.049519561 4.8247452
-0.64243388 0.093096651 2.2459857
-0.67219031 0.043796606 2.2686586
-0.79310727 0.0032708757 2.6013021
-1.5253525 -0.054187544 4.8947496
-0.5802061 0.090594634 2.2047615
-0.60415471 0.040454101 2.2173073
-0.71041542 -0.00079968572 2.531657
-1.3654878 -0.059759866 4.7806172
-0.51909441 0.087204888 2.1575398
-0.54284793 0.038883131 2.1801183
-0.56841385 -0.0096123349 2.2127309
-1.3125539 -0.064707644 5.0436258
-0.46373427 0.084601358 2.1234448
-0.48360085 0.036373787 2.1399498
-0.50152791 -0.012806527 2.1534004
-1.201279 -0.070367992 5.1114631
-0.4084264 0.083051927 2.0863686
-0.4263722 0.033889692 2.0988197
-0.4523122 -0.013199458 2.1644757
-1.0907942 -0.075223878 5.1903334
-0.35708424 0.080480829 2.0513492
-0.37287667 0.032166559 2.0717778
-0.39230871 -0.01547724 2.1112931
-0.97359151 -0.079833552 5.254077
-0.3076255 0.078808218 2.022383
-0.32239938 0.030472264 2.0437925
-0.33787355 -0.018149532 2.0812151
-1.4693894 -0.1032113 9.2122793
-0.26609701 0.081154063 2.0496571
-0.27727661 0.030184142 2.0499444
-0.2872425 -0.018988714 2.0612452
-1.1846347 -0.10839206 8.7717037
-0.22722308 0.085184738 2.0950174
-0.23629853 0.032099441 2.1012292
-0.24442247 -0.018935528 2.1044595
-0.93084013 -0.11345306 8.3867302
-0.18598986 0.089864396 2.1593521
-0.19326469 0.03395329 2.1554754
-0.68315178 0.094420567 8.0087252
-0.69858849 -0.11786939 8.0261803
-0.14277181 0.095554769 2.222667
-0.14907733 0.036658682 2.2177181
-0.47888064 0.085114092 7.703629
-0.48665494 -0.12186176 7.7020297
-0.24673359 0.43583459 6.9503713
-0.27679092 0.26973113 7.4050837
-0.28747225 0.07672748 7.4057927
-0.2895236 -0.12398151 7.3881941
-0.094618574 0.43816185 6.9545665
-0.10781363 0.25686699 7.138597
-0.11273849 0.069094196 7.1252875
-0.10760301 -0.12680358 7.1166453
0.05578661 0.43005651 6.8165574
0.051547855 0.24567658 6.8923273
0.049634203 0.060892507 6.8790159
0.058526486 -0.12976721 6.8563933
0.19760497 0.42054096 6.6476731
0.19833146 0.23613456 6.6683307
0.20233881 0.055418707 6.6499805
0.21315281 -0.13115841 6.6223936
0.33296335 0.40848157 6.4548554
0.33838239 0.22736424 6.4584789
0.34309784 0.048933864 6.4241509
0.36011761 -0.13284653 6.406538
0.45942089 0.39736384 6.2672234
0.46760383 0.21847056 6.2578306
0.47759622 0.043768354 6.2374763
0.49629039 -0.13469413 6.2018862
0.57899594 0.38716263 6.0857377
0.59013003 0.21031246 6.0733261
0.60275918 0.038960733 6.0329766
0.62340862 -0.13645518 5.9944034
0.69287175 0.37669346 5.920361
0.70571768 0.203125 5.8919711
0.72133929 0.034780115 5.8506193
0.74400407 -0.13664366 5.8120809
0.79859912 0.36639768 5.7471361
0.81445628 0.19581798 5.7187438
0.83429891 0.031259052 5.6883855
0.85872775 -0.13793707 5.6368504
-0.02611593 -0.059798401 0.050936799
-0.02611593 -0.059798401 0.050936799
-0.02611593 -0.059798401 0.050936799
-0.02611593 -0.059798401 0.050936799
1.0000491 0.34990415 5.4529662
1.0217899 0.18342888 5.4175358
1.0434458 0.024060912 5.3762336
1.0739346 -0.13919395 5.3266931
0.25844258 0.041993059 1.388904
0.26737347 0.00087727979 1.3929943
0.2740466 -0.038978245 1.3831451
0.28374875 -0.080880366 1.3752029
1.1804657 0.33352223 5.1571918
1.2083974 0.17286155 5.130754
1.2349783 0.01856523 5.0844493
0.33182609 -0.082098208 1.4323
1.2671485 0.3263931 5.0343986
1.2905796 0.16723503 4.9810624
1.3180932 0.015007161 4.9307766
0.34856442 -0.081950672 1.3649664
1.3466642 0.31945193 4.902739
1.3731064 0.16328257 4.849401
1.4068704 0.012797661 4.8120341
0.37186733 -0.081367515 1.3275281
1.4285618 0.31414145 4.7910724
1.4581198 0.15885261 4.7436938
1.4874991 0.010761596 4.6854448
0.40796912 -0.082605079 1.3328315
1.5032883 0.30801904 4.6705213
1.5347601 0.15481314 4.6181431
1.5672817 0.0095842257 4.5668902
0.35548052 -0.079091266 1.0937967
1.5761464 0.30177721 4.5570059
-0.02611593 -0.059798401 0.050936799
-0.02611593 -0.059798401 0.050936799
0.46007943 -0.081945106 1.2848516
-0.02611593 -0.059798401 0.050936799
0.38793686 -0.0093989074 1.1044533
0.47414431 -0.040911876 1.2803289
1.7531451 -0.1377608 4.266643
0.48076877 0.041763052 1.2977062
0.49241441 -9.1983005e-05 1.2867273
1.7899847 0.0047696307 4.2305193
1.825087 -0.1370545 4.156271
1.7841122 0.28672871 4.2367315
1.8163906 0.14173493 4.172483
1.8527892 0.0036352053 4.1132827
1.8950703 -0.13537738 4.047955
1.8461446 0.28136337 4.1324382
1.8845272 0.13925716 4.0731282
1.9177804 0.00231269 4.0060062
1.961107 -0.13474 3.9426942
1.9103866 0.27679175 4.0391207
1.9487021 0.13675751 3.9758487
1.9839442 0.0018236265 3.9077251
2.0272183 -0.13417497 3.8414323
1.9715391 0.27332115 3.9408798
2.0078216 0.13433008 3.875664
2.048183 0.0012693778 3.8134804
2.0893719 -0.13263193 3.7422628
2.0297635 0.26878911 3.8466756
2.0752432 0.13258436 3.7913418
2.1155562 0.0015775785 3.7261951
2.1545808 -0.13115391 3.6460359
2.0900848 0.26515931 3.7574503
2.1314008 0.13013151 3.6932125
2.1747959 0.0010412782 3.6320441
2.21894 -0.12981704 3.5578256
2.1505601 0.26238456 3.6762404
2.1928461 0.12938903 3.6100204
2.234092 0.00045070797 3.5408924
2.2782252 -0.12838987 3.4657099
2.2058823 0.25877267 3.5871091
2.2491913 0.1267553 3.521888
2.2914298 0.00083096325 3.4517956
2.3334732 -0.12691215 3.3716707
2.2613208 0.25605208 3.5039937
2.3014281 0.1252443 3.4278507
2.3488197 0.00015712157 3.3656797
2.3980007 -0.12573807 3.2924569
2.3137002 0.2523967 3.4179177
2.3589306 0.12446192 3.3477328
2.4011207 0.00059151277 3.2746775
2.4472129 -0.12420265 3.1965306
2.3661392 0.2496869 3.3348589
2.4164889 0.12362529 3.2706137
2.4545341 0.00091377646 3.1896546
2.5056891 -0.12195294 3.1144488
2.4206755 0.2478793 3.2567782
2.4668949 0.12195866 3.1856112
2.5100219 0.0011565015 3.1085925
2.5601249 -0.12065253 3.0304248
2.4701488 0.24414423 3.1757572
2.5173421 0.1212557 3.1026258
2.569644 0.0022580773 3.034471
2.6125467 -0.11832701 2.9454563
2.5217047 0.24232933 3.0987329
2.5698638 0.12047316 3.0236015
2.6170585 0.0026018769 2.9495609
2.6640203 -0.11705202 2.8634877
2.5743158 0.24045651 3.0246892
2.6224232 0.11965446 2.9465766
2.6665101 0.0029023029 2.8666124
2.7226276 -0.11492893 2.7884035
2.6228867 0.23763445 2.9487028
2.6719646 0.11886463 2.8686085
2.7160215 0.0041483082 2.7866807
2.7670133 -0.11253853 2.7015865
2.6704245 0.23585193 2.8707542
2.7215471 0.11903846 2.7926574
2.7665706 0.0053545423 2.7087297
2.8165097 -0.11027461 2.6206729
2.7220964 0.23492827 2.7997458
2.7721629 0.11817268 2.7186692
2.8191564 0.0065174215 2.6327403
2.8680286 -0.10703613 2.54074
2.7696526 0.23312771 2.7227967
2.8105416 0.11858495 2.6319287
2.862613 0.0078392141 2.5499227
2.9714148 -0.1058307 2.5068147
2.8142095 0.23133792 2.6459041
2.8652542 0.11861418 2.5628812
2.9640217 0.01003357 2.5170524
3.0219152 -0.10257053 2.4259007
2.8578041 0.22951549 2.5710299
2.9575713 0.12093128 2.525182
3.010571 0.011254158 2.4391766
3.0755424 -0.1004476 2.3519101
2.9339325 0.23107107 2.5236166
3.0112503 0.12200013 2.4541724
3.0611761 0.012406129 2.3642244
3.1129141 -0.097014159 2.2642426
2.9998496 0.23086187 2.4653587
3.0598705 0.12214136 2.3802395
3.110729 0.014615785 2.2863104
3.1685448 -0.093898557 2.1902323
3.0525622 0.23089828 2.3963492
3.1094718 0.12229708 2.3052883
3.1572826 0.0168362 2.2084525
3.2271936 -0.090811834 2.1171656
3.1001976 0.23002519 2.3234167
3.1570587 0.12347789 2.2293928
3.2088914 0.0189844 2.1334999
3.2746949 -0.087540895 2.0363078
3.1397178 0.22828951 2.2446187
3.2077012 0.12459368 2.1564403
3.2625184 0.021107335 2.059509
4.7163544 -0.094071902 2.7504401
3.1985047 0.22823203 2.1794951
3.2573211 0.12473133 2.0824885
4.6823883 0.057611812 2.7768288
4.786293 -0.089341015 2.6391785
3.2390847 0.22743835 2.1036949
4.6705589 0.20205498 2.8116748
4.7706194 0.060988851 2.6812055
-0.02611593 -0.059798401 0.050936799
4.6608043 0.34641859 2.8504822
4.7456765 0.20458737 2.7102799
4.6971531 0.060587227 2.4975116
-0.02611593 -0.059798401 0.050936799
4.7197971 0.34511763 2.7433176
4.8197532 0.2061597 2.6068864
4.6208224 0.061069578 2.3208897
4.9970622 -0.073098026 2.302412
4.7949443 0.34561417 2.6438859
4.6039805 0.19249673 2.3575945
4.703054 0.06446813 2.2253788
5.0810437 -0.066453904 2.1929226
4.5892277 0.32282639 2.3992424
4.6791577 0.19597468 2.2592165
5.0484395 0.076847702 2.2401414
5.1347985 -0.061484713 2.0719655
4.6533918 0.32234454 2.3009992
5.0206528 0.21227747 2.2791245
5.1233778 0.081560649 2.1287858
13.581592 -0.045580592 5.0091019
4.790154 0.32904208 2.2325366
5.0886407 0.21496162 2.1708634
13.514569 0.31816998 5.1519852
13.782097 -0.029003769 4.7115464
4.8865304 0.3312459 2.1447423
5.1616082 0.21764585 2.0615089
13.758522 0.33114076 4.8785596
13.984534 -0.010362096 4.4099917
4.9868574 0.33548921 2.0539095
8.8424234 0.41370761 3.2555454
13.938871 0.34493464 4.573329
14.183875 0.0073809326 4.1034765
6.6185904 0.45747349 2.5327282
8.6538467 0.4027217 2.9627781
14.1172 0.35875371 4.2671366
14.390091 0.027225144 3.7898684
6.75633 0.46214125 2.4101923
8.7622814 0.40875611 2.770792
-0.02611593 -0.059798401 0.050936799
14.582127 0.048300311 3.4665444
6.8698077 0.46614853 2.2740941
8.6756334 0.40352011 2.5252364
-0.02611593 -0.059798401 0.050936799
14.489963 0.067585707 3.0824885
6.9510179 0.46752441 2.1245477
9.0676394 0.42503804 2.4112475
-0.02611593 -0.059798401 0.050936799
13.636163 0.077220559 2.5674739
7.0644355 0.47058609 1.9854324
9.1387882 0.42847714 2.2049077
-0.02611593 -0.059798401 0.050936799
12.940714 0.087970942 2.1225383
7.1877842 0.47568396 1.8421668
9.1747704 0.43120477 1.9902107
13.144868 0.37529987 2.339987
12.326166 0.097547829 1.7250826
7.2618456 0.47722965 1.6847546
9.2699442 0.43753913 1.7844735
12.583204 0.36672577 1.9392118
11.798362 0.10809217 1.3660337
7.2946925 0.47512221 1.5170448
9.3520651 0.44397438 1.5759817
12.055156 0.35843617 1.5708237
6.1615133 0.037183933 0.59102511
7.4238715 0.48036131 1.3646693
9.4411278 0.4504388 1.3643595
11.561671 0.3514815 1.2318223
6.0045199 0.043666556 0.43202791
7.5018048 0.48301908 1.2002025
9.3908281 0.44974712 1.1362114
6.1168141 0.1634783 0.53012592
6.0589199 0.053993084 0.29114842
7.6167994 0.48848939 1.0380936
9.4257631 0.4545323 0.91857004
5.9759254 0.16377786 0.37771752
6.0532479 0.062607661 0.1473617
7.6775975 0.48933512 0.86691248
6.0509953 0.2729052 0.46631604
6.009336 0.1711622 0.23817828
3.889328 0.025392344 0.020159777
6.1451769 0.37783834 0.56148309
6.0333133 0.27354607 0.32361034
3.6135762 0.082436144 0.078374192
3.1238699 0.013620296 -0.047744755
5.9752393 0.36424437 0.40936735
6.0426712 0.27605358 0.18243262
3.0899789 0.064868793 0.0018336116
3.2733757 0.022524131 -0.13041086
6.0707059 0.36933416 0.27262568
3.0689805 0.11316158 0.046115331
3.1216033 0.070088252 -0.072689325
3.4207363 0.032579698 -0.22101867
-0.02611593 -0.059798401 0.050936799
3.0786304 0.11442452 -0.026066961
2.8554518 0.062162537 -0.129869
3.3064127 0.035287477 -0.29085287
3.0476437 0.15571819 0.020275865
3.1242671 0.11857583 -0.099871323
2.742337 0.060650367 -0.18779817
3.1821995 0.036922794 -0.35451931
3.0893106 0.15784805 -0.05149005
2.7502377 0.098895043 -0.14724055
2.7790539 0.06576144 -0.25741675
1.9259508 0.0028340099 -0.24257764
3.120923 0.16006804 -0.12606704
2.7350421 0.10010298 -0.2109558
2.8676233 0.073830105 -0.33595568
3.01683 0.043840595 -0.48034066
2.7069743 0.13042396 -0.16686688
2.7717552 0.10421424 -0.28059238
2.3726275 0.053610358 -0.32705078
2.899863 0.04621546 -0.53112495
2.7477202 0.13348486 -0.23459734
1.9434031 0.056528665 -0.22892851
2.4134374 0.058616649 -0.39174622
2.6166439 0.040467475 -0.53892899
2.7754269 0.13562876 -0.30410084
2.3823166 0.084985241 -0.34967232
2.4452114 0.063691407 -0.45827186
2.8225222 0.054780915 -0.65656453
2.3561945 0.10631867 -0.30678281
2.4141388 0.088006094 -0.41323501
2.6074274 0.075837508 -0.55712277
2.8739676 0.063108996 -0.74140584
2.3890166 0.10933593 -0.37036431
2.4429097 0.092091776 -0.47972229
2.8372157 0.092154928 -0.68017161
2.5881233 0.057009991 -0.72916019
2.4148357 0.11137845 -0.43383229
2.789371 0.11631355 -0.62281936
2.7871196 0.093398049 -0.73823082
2.4745412 0.056994565 -0.75904405
2.4744887 0.11546143 -0.50690001
2.8557494 0.12264241 -0.71097755
2.5431066 0.084293514 -0.73482579
3.0636754 0.092578366 -1.0305226
2.8298254 0.14177719 -0.6571278
2.6126266 0.10962541 -0.71266162
2.7596204 0.10192877 -0.87260717
-0.02611593 -0.059798401 0.050936799
2.8294919 0.14205807 -0.72814047
2.4860644 0.10462131 -0.74039197
3.061348 0.12401441 -1.0539182
0.18336819 -0.049092151 -0.033820365
2.5515804 0.1239505 -0.71726114
3.0455046 0.1450406 -0.99622178
-0.02611593 -0.059798401 0.050936799
-0.02611593 -0.059798401 0.050936799
2.4270251 0.11592165 -0.7440834
3.0261226 0.1464438 -1.0698586
0.18335734 -0.0470744 -0.034783993
0.16333441 -0.048984192 -0.035443872
3.0052822 0.15845329 -1.0102308
-0.02611593 -0.059798401 0.050936799
-0.02611593 -0.059798401 0.050936799
-0.02611593 -0.059798401 0.050936799
-0.02611593 -0.059798401 0.050936799
0.17934327 -0.046042126 -0.035690468
0.16231981 -0.04796268 -0.036406729
0.1393536 -0.049915977 -0.034011267
0.19133021 -0.044067442 -0.036879584
-0.02611593 -0.059798401 0.050936799
-0.02611593 -0.059798401 0.050936799
-0.02611593 -0.059798401 0.050936799
-0.02611593 -0.059798401 0.050936799
0.15732464 -0.046944909 -0.036294758
0.14130493 -0.047869228 -0.037011795
0.11739507 -0.049873203 -0.031598549
0.16234638 -0.045981113 -0.035371028
-0.02611593 -0.059798401 0.050936799
-0.02611593 -0.059798401 0.050936799
-0.02611593 -0.059798401 0.050936799
-0.02611593 -0.059798401 0.050936799
0.13236274 -0.047891196 -0.033843696
0.12330429 -0.048804458 -0.036691584
0.10734074 -0.049783044 -0.03440962
0.14330848 -0.046876576 -0.037031356
-0.02611593 -0.059798401 0.050936799
-0.02611593 -0.059798401 0.050936799
-0.02611593 -0.059798401 0.050936799
-0.02611593 -0.059798401 0.050936799
0.11634301 -0.048815511 -0.034560718
0.10928813 -0.048736125 -0.037428178
0.094343111 -0.049736388 -0.034165345
0.11738027 -0.048855282 -0.032580189
-0.02611593 -0.059798401 0.050936799
-0.02611593 -0.059798401 0.050936799
-0.02611593 -0.059798401 0.050936799
-0.02611593 -0.059798401 0.050936799
0.098398559 -0.049805008 -0.031241529
0.097286403 -0.049692888 -0.037220709
0.086288407 -0.049653411 -0.037014015
0.11030273 -0.049757633 -0.036465328
-0.02611593 -0.059798401 0.050936799
-0.02611593 -0.059798401 0.050936799
-0.02611593 -0.059798401 0.050936799
-0.02611593 -0.059798401 0.050936799
0.091324933 -0.049707532 -0.035108641
0.086269684 -0.049635321 -0.038013674
0.073346958 -0.049661022 -0.033770744
0.097286403 -0.049692888 -0.037220709
-0.02611593 -0.059798401 0.050936799
-0.02611593 -0.059798401 0.050936799
-0.02611593 -0.059798401 0.050936799
-0.02611593 -0.059798401 0.050936799
0.078360833 -0.050696883 -0.032883063
0.075290427 -0.04961393 -0.036807317
0.062382489 -0.050657548 -0.031582747
0.087265588 -0.050638735 -0.03805048
-0.02611593 -0.059798401 0.050936799
-0.02611593 -0.059798401 0.050936799
-0.02611593 -0.059798401 0.050936799
-0.02611593 -0.059798401 0.050936799
0.066381752 -0.050671905 -0.031657912
0.065288335 -0.050577868 -0.036637429
0.05733116 -0.049585506 -0.034469761
0.073301651 -0.051624503 -0.035806112
-0.02611593 -0.059798401 0.050936799
-0.02611593 -0.059798401 0.050936799
-0.02611593 -0.059798401 0.050936799
-0.02611593 -0.059798401 0.050936799
0.061307777 -0.050581604 -0.035562608
0.060237002 -0.04950583 -0.039524443
0.048366319 -0.050589215 -0.032319348
-0.02611593 -0.059798401 0.050936799
-0.02611593 -0.059798401 0.050936799
-0.02611593 -0.059798401 0.050936799
-0.02611593 -0.059798401 0.050936799
-0.02611593 -0.059798401 0.050936799
0.050380751 -0.051614314 -0.031375278
0.051253445 -0.050491448 -0.038373683
0.043333724 -0.049535267 -0.034206692
0.055319745 -0.052577823 -0.034486234
-0.02611593 -0.059798401 0.050936799
-0.02611593 -0.059798401 0.050936799
-0.02611593 -0.059798401 0.050936799
-0.02611593 -0.059798401 0.050936799
0.046325322 -0.051545687 -0.034299102
0.045235816 -0.050451826 -0.039260603
0.03635373 -0.04952823 -0.033075493
0.044377923 -0.052592609 -0.031280551
-0.02611593 -0.059798401 0.050936799
-0.02611593 -0.059798401 0.050936799
-0.02611593 -0.059798401 0.050936799
-0.02611593 -0.059798401 0.050936799
0.035398297 -0.052578397 -0.030111779
0.03627491 -0.050455701 -0.037092164
0.032298289 -0.04945961 -0.035999324
0.041284855 -0.052491397 -0.036222491
-0.02611593 -0.059798401 0.050936799
-0.02611593 -0.059798401 0.050936799
-0.02611593 -0.059798401 0.050936799
-0.02611593 -0.059798401 0.050936799
0.030399211 -0.052560456 -0.030017827
0.032219473 -0.050387081 -0.040015988
0.026318114 -0.049456164 -0.034886923
0.033338569 -0.053516783 -0.033091195
-0.02611593 -0.059798401 0.050936799
-0.02611593 -0.059798401 0.050936799
-0.02611593 -0.059798401 0.050936799
-0.02611593 -0.059798401 0.050936799
-0.02611593 -0.059798401 0.050936799
0.028201483 -0.050354633 -0.040940486
0.022262676 -0.049387544 -0.037810735
0.0302455 -0.053415574 -0.038033135
-0.02611593 -0.059798401 0.050936799
-0.02611593 -0.059798401 0.050936799
-0.02611593 -0.059798401 0.050936799
-0.02611593 -0.059798401 0.050936799
-0.02611593 -0.059798401 0.050936799
0.021240206 -0.05036569 -0.038809631
-0.02611593 -0.059798401 0.050936799
0.023284227 -0.053426627 -0.03590228
-0.02611593 -0.059798401 0.050936799
-0.02611593 -0.059798401 0.050936799
-0.02611593 -0.059798401 0.050936799
-0.02611593 -0.059798401 0.050936799
-0.02611593 -0.059798401 0.050936799
0.017184775 -0.05029707 -0.041733447
-0.02611593 -0.059798401 0.050936799
-0.02611593 -0.059798401 0.050936799
-0.02611593 -0.059798401 0.050936799
-0.02611593 -0.059798401 0.050936799
-0.02611593 -0.059798401 0.050936799
-0.02611593 -0.059798401 0.050936799
-0.02611593 -0.059798401 0.050936799
-0.02611593 -0.059798401 0.050936799
-0.02611593 -0.059798401 0.050936799
-0.02611593 -0.059798401 0.050936799
-0.02611593 -0.059798401 0.050936799
-0.02611593 -0.059798401 0.050936799
-0.02611593 -0.059798401 0.050936799
-0.02611593 -0.059798401 0.050936799
-0.02611593 -0.059798401 0.050936799
-0.02611593 -0.059798401 0.050936799
-0.02611593 -0.059798401 0.050936799
-0.02611593 -0.059798401 0.050936799
-0.02611593 -0.059798401 0.050936799
-0.02611593 -0.059798401 0.050936799
-0.02611593 -0.059798401 0.050936799
-0.02611593 -0.059798401 0.050936799
-0.02611593 -0.059798401 0.050936799
-0.02611593 -0.059798401 0.050936799
-0.02611593 -0.059798401 0.050936799
-0.02611593 -0.059798401 0.050936799
-0.02611593 -0.059798401 0.050936799
-0.02611593 -0.059798401 0.050936799
-0.02611593 -0.059798401 0.050936799
-0.02611593 -0.059798401 0.050936799
-0.02611593 -0.059798401 0.050936799
-0.02611593 -0.059798401 0.050936799
-0.02611593 -0.059798401 0.050936799
-0.02611593 -0.059798401 0.050936799
-0.02611593 -0.059798401 0.050936799
-0.02611593 -0.059798401 0.050936799
-0.02611593 -0.059798401 0.050936799
-0.02611593 -0.059798401 0.050936799
-0.02611593 -0.059798401 0.050936799
-0.02611593 -0.059798401 0.050936799
-0.02611593 -0.059798401 0.050936799
-0.02611593 -0.059798401 0.050936799
-0.02611593 -0.059798401 0.050936799
-0.02611593 -0.059798401 0.050936799
-0.02611593 -0.059798401 0.050936799
-0.02611593 -0.059798401 0.050936799
-0.02611593 -0.059798401 0.050936799
-0.02611593 -0.059798401 0.050936799
-0.02611593 -0.059798401 0.050936799
-0.02611593 -0.059798401 0.050936799
-0.02611593 -0.059798401 0.050936799
-0.02611593 -0.059798401 0.050936799
-0.02611593 -0.059798401 0.050936799
-0.02611593 -0.059798401 0.050936799
-0.02611593 -0.059798401 0.050936799
-0.02611593 -0.059798401 0.050936799
-0.02611593 -0.059798401 0.050936799
-0.02611593 -0.059798401 0.050936799
-0.02611593 -0.059798401 0.050936799
-0.02611593 -0.059798401 0.050936799
-0.02611593 -0.059798401 0.050936799
-0.02611593 -0.059798401 0.050936799
-0.02611593 -0.059798401 0.050936799
-0.02611593 -0.059798401 0.050936799
-0.02611593 -0.059798401 0.050936799
-0.02611593 -0.059798401 0.050936799
-0.02611593 -0.059798401 0.050936799
-0.02611593 -0.059798401 0.050936799
-0.02611593 -0.059798401 0.050936799
-0.02611593 -0.059798401 0.050936799
-0.02611593 -0.059798401 0.050936799
-0.02611593 -0.059798401 0.050936799
-0.02611593 -0.059798401 0.050936799
-0.02611593 -0.059798401 0.050936799
-0.02611593 -0.059798401 0.050936799
-0.02611593 -0.059798401 0.050936799
-0.02611593 -0.059798401 0.050936799
-0.02611593 -0.059798401 0.050936799
-0.02611593 -0.059798401 0.050936799
-0.02611593 -0.059798401 0.050936799
-0.02611593 -0.059798401 0.050936799
-0.02611593 -0.059798401 0.050936799
-0.02611593 -0.059798401 0.050936799
-0.02611593 -0.059798401 0.050936799
-0.02611593 -0.059798401 0.050936799
-0.02611593 -0.059798401 0.050936799
-0.02611593 -0.059798401 0.050936799
-0.02611593 -0.059798401 0.050936799
-0.02611593 -0.059798401 0.050936799
-0.02611593 -0.059798401 0.050936799
-0.02611593 -0.059798401 0.050936799
-0.02611593 -0.059798401 0.050936799
-0.02611593 -0.059798401 0.050936799
-0.02611593 -0.059798401 0.050936799
-0.02611593 -0.059798401 0.050936799
-0.02611593 -0.059798401 0.050936799
-0.02611593 -0.059798401 0.050936799
-0.02611593 -0.059798401 0.050936799
-0.02611593 -0.059798401 0.050936799
-0.02611593 -0.059798401 0.050936799
-0.02611593 -0.059798401 0.050936799
-0.02611593 -0.059798401 0.050936799
-0.02611593 -0.059798401 0.050936799
-0.02611593 -0.059798401 0.050936799
-0.02611593 -0.059798401 0.050936799
-0.02611593 -0.059798401 0.050936799
-0.02611593 -0.059798401 0.050936799
-0.02611593 -0.059798401 0.050936799
-0.02611593 -0.059798401 0.050936799
-0.02611593 -0.059798401 0.050936799
-0.02611593 -0.059798401 0.050936799
-0.02611593 -0.059798401 0.050936799
-0.02611593 -0.059798401 0.050936799
-0.02611593 -0.059798401 0.050936799
-0.02611593 -0.059798401 0.050936799
-0.02611593 -0.059798401 0.050936799
-0.02611593 -0.059798401 0.050936799
-0.02611593 -0.059798401 0.050936799
-0.02611593 -0.059798401 0.050936799
-0.02611593 -0.059798401 0.050936799
-0.02611593 -0.059798401 0.050936799
-0.02611593 -0.059798401 0.050936799
-0.02611593 -0.059798401 0.050936799
-0.02611593 -0.059798401 0.050936799
-0.02611593 -0.059798401 0.050936799
-0.02611593 -0.059798401 0.050936799
-0.02611593 -0.059798401 0.050936799
-0.02611593 -0.059798401 0.050936799
-0.02611593 -0.059798401 0.050936799
-0.02611593 -0.059798401 0.050936799
-0.02611593 -0.059798401 0.050936799
-0.02611593 -0.059798401 0.050936799
-0.02611593 -0.059798401 0.050936799
-0.02611593 -0.059798401 0.050936799
-0.02611593 -0.059798401 0.050936799
-0.02611593 -0.059798401 0.050936799
-0.02611593 -0.059798401 0.050936799
-0.02611593 -0.059798401 0.050936799
-0.02611593 -0.059798401 0.050936799
-0.02611593 -0.059798401 0.050936799
-0.02611593 -0.059798401 0.050936799
-0.02611593 -0.059798401 0.050936799
-0.02611593 -0.059798401 0.050936799
-0.06278488 -0.046010636 -0.040158127
-0.02611593 -0.059798401 0.050936799
-0.02611593 -0.059798401 0.050936799
-0.02611593 -0.059798401 0.050936799
-0.02611593 -0.059798401 0.050936799
-0.02611593 -0.059798401 0.050936799
-0.02611593 -0.059798401 0.050936799
-0.02611593 -0.059798401 0.050936799
-0.066746697 -0.046032459 -0.038083646
-0.02611593 -0.059798401 0.050936799
-0.02611593 -0.059798401 0.050936799
-0.02611593 -0.059798401 0.050936799
-0.02611593 -0.059798401 0.050936799
-0.02611593 -0.059798401 0.050936799
-0.02611593 -0.059798401 0.050936799
-0.02611593 -0.059798401 0.050936799
-0.070727251 -0.046036191 -0.037008826
-0.02611593 -0.059798401 0.050936799
-0.073731534 -0.052042495 -0.036060899
-0.02611593 -0.059798401 0.050936799
-0.02611593 -0.059798401 0.050936799
-0.02611593 -0.059798401 0.050936799
-0.02611593 -0.059798401 0.050936799
-0.02611593 -0.059798401 0.050936799
-0.076740943 -0.044996742 -0.037877727
-0.074658558 -0.043076616 -0.033880625
-0.078707971 -0.051042806 -0.034949269
-0.02611593 -0.059798401 0.050936799
-0.02611593 -0.059798401 0.050936799
-0.02611593 -0.059798401 0.050936799
-0.02611593 -0.059798401 0.050936799
-0.079639845 -0.048093997 -0.031877436
-0.080702767 -0.045018565 -0.035803236
-0.079653718 -0.04205884 -0.033768654
-0.082669802 -0.051064629 -0.032874785
-0.02611593 -0.059798401 0.050936799
-0.02611593 -0.059798401 0.050936799
-0.02611593 -0.059798401 0.050936799
-0.02611593 -0.059798401 0.050936799
-0.084620208 -0.048094142 -0.030783817
-0.087734997 -0.043957431 -0.03765301
-0.082597002 -0.042102337 -0.030713286
-0.091724321 -0.050978065 -0.03570465
-0.02611593 -0.059798401 0.050936799
-0.02611593 -0.059798401 0.050936799
-0.02611593 -0.059798401 0.050936799
-0.02611593 -0.059798401 0.050936799
-0.087582208 -0.048119552 -0.028728127
-0.091678105 -0.043997344 -0.034578864
-0.089647964 -0.04102312 -0.033562727
-0.098719105 -0.049953111 -0.035555102
-0.02611593 -0.059798401 0.050936799
-0.02611593 -0.059798401 0.050936799
-0.02611593 -0.059798401 0.050936799
-0.02611593 -0.059798401 0.050936799
-0.09355846 -0.04711628 -0.027597707
-0.097658277 -0.043993901 -0.033466462
-0.095624223 -0.040019844 -0.03243231
-0.10266222 -0.049993023 -0.032480959
-0.02611593 -0.059798401 0.050936799
-0.02611593 -0.059798401 0.050936799
-0.02611593 -0.059798401 0.050936799
-0.02611593 -0.059798401 0.050936799
-0.10362759 -0.046008199 -0.031390425
-0.1046718 -0.042950857 -0.034316566
-0.10058586 -0.040038075 -0.030339025
-0.10660531 -0.050032932 -0.029406812
-0.02611593 -0.059798401 0.050936799
-0.02611593 -0.059798401 0.050936799
-0.02611593 -0.059798401 0.050936799
-0.02611593 -0.059798401 0.050936799
-0.10857052 -0.046044525 -0.028297488
-0.1126664 -0.041922316 -0.034148224
-0.10859919 -0.038991451 -0.031170346
-0.11561847 -0.048982717 -0.030219331
-0.02611593 -0.059798401 0.050936799
-0.02611593 -0.059798401 0.050936799
-0.02611593 -0.059798401 0.050936799
-0.02611593 -0.059798401 0.050936799
-0.11962074 -0.044950955 -0.031071763
-0.11658686 -0.040980484 -0.030056391
-0.11661252 -0.03794482 -0.03200167
-0.12764978 -0.047903642 -0.031975158
-0.02611593 -0.059798401 0.050936799
-0.02611593 -0.059798401 0.050936799
-0.02611593 -0.059798401 0.050936799
-0.02611593 -0.059798401 0.050936799
-0.12759663 -0.043940499 -0.029903751
-0.13270712 -0.038796782 -0.036717344
-0.12460321 -0.035916451 -0.031815305
-0.13458841 -0.046932954 -0.02882662
-0.02611593 -0.059798401 0.050936799
-0.02611593 -0.059798401 0.050936799
-0.02611593 -0.059798401 0.050936799
-0.02611593 -0.059798401 0.050936799
-0.13657232 -0.042926457 -0.028716967
-0.14066429 -0.037804421 -0.034549676
-0.13056466 -0.035931095 -0.02970323
-0.14456393 -0.045915324 -0.027621027
-0.02611593 -0.059798401 0.050936799
-0.02611593 -0.059798401 0.050936799
-0.02611593 -0.059798401 0.050936799
-0.02611593 -0.059798401 0.050936799
-0.14554803 -0.041912418 -0.027530164
-0.14860274 -0.036830146 -0.031382352
-0.14155479 -0.033891954 -0.029460497
-0.1565578 -0.044872429 -0.027377527
-0.02611593 -0.059798401 0.050936799
-0.02611593 -0.059798401 0.050936799
-0.02611593 -0.059798401 0.050936799
-0.02611593 -0.059798401 0.050936799
-0.15652336 -0.040891193 -0.026305791
-0.15654117 -0.035855871 -0.028215025
-0.15154904 -0.032856233 -0.029254574
-0.17558393 -0.0427684 -0.028983787
-0.02611593 -0.059798401 0.050936799
-0.02611593 -0.059798401 0.050936799
-0.02611593 -0.059798401 0.050936799
-0.02611593 -0.059798401 0.050936799
-0.17454574 -0.037790928 -0.027912833
-0.17560081 -0.032715835 -0.031802595
-0.16352026 -0.030831598 -0.027993396
-0.19257297 -0.040707726 -0.028628308
-0.02611593 -0.059798401 0.050936799
-0.02611593 -0.059798401 0.050936799
-0.02611593 -0.059798401 0.050936799
-0.02611593 -0.059798401 0.050936799
-0.19657131 -0.035676137 -0.029462721
-0.19159003 -0.030658752 -0.031465907
-0.1805428 -0.027734919 -0.029619224
-0.21959367 -0.037575163 -0.030066244
-0.02611593 -0.059798401 0.050936799
-0.02611593 -0.059798401 0.050936799
-0.02611593 -0.059798401 0.050936799
-0.02611593 -0.059798401 0.050936799
-0.22358808 -0.031543735 -0.03088263
-0.21459277 -0.027558628 -0.03197933
-0.19751312 -0.025692336 -0.028264079
-0.24658088 -0.035478603 -0.029522859
-0.02611593 -0.059798401 0.050936799
-0.02611593 -0.059798401 0.050936799
-0.02611593 -0.059798401 0.050936799
-0.02611593 -0.059798401 0.050936799
-0.24655339 -0.028479792 -0.029396735
-0.23857658 -0.024473004 -0.031474303
-0.22656307 -0.020516751 -0.031627711
-0.9563697 0.046112463 -0.23982909
-0.02611593 -0.059798401 0.050936799
-0.02611593 -0.059798401 0.050936799
-0.02611593 -0.059798401 0.050936799
-0.96998483 0.047800578 -0.21953675
-0.95425314 0.071082935 -0.23841654
-0.27356532 -0.018330321 -0.031708181
-0.24749126 -0.017496163 -0.02818007
-0.98260015 0.049485121 -0.19926324
-0.96788698 0.072789147 -0.21912387
-0.02611593 -0.059798401 0.050936799
-0.02611593 -0.059798401 0.050936799
-0.9901641 0.050097607 -0.17610267
-0.98050237 0.074473679 -0.19885036
-0.96879649 0.095788822 -0.21869066
-0.95205808 0.11605001 -0.23664363
-1.005775 0.052792735 -0.15575475
-0.99212182 0.075154811 -0.17861362
-0.97941613 0.096466355 -0.19847277
-0.97374272 0.11883904 -0.2201816
-1.0173718 0.054455597 -0.13450035
-1.0037185 0.076817654 -0.15735923
-0.99906367 0.099212013 -0.18004897
-0.97934848 0.1184807 -0.19907598
-1.0369819 0.057165079 -0.11407727
-1.0203332 0.078516543 -0.13701053
-1.0026511 0.098828413 -0.15798128
-0.99600047 0.12021577 -0.1807266
-1.0365138 0.056712855 -0.089085728
-1.0319299 0.080179401 -0.11575611
-1.0122521 0.09948425 -0.13678247
-1.006624 0.11989347 -0.16052669
-1.0490878 0.059361041 -0.066794865
-1.0394899 0.081791729 -0.092577547
-1.0228491 0.10114354 -0.11554683
-1.012207 0.12051687 -0.13840339
-1.0706561 0.063041367 -0.044316843
-1.0570856 0.083476119 -0.071210392
-1.0374453 0.10281716 -0.094236061
-1.026826 0.12120875 -0.11811029
-1.0882103 0.0656894 -0.020932354
-1.0706594 0.086127885 -0.048900731
-1.0520415 0.10449079 -0.072925277
-1.0354085 0.12184292 -0.095930606
-1.1037464 0.068312183 0.0034142062
-1.0922318 0.08880838 -0.02644074
-1.0756321 0.10719653 -0.051427372
-1.0429951 0.12147367 -0.073787749
-1.1102879 0.069902822 0.027573653
-1.1067678 0.091427565 -0.0021129549
-1.0932052 0.10986266 -0.029042549
-1.0676191 0.12521903 -0.054252356
-1.1377989 0.073550396 0.053163387
-1.1183084 0.093036152 0.022140432
-1.0967513 0.11044272 -0.0049574971
-1.0811781 0.12685287 -0.030961037
-1.1443177 0.076122798 0.078340501
-1.1388209 0.09665861 0.047598634
-1.1242998 0.11412647 0.018632922
-1.0907418 0.12747255 -0.0077629089
-1.1518216 0.077680849 0.10451805
-1.1513425 0.098252714 0.072870478
-1.1278269 0.11468843 0.04371763
-1.1043044 0.12810658 0.01551038
-1.1662978 0.081245586 0.13186283
-1.1498708 0.098796718 0.09786123
-1.1403486 0.11628252 0.068989471
-1.1238399 0.13074371 0.039932113
-1.1857541 0.084810197 0.16030124
-1.1693457 0.1023794 0.12529996
-1.1508896 0.11788751 0.093224064
-1.1283857 0.13132735 0.064035952
-1.1952164 0.087339073 0.18853369
-1.1838257 0.10494433 0.15262672
-1.1703686 0.12047039 0.12064479
-1.1489205 0.13396807 0.088476472
-1.2056595 0.089853466 0.21778461
-1.1933066 0.10749131 0.17985955
-1.1838673 0.12304981 0.14695309
-1.1564283 0.13452628 0.114636
-1.2360312 0.095384859 0.25046438
-1.2047497 0.11000928 0.20912924
-1.1853575 0.12356839 0.17399955
-0.02611593 -0.059798401 0.050936799
-0.02611593 -0.059798401 0.050936799
-1.2112163 0.11152758 0.23728733
-1.2127899 0.12814346 0.20360595
-1.1913912 0.13867782 0.16938427
-0.02611593 -0.059798401 0.050936799
-1.2465458 0.11804055 0.27207839
-1.2172421 0.12863666 0.2327081
-0.02611593 -0.059798401 0.050936799
-0.02611593 -0.059798401 0.050936799
-0.02611593 -0.059798401 0.050936799
-1.2416373 0.13316478 0.26425743
-1.2202988 0.14275359 0.22701874
-1.3054495 0.113234 0.38513261
-1.3031774 0.12898043 0.34336072
-0.02611593 -0.059798401 0.050936799
-0.02611593 -0.059798401 0.050936799
-0.02611593 -0.059798401 0.050936799
-1.2986312 0.12944134 0.37229377
-1.2913345 0.14213414 0.33237326
-1.2780318 0.15178783 0.29328555
-3.0991905 0.36712581 1.0065194
-0.02611593 -0.059798401 0.050936799
-1.2738398 0.13958506 0.35900858
-1.2764703 0.15124157 0.32325661
-3.1165936 0.37569091 1.0900286
-3.1174564 0.4085995 0.98460424
-1.3578106 0.15396501 0.41185877
-0.02611593 -0.059798401 0.050936799
-3.1806197 0.39209771 1.1925589
-3.0931423 0.40925038 1.0541844
-3.1395624 0.44290787 0.97263467
-0.02611593 -0.059798401 0.050936799
-3.2445524 0.4084141 1.3000873
-3.1562366 0.42270836 1.1536428
-3.0854495 0.43661499 1.032528
-1.3642527 0.16649953 0.43921539
-3.323302 0.42762098 1.4169488
-3.2331066 0.44001698 1.2644328
-3.1435864 0.4490914 1.1298753
-3.0896807 0.45893314 1.0160054
-3.3950005 0.44574863 1.5366598
-3.2940252 0.45530465 1.3728865
-3.2115862 0.46247697 1.2344259
-3.1309526 0.4664579 1.106945
-3.474499 0.46672365 1.6665716
-3.3855815 0.47537714 1.500007
-3.2755079 0.47677553 1.3429182
-3.1969795 0.47785467 1.2104225
-4.4224572 0.62426084 2.2333615
-3.4591858 0.49342147 1.6247536
-3.3591521 0.49389216 1.4658355
-3.2639084 0.49016437 1.318935
-4.3369145 0.62345785 2.3147733
-3.5177975 0.51041222 1.7492006
-3.437737 0.51193643 1.5916758
-3.3366787 0.5043506 1.4355936
-4.2345929 0.6197933 2.384815
-4.140625 0.62131292 2.1690102
-3.5142329 0.52888322 1.7224588
-3.4182749 0.51940608 1.5614363
-3.4550598 0.50465429 2.0550256
-4.0681062 0.61857504 2.24963
-4.0609112 0.62726957 2.0986013
-3.4947746 0.53535312 1.6922015
-4.0321355 0.61265218 2.5149393
-3.4764378 0.52717823 2.0308251
-4.011198 0.62543309 2.1896687
-4.0118237 0.62695855 2.0496602
-3.6169262 0.55656761 2.3731031
-3.937999 0.61609817 2.4142051
-3.4946976 0.54154795 2.0144212
-3.9868994 0.62501281 2.1521931
-3.8249609 0.60576457 2.6299746
-3.8221006 0.60576445 2.4628649
-3.8910751 0.61695695 2.3563223
-3.892724 0.61248702 2.2162249
-2.634007 0.40704709 1.908838
-3.1307499 0.49313998 2.1237683
-3.8304796 0.61418974 2.4411666
-3.9152274 0.6202054 2.3478305
-3.233582 0.52773583 2.4464288
-3.6940784 0.60538489 2.622515
-3.1410282 0.49846447 2.108052
-3.8684647 0.61632574 2.4419167
-2.7901218 0.45817414 2.213789
-2.5963457 0.41429788 1.9422754
-3.7014813 0.60780764 2.6006901
-3.3200729 0.52435482 2.2089067
-3.4299934 0.594437 2.8394461
-2.8064775 0.46259272 2.1941688
-2.6105263 0.41552886 1.9325598
-3.769974 0.60958457 2.6280138
-3.3183403 0.5883702 2.8742578
-3.4523933 0.59691364 2.817903
-2.8482296 0.46652567 2.2070258
-2.6128087 0.40577289 1.9194217
-1.9270464 0.32400936 1.756048
-3.3761752 0.59445071 2.8824532
-4.0447106 0.70018327 3.2660127
-2.9845805 0.47849914 2.2938247
-1.8607708 0.3204836 1.7707483
-2.3315535 0.39957374 2.0911019
-3.9522831 0.69444638 3.3422043
-3.9722514 0.66526234 3.1899989
-1.819059 0.32164869 1.8080009
-1.8739526 0.31669372 1.7619236
-2.3397143 0.39173046 2.0841103
-3.9467418 0.668773 3.3226295
-1.9743773 0.36790919 2.0498278
-1.8223667 0.31493196 1.7929363
-1.8771558 0.30786881 1.7528208
-2.3547106 0.3777324 2.0871389
-2.1509752 0.4195784 2.3291636
-1.934628 0.34788719 1.9866999
-1.8275174 0.30506015 1.7868522
-1.8861717 0.29386732 1.7547369
-2.7519066 0.57394081 3.1074705
-2.1181579 0.39750946 2.2701299
-1.9250858 0.33223388 1.9652311
-1.8306587 0.28814617 1.7826035
-2.6651695 0.57390851 3.1458592
-3.3438849 0.68503571 3.7317753
-2.0978661 0.37603474 2.2363501
-1.9203604 0.31040061 1.9547439
-2.5726326 0.57103598 3.1740842
-3.2467461 0.68256986 3.7919323
-3.3071203 0.6449374 3.6733418
-2.1029367 0.35303855 2.2370291
-2.4850156 0.56910884 3.2064199
-3.1614013 0.6839655 3.8623834
-3.2510619 0.64977074 3.7814162
-3.2760074 0.59750003 3.6348882
-2.3944519 0.56822509 3.2357183
-2.5909405 0.56650686 3.3183939
-3.1411691 0.64247608 3.8292432
-3.2111242 0.59644669 3.7346883
-2.2991214 0.56554085 3.2528908
-2.9662502 0.68015653 3.9756994
-3.0401735 0.63712305 3.8822732
-3.1130044 0.58897811 3.7947364
-2.2077339 0.56281662 3.2731371
-2.8828411 0.68350476 4.0492234
-2.9626255 0.63734853 3.9638534
-3.0256505 0.58333158 3.8670232
-2.1193419 0.56110305 3.2934582
-2.7858102 0.68214726 4.1034002
-2.8548448 0.63016957 4.0057197
-2.9402735 0.57867396 3.9403653
-2.0310144 0.55744392 3.310744
-2.6898167 0.68082952 4.1555972
-2.7588029 0.62679797 4.0608788
-2.853874 0.57499444 4.0147061
-1.9495007 0.55764663 3.3372304
-2.6005852 0.68231928 4.219975
-2.6792369 0.62699813 4.1434207
-2.7528861 0.56764168 4.0677004
-1.8583008 0.5551033 3.3474805
-2.0746992 0.55345577 3.541568
-2.5811913 0.62461913 4.1985607
-2.6654079 0.56488609 4.1460395
-1.7777457 0.55627322 3.376003
-1.9860977 0.55254298 3.5729034
-2.4869914 0.62310958 4.2617917
-2.57022 0.56037343 4.209197
-1.6896014 0.55379486 3.3833106
-1.9033823 0.55154324 3.6103494
-2.2749281 0.58800334 4.1101346
-2.4711115 0.554919 4.2682629
-1.6072793 0.55317497 3.3997636
-1.8033265 0.54609472 3.6133785
-2.297704 0.62019539 4.382236
-2.3798065 0.55131203 4.3375115
-1.5269194 0.55252612 3.4182534
-1.722607 0.54610199 3.6508799
