# .PCD v0.7 - Point Cloud Data file format
VERSION 0.7
FIELDS x y z
SIZE 4 4 4
TYPE F F F
COUNT 1 1 1
WIDTH 1414
HEIGHT 1
VIEWPOINT 0 0 0 1 0 0 0
POINTS 1414
DATA ascii
1.4283423 0.49363118 4.2661452
1.5669006 0.40245223 4.5780072
1.0757428 0.52578264 3.1139379
1.2582464 0.50687504 3.5683329
1.5393752 0.49719596 4.2661304
-0.02611593 -0.059798401 0.050936799
-0.02611593 -0.059798401 0.050936799
-0.02611593 -0.059798401 0.050936799
-0.02611593 -0.059798401 0.050936799
0.47770295 0.067932181 1.2892342
0.39082482 0.13923445 1.0700763
0.49624938 0.14561918 1.303297
0.50194931 0.10774882 1.2945023
1.7932246 0.3779161 4.2252069
0.51838768 0.18655133 1.3026227
-0.02611593 -0.059798401 0.050936799
1.8156085 0.49380034 4.1168475
1.8621355 0.37063453 4.1147475
1.3336769 0.527803 3.001107
1.5584271 0.50544733 3.4156351
1.8930726 0.48896497 4.0352817
1.9321811 0.36422262 4.0112848
1.391872 0.52635133 2.9579763
1.6326644 0.50590169 3.3742394
1.9591939 0.48249501 3.9358931
1.9971715 0.35788286 3.904917
1.4542841 0.52768582 2.9258211
1.7111149 0.50814235 3.3438005
2.0244503 0.47690183 3.8435385
2.0602412 0.35247773 3.802604
1.516692 0.5280205 2.8936479
1.7802329 0.50672358 3.2964649
2.0877075 0.47131586 3.7512219
2.1213338 0.34806156 3.7013457
1.5728915 0.52757585 2.8505731
1.8565902 0.50906193 3.2610657
2.1490018 0.46570086 3.6609423
2.189729 0.34433067 3.6159689
1.6363407 0.52887052 2.8203983
1.9422196 0.5141142 3.2395465
2.2103567 0.46103144 3.5736792
2.2489564 0.34079489 3.5217643
1.6925586 0.52840781 2.7783232
2.0329607 0.51904005 3.2239316
2.2676599 0.45743048 3.4835107
2.3082635 0.33818656 3.4315758
1.7487392 0.52798128 2.7342486
2.0896649 0.51706237 3.1548107
2.3270752 0.45371383 3.3993025
2.3686452 0.33550227 3.3453679
1.8069983 0.52847499 2.6941531
2.1608093 0.517618 3.1084728
2.380394 0.44910932 3.3101909
2.4260275 0.33282882 3.2592158
1.8622204 0.52901566 2.6521149
2.2339985 0.52012998 3.0641329
2.4368699 0.44634894 3.2290559
2.4803202 0.33125633 3.1681399
1.924595 0.53038633 2.6179602
2.2856436 0.51722473 2.9920893
2.4923644 0.4435741 3.1489398
2.5337067 0.32959703 3.0820816
1.9746642 0.5300898 2.5680003
2.3536949 0.51788157 2.9408097
2.5458076 0.44186047 3.0658798
2.5881495 0.32787991 2.9990027
2.0349643 0.53153998 2.5298848
2.4125566 0.51775175 2.8796842
2.5962658 0.43913975 2.9838581
2.6467304 0.32802135 2.9228828
2.0891304 0.53213853 2.4848661
2.470381 0.51766169 2.8165789
2.6508434 0.43829581 2.9077954
2.701237 0.32824963 2.8428392
2.1361442 0.53190714 2.4319639
2.535418 0.51934719 2.764374
2.7033839 0.43749526 2.8297706
2.7526696 0.32856098 2.7588534
2.1923511 0.53346211 2.3889251
2.5912056 0.51930052 2.6993067
2.7529066 0.4367235 2.7508028
2.8052142 0.32876018 2.6808467
2.2454617 0.53411847 2.3409264
2.6398783 0.51838762 2.6283545
2.7993882 0.43499881 2.6698737
2.8475695 0.32817638 2.5930135
2.2934937 0.53386533 2.2890048
2.7048776 0.5201093 2.5741506
2.8550484 0.43607858 2.597827
2.9052329 0.3302488 2.5209467
2.3496859 0.53643823 2.2449844
2.7617249 0.5210045 2.5120814
2.9005904 0.43530315 2.5199337
3.003531 0.33757967 2.4812257
2.4058557 0.53802943 2.1999464
2.8114424 0.52205157 2.443146
3.0385904 0.45084122 2.5156298
3.0499868 0.3388907 2.3983517
2.4467542 0.53692818 2.1411407
2.848978 0.51930517 2.3653674
3.3765082 0.49995282 2.6582398
3.1035581 0.34106788 2.321362
2.4988351 0.53962398 2.0911975
2.8895957 0.51847529 2.2915666
3.4228063 0.49940884 2.5673323
3.1561329 0.34424853 2.2444088
2.5377152 0.53854805 2.0314298
2.9443913 0.52043176 2.2265542
3.4732053 0.50075978 2.4813838
3.2066898 0.34745443 2.1664939
2.5796361 0.53842497 1.9736232
3.0053058 0.52425796 2.1674628
3.5215487 0.50217223 2.3924744
3.2552094 0.35070369 2.086617
2.632694 0.54013544 1.9226433
3.0550418 0.52528691 2.0995274
3.2904215 0.45980316 2.1299462
4.3661342 0.48554644 2.6314414
2.6817193 0.54289633 1.8697575
3.1118634 0.52921784 2.0355129
3.6810539 0.51501286 2.2556736
4.4271536 0.49123698 2.5243657
2.732744 0.54564995 1.8168341
3.1454074 0.52848542 1.9578452
3.7263827 0.51745397 2.165839
4.5023241 0.49773252 2.4250422
2.7736092 0.54558474 1.7560472
3.1768959 0.52781451 1.8772161
3.7524786 0.51718086 2.0643108
4.5310159 0.49984619 2.3015013
2.8033597 0.54466766 1.689451
3.2225807 0.52991182 1.8063747
3.8069074 0.5214988 1.979341
4.5940766 0.50649345 2.1964052
2.8553507 0.54845375 1.6345274
3.2652471 0.53203809 1.7345901
3.8128643 0.51842457 1.8711373
4.673254 0.51497424 2.0970426
2.8952203 0.54939193 1.5737773
3.3018363 0.53325832 1.6589015
3.8592198 0.5228436 1.7823192
4.7130823 0.51892155 1.9803287
2.9380925 0.55131918 1.5129889
3.3414471 0.53544962 1.5841742
3.8995349 0.52632058 1.6915964
4.5886264 0.50465101 1.8003398
2.9688473 0.5513984 1.4463921
3.3770022 0.53770959 1.506523
3.907589 0.52414852 1.5883714
4.6295748 0.51048577 1.6896411
3.009701 0.55335093 1.3846415
3.4105542 0.53897679 1.4288914
3.9096103 0.52303404 1.4832778
4.621191 0.51080495 1.5627608
3.048481 0.55538303 1.3189299
3.4451103 0.54124033 1.3512591
3.9257722 0.52474219 1.3849727
4.63096 0.51291454 1.4435757
3.0802393 0.55645847 1.2523322
3.4947872 0.54634088 1.2793968
3.9641106 0.529208 1.2953053
4.6457777 0.51796943 1.32635
3.1190376 0.55847245 1.1876203
3.5182474 0.5477345 1.196955
3.9923677 0.53178245 1.2017913
4.6435275 0.51914024 1.2063725
3.1537805 0.56055504 1.1199845
3.535686 0.54816782 1.1136081
4.0065527 0.5344795 1.1045415
4.6624236 0.52510822 1.0930884
3.1804607 0.56072098 1.0494641
3.5641868 0.55050713 1.0330894
4.0408206 0.54003191 1.0109686
4.6592188 0.52824628 0.97516519
3.2121668 0.56285053 0.9798854
3.5806065 0.55096215 0.9487617
4.0419626 0.54081219 0.91192776
4.6379528 0.52950329 0.85454518
3.2438726 0.56498003 0.91030669
3.6090925 0.55431938 0.86726141
4.0390863 0.54162478 0.81196237
4.648869 0.53548193 0.74241096
3.2554395 0.56430852 0.83405221
3.6406007 0.55864757 0.78672248
4.0542941 0.54530001 0.71571153
4.6256824 0.53767377 0.62584519
3.2921488 0.56741989 0.76439756
3.6469848 0.55917472 0.70058334
4.0564771 0.54704028 0.61866927
4.6325994 0.54366678 0.51378608
3.3187995 0.56962162 0.69191378
3.6674311 0.56159699 0.61721611
4.0797281 0.55265027 0.52430338
4.6265154 0.54870659 0.40195328
3.334388 0.56991744 0.61660182
3.6888618 0.56503356 0.53284842
4.1049833 0.55925286 0.42991799
4.5723557 0.54697412 0.28789732
3.3610055 0.57315516 0.54213679
3.6902473 0.56557858 0.44680312
4.0731044 0.55816996 0.33046159
-0.02611593 -0.059798401 0.050936799
3.3906221 0.57638228 0.46761543
3.698658 0.56808007 0.36166206
4.0152154 0.55318105 0.23142162
3.5435274 0.42201319 0.064823702
3.4081957 0.57768887 0.39128417
3.7160521 0.57156724 0.27537024
3.5379183 0.48392418 0.12706973
2.9888067 0.35249358 -0.0080726845
3.4237547 0.58002049 0.31400883
3.6383297 0.56047028 0.18659456
3.5363533 0.48744327 0.043134231
3.015481 0.36069429 -0.0804483
3.4332888 0.58039218 0.23581055
3.5236242 0.54247099 0.10038735
2.9786756 0.40484622 -0.024941722
2.7542944 0.32970029 -0.13513736
3.4498289 0.58273834 0.15751676
-0.02611593 -0.059798401 0.050936799
2.9863608 0.4100976 -0.096014708
2.7041118 0.32801625 -0.19724932
3.4743569 0.58707356 0.078109033
2.9664657 0.45126137 -0.044880267
2.7562017 0.3779563 -0.14930499
2.5331619 0.30849823 -0.24241707
3.2227311 0.54040813 0.0029505379
2.9231913 0.44562525 -0.11119448
2.7779665 0.38508472 -0.21660635
2.4960976 0.30865869 -0.29873928
2.9633088 0.49257264 -0.061079383
2.748023 0.41830382 -0.16642782
2.5260994 0.34973347 -0.25354272
2.3183732 0.28894871 -0.33177957
2.8260705 0.46818671 -0.12097134
2.770788 0.4254286 -0.23374796
2.5299497 0.35383654 -0.31556159
2.3302896 0.29596826 -0.39089575
2.7448804 0.4535799 -0.18073571
2.5239565 0.38500601 -0.26786941
2.3871667 0.33505502 -0.35224047
2.3561597 0.30599138 -0.45321989
2.6338072 0.43395513 -0.23302883
2.5338094 0.39008737 -0.329983
2.3152874 0.32814327 -0.39703491
2.3939223 0.31807959 -0.5217315
2.5178468 0.4142397 -0.27923006
2.3930144 0.36829922 -0.36675355
2.3411529 0.33716658 -0.45937708
2.6298199 0.36237067 -0.6443885
2.5486662 0.42128152 -0.34370154
2.3071926 0.35636622 -0.40737632
2.3859186 0.3502295 -0.5280022
2.5101578 0.35141486 -0.67635715
2.3081067 0.37856638 -0.36297682
2.3430233 0.36638957 -0.47188774
2.5909555 0.39048785 -0.64215153
2.4960339 0.35656425 -0.73702013
2.3130612 0.38055769 -0.41905257
2.3857851 0.37845987 -0.54049331
2.4802463 0.37753618 -0.67632461
2.448102 0.35663757 -0.786138
2.3419034 0.38858846 -0.48246881
2.5559587 0.41369995 -0.64607769
2.4930024 0.38671464 -0.74442041
-0.02611593 -0.059798401 0.050936799
2.4055803 0.40367329 -0.55641317
2.4492598 0.39871627 -0.6793623
2.4351318 0.38275215 -0.78942388
-0.02611593 -0.059798401 0.050936799
2.5229673 0.42887014 -0.64818633
2.4829261 0.40990943 -0.75281507
-0.02611593 -0.059798401 0.050936799
0.17844859 -0.024060369 -0.034275617
2.4849439 0.42498055 -0.70156282
2.4250515 0.4049471 -0.79783654
0.19146192 -0.020107701 -0.034447819
-0.02611593 -0.059798401 0.050936799
2.4698415 0.42609805 -0.76027983
-0.02611593 -0.059798401 0.050936799
-0.02611593 -0.059798401 0.050936799
0.15146047 -0.026981045 -0.032822661
2.411974 0.41811818 -0.80435568
0.18947013 -0.018100865 -0.0343742
0.17140155 -0.021981318 -0.037107032
-0.02611593 -0.059798401 0.050936799
-0.02611593 -0.059798401 0.050936799
-0.02611593 -0.059798401 0.050936799
-0.02611593 -0.059798401 0.050936799
0.1264907 -0.029926989 -0.030407634
0.18745571 -0.01707577 -0.035318252
0.17038696 -0.020959811 -0.038069881
0.14639041 -0.025890913 -0.036709342
-0.02611593 -0.059798401 0.050936799
-0.02611593 -0.059798401 0.050936799
-0.02611593 -0.059798401 0.050936799
-0.02611593 -0.059798401 0.050936799
-0.02611593 -0.059798401 0.050936799
0.16242193 -0.021967106 -0.035938248
0.14737543 -0.024876582 -0.037709773
0.12838586 -0.027825974 -0.03640715
-0.02611593 -0.059798401 0.050936799
-0.02611593 -0.059798401 0.050936799
-0.02611593 -0.059798401 0.050936799
-0.02611593 -0.059798401 0.050936799
0.095499389 -0.033833142 -0.028897543
0.14042896 -0.025905557 -0.034597266
0.12736733 -0.027804296 -0.037388016
0.10941499 -0.030793451 -0.034104854
-0.02611593 -0.059798401 0.050936799
-0.02611593 -0.059798401 0.050936799
-0.02611593 -0.059798401 0.050936799
-0.02611593 -0.059798401 0.050936799
0.091406502 -0.033728343 -0.033820678
0.12340549 -0.027826117 -0.035313528
0.11632796 -0.02872847 -0.039198659
0.097394533 -0.031732127 -0.034897048
-0.02611593 -0.059798401 0.050936799
-0.02611593 -0.059798401 0.050936799
-0.02611593 -0.059798401 0.050936799
-0.02611593 -0.059798401 0.050936799
0.076442771 -0.034710519 -0.031557519
0.10739664 -0.030768184 -0.03506694
0.096394718 -0.031728536 -0.034878258
0.086369969 -0.033674221 -0.035726056
-0.02611593 -0.059798401 0.050936799
-0.02611593 -0.059798401 0.050936799
-0.02611593 -0.059798401 0.050936799
-0.02611593 -0.059798401 0.050936799
0.064474553 -0.036703289 -0.029368747
0.097357094 -0.031695947 -0.036896374
0.088336088 -0.032645386 -0.037744939
0.075386778 -0.034652658 -0.034537714
-0.02611593 -0.059798401 0.050936799
-0.02611593 -0.059798401 0.050936799
-0.02611593 -0.059798401 0.050936799
-0.02611593 -0.059798401 0.050936799
0.056490812 -0.037692495 -0.028236784
0.083385319 -0.034681372 -0.034688037
0.078333996 -0.033609331 -0.037575051
0.069312997 -0.034558773 -0.038423616
-0.02611593 -0.059798401 0.050936799
-0.02611593 -0.059798401 0.050936799
-0.02611593 -0.059798401 0.050936799
-0.02611593 -0.059798401 0.050936799
0.050454464 -0.037634782 -0.03012336
0.07338322 -0.035645314 -0.034518152
0.066347055 -0.035584014 -0.036385946
0.058363318 -0.036573224 -0.035253976
-0.02611593 -0.059798401 0.050936799
-0.02611593 -0.059798401 0.050936799
-0.02611593 -0.059798401 0.050936799
-0.02611593 -0.059798401 0.050936799
0.041489623 -0.038638491 -0.027972944
0.061415009 -0.037638083 -0.032329381
0.062272906 -0.0354973 -0.040309425
0.050364777 -0.036544513 -0.035103653
-0.02611593 -0.059798401 0.050936799
-0.02611593 -0.059798401 0.050936799
-0.02611593 -0.059798401 0.050936799
-0.02611593 -0.059798401 0.050936799
0.038434006 -0.038573459 -0.030915551
0.056359753 -0.037565872 -0.035234414
0.052323036 -0.037515335 -0.037158571
0.043380857 -0.037537307 -0.033990469
-0.02611593 -0.059798401 0.050936799
-0.02611593 -0.059798401 0.050936799
-0.02611593 -0.059798401 0.050936799
-0.02611593 -0.059798401 0.050936799
0.033416204 -0.038537424 -0.031821266
0.045410074 -0.039580323 -0.032064773
0.047252994 -0.036425207 -0.041045245
0.037359301 -0.038497511 -0.034895413
-0.02611593 -0.059798401 0.050936799
-0.02611593 -0.059798401 0.050936799
-0.02611593 -0.059798401 0.050936799
-0.02611593 -0.059798401 0.050936799
0.02643621 -0.038530391 -0.030690067
0.040373553 -0.039526202 -0.033970136
0.036359485 -0.038493924 -0.034876622
0.031341676 -0.038457889 -0.03578233
-0.02611593 -0.059798401 0.050936799
-0.02611593 -0.059798401 0.050936799
-0.02611593 -0.059798401 0.050936799
-0.02611593 -0.059798401 0.050936799
-0.02611593 -0.059798401 0.050936799
0.035333093 -0.040471904 -0.03589353
0.031337749 -0.03945772 -0.035800349
0.027304962 -0.038407359 -0.037706487
-0.02611593 -0.059798401 0.050936799
-0.02611593 -0.059798401 0.050936799
-0.02611593 -0.059798401 0.050936799
-0.02611593 -0.059798401 0.050936799
-0.02611593 -0.059798401 0.050936799
0.027386792 -0.04149729 -0.032762229
0.027282313 -0.0393891 -0.038724173
0.021324784 -0.03840391 -0.036594082
-0.02611593 -0.059798401 0.050936799
-0.02611593 -0.059798401 0.050936799
-0.02611593 -0.059798401 0.050936799
-0.02611593 -0.059798401 0.050936799
-0.02611593 -0.059798401 0.050936799
0.023331357 -0.041428667 -0.035686057
0.02128341 -0.039367564 -0.038611427
0.017288074 -0.03835338 -0.038518246
-0.02611593 -0.059798401 0.050936799
-0.02611593 -0.059798401 0.050936799
-0.02611593 -0.059798401 0.050936799
-0.02611593 -0.059798401 0.050936799
-0.02611593 -0.059798401 0.050936799
0.019294642 -0.041378133 -0.037610214
-0.02611593 -0.059798401 0.050936799
0.013251359 -0.038302843 -0.040442403
-0.02611593 -0.059798401 0.050936799
-0.02611593 -0.059798401 0.050936799
-0.02611593 -0.059798401 0.050936799
-0.02611593 -0.059798401 0.050936799
-0.02611593 -0.059798401 0.050936799
0.015257933 -0.041327599 -0.039534379
-0.02611593 -0.059798401 0.050936799
-0.02611593 -0.059798401 0.050936799
-0.02611593 -0.059798401 0.050936799
-0.02611593 -0.059798401 0.050936799
-0.02611593 -0.059798401 0.050936799
-0.02611593 -0.059798401 0.050936799
-0.02611593 -0.059798401 0.050936799
0.0092590312 -0.041306067 -0.039421637
-0.02611593 -0.059798401 0.050936799
-0.02611593 -0.059798401 0.050936799
-0.02611593 -0.059798401 0.050936799
-0.02611593 -0.059798401 0.050936799
-0.02611593 -0.059798401 0.050936799
-0.02611593 -0.059798401 0.050936799
-0.02611593 -0.059798401 0.050936799
-0.02611593 -0.059798401 0.050936799
-0.02611593 -0.059798401 0.050936799
-0.02611593 -0.059798401 0.050936799
-0.02611593 -0.059798401 0.050936799
-0.02611593 -0.059798401 0.050936799
-0.02611593 -0.059798401 0.050936799
-0.02611593 -0.059798401 0.050936799
-0.02611593 -0.059798401 0.050936799
-0.02611593 -0.059798401 0.050936799
-0.02611593 -0.059798401 0.050936799
-0.02611593 -0.059798401 0.050936799
-0.02611593 -0.059798401 0.050936799
-0.02611593 -0.059798401 0.050936799
-0.02611593 -0.059798401 0.050936799
-0.02611593 -0.059798401 0.050936799
-0.02611593 -0.059798401 0.050936799
-0.02611593 -0.059798401 0.050936799
-0.02611593 -0.059798401 0.050936799
-0.02611593 -0.059798401 0.050936799
-0.02611593 -0.059798401 0.050936799
-0.02611593 -0.059798401 0.050936799
-0.02611593 -0.059798401 0.050936799
-0.02611593 -0.059798401 0.050936799
-0.02611593 -0.059798401 0.050936799
-0.02611593 -0.059798401 0.050936799
-0.02611593 -0.059798401 0.050936799
-0.02611593 -0.059798401 0.050936799
-0.02611593 -0.059798401 0.050936799
-0.02611593 -0.059798401 0.050936799
-0.02611593 -0.059798401 0.050936799
-0.02611593 -0.059798401 0.050936799
-0.02611593 -0.059798401 0.050936799
-0.02611593 -0.059798401 0.050936799
-0.02611593 -0.059798401 0.050936799
-0.02611593 -0.059798401 0.050936799
-0.02611593 -0.059798401 0.050936799
-0.02611593 -0.059798401 0.050936799
-0.02611593 -0.059798401 0.050936799
-0.02611593 -0.059798401 0.050936799
-0.02611593 -0.059798401 0.050936799
-0.02611593 -0.059798401 0.050936799
-0.02611593 -0.059798401 0.050936799
-0.02611593 -0.059798401 0.050936799
-0.02611593 -0.059798401 0.050936799
-0.02611593 -0.059798401 0.050936799
-0.02611593 -0.059798401 0.050936799
-0.02611593 -0.059798401 0.050936799
-0.02611593 -0.059798401 0.050936799
-0.02611593 -0.059798401 0.050936799
-0.02611593 -0.059798401 0.050936799
-0.02611593 -0.059798401 0.050936799
-0.02611593 -0.059798401 0.050936799
-0.02611593 -0.059798401 0.050936799
-0.02611593 -0.059798401 0.050936799
-0.02611593 -0.059798401 0.050936799
-0.02611593 -0.059798401 0.050936799
-0.02611593 -0.059798401 0.050936799
-0.02611593 -0.059798401 0.050936799
-0.02611593 -0.059798401 0.050936799
-0.02611593 -0.059798401 0.050936799
-0.02611593 -0.059798401 0.050936799
-0.02611593 -0.059798401 0.050936799
-0.02611593 -0.059798401 0.050936799
-0.02611593 -0.059798401 0.050936799
-0.02611593 -0.059798401 0.050936799
-0.02611593 -0.059798401 0.050936799
-0.02611593 -0.059798401 0.050936799
-0.02611593 -0.059798401 0.050936799
-0.02611593 -0.059798401 0.050936799
-0.02611593 -0.059798401 0.050936799
-0.02611593 -0.059798401 0.050936799
-0.02611593 -0.059798401 0.050936799
-0.02611593 -0.059798401 0.050936799
-0.02611593 -0.059798401 0.050936799
-0.02611593 -0.059798401 0.050936799
-0.02611593 -0.059798401 0.050936799
-0.02611593 -0.059798401 0.050936799
-0.02611593 -0.059798401 0.050936799
-0.02611593 -0.059798401 0.050936799
-0.02611593 -0.059798401 0.050936799
-0.02611593 -0.059798401 0.050936799
-0.02611593 -0.059798401 0.050936799
-0.02611593 -0.059798401 0.050936799
-0.02611593 -0.059798401 0.050936799
-0.02611593 -0.059798401 0.050936799
-0.02611593 -0.059798401 0.050936799
-0.02611593 -0.059798401 0.050936799
-0.02611593 -0.059798401 0.050936799
-0.02611593 -0.059798401 0.050936799
-0.02611593 -0.059798401 0.050936799
-0.02611593 -0.059798401 0.050936799
-0.02611593 -0.059798401 0.050936799
-0.02611593 -0.059798401 0.050936799
-0.02611593 -0.059798401 0.050936799
-0.02611593 -0.059798401 0.050936799
-0.02611593 -0.059798401 0.050936799
-0.02611593 -0.059798401 0.050936799
-0.02611593 -0.059798401 0.050936799
-0.02611593 -0.059798401 0.050936799
-0.02611593 -0.059798401 0.050936799
-0.02611593 -0.059798401 0.050936799
-0.02611593 -0.059798401 0.050936799
-0.02611593 -0.059798401 0.050936799
-0.02611593 -0.059798401 0.050936799
-0.02611593 -0.059798401 0.050936799
-0.02611593 -0.059798401 0.050936799
-0.02611593 -0.059798401 0.050936799
-0.02611593 -0.059798401 0.050936799
-0.02611593 -0.059798401 0.050936799
-0.02611593 -0.059798401 0.050936799
-0.02611593 -0.059798401 0.050936799
-0.02611593 -0.059798401 0.050936799
-0.02611593 -0.059798401 0.050936799
-0.02611593 -0.059798401 0.050936799
-0.02611593 -0.059798401 0.050936799
-0.02611593 -0.059798401 0.050936799
-0.02611593 -0.059798401 0.050936799
-0.02611593 -0.059798401 0.050936799
-0.02611593 -0.059798401 0.050936799
-0.02611593 -0.059798401 0.050936799
-0.02611593 -0.059798401 0.050936799
-0.02611593 -0.059798401 0.050936799
-0.064699933 -0.034041677 -0.037905008
-0.02611593 -0.059798401 0.050936799
-0.02611593 -0.059798401 0.050936799
-0.02611593 -0.059798401 0.050936799
-0.02611593 -0.059798401 0.050936799
-0.02611593 -0.059798401 0.050936799
-0.02611593 -0.059798401 0.050936799
-0.068710983 -0.037026811 -0.0378839
-0.069699019 -0.034023736 -0.037811056
-0.02611593 -0.059798401 0.050936799
-0.02611593 -0.059798401 0.050936799
-0.02611593 -0.059798401 0.050936799
-0.02611593 -0.059798401 0.050936799
-0.02611593 -0.059798401 0.050936799
-0.072680667 -0.039048295 -0.035845451
-0.074687235 -0.036023542 -0.036753479
-0.075693995 -0.033002369 -0.037680294
-0.02611593 -0.059798401 0.050936799
-0.02611593 -0.059798401 0.050936799
-0.02611593 -0.059798401 0.050936799
-0.02611593 -0.059798401 0.050936799
-0.02611593 -0.059798401 0.050936799
-0.078679562 -0.039026763 -0.035732709
-0.080719657 -0.034965996 -0.038622037
-0.081707694 -0.031962916 -0.038549189
-0.02611593 -0.059798401 0.050936799
-0.02611593 -0.059798401 0.050936799
-0.02611593 -0.059798401 0.050936799
-0.02611593 -0.059798401 0.050936799
-0.07853581 -0.031136654 -0.029590596
-0.083655998 -0.038027074 -0.034621075
-0.083625495 -0.035045676 -0.033567362
-0.085665584 -0.030984908 -0.036456689
-0.02611593 -0.059798401 0.050936799
-0.02611593 -0.059798401 0.050936799
-0.02611593 -0.059798401 0.050936799
-0.02611593 -0.059798401 0.050936799
-0.08353097 -0.030118879 -0.029478624
-0.087599106 -0.038066983 -0.031546928
-0.088605866 -0.035045821 -0.03247375
-0.089608684 -0.031024821 -0.033382542
-0.02611593 -0.059798401 0.050936799
-0.02611593 -0.059798401 0.050936799
-0.02611593 -0.059798401 0.050936799
-0.02611593 -0.059798401 0.050936799
-0.087492786 -0.0301407 -0.027404137
-0.093575358 -0.03706371 -0.0304165
-0.096633978 -0.032981269 -0.034286708
-0.093570516 -0.031046642 -0.031308055
-0.02611593 -0.059798401 0.050936799
-0.02611593 -0.059798401 0.050936799
-0.02611593 -0.059798401 0.050936799
-0.02611593 -0.059798401 0.050936799
-0.095539644 -0.028058067 -0.030216753
-0.10262202 -0.034977488 -0.033210341
-0.10261024 -0.031977996 -0.033156283
-0.1005801 -0.029003773 -0.032140151
-0.02611593 -0.059798401 0.050936799
-0.02611593 -0.059798401 0.050936799
-0.02611593 -0.059798401 0.050936799
-0.02611593 -0.059798401 0.050936799
-0.099497534 -0.027080059 -0.028124254
-0.11163516 -0.033927266 -0.034022868
-0.11163817 -0.029909855 -0.034950454
-0.10655636 -0.028000498 -0.031009723
-0.02611593 -0.059798401 0.050936799
-0.02611593 -0.059798401 0.050936799
-0.02611593 -0.059798401 0.050936799
-0.02611593 -0.059798401 0.050936799
-0.10852548 -0.025011916 -0.029918421
-0.11555955 -0.033985268 -0.029949054
-0.11759571 -0.028924672 -0.032820374
-0.11861726 -0.024885584 -0.034728829
-0.02611593 -0.059798401 0.050936799
-0.02611593 -0.059798401 0.050936799
-0.02611593 -0.059798401 0.050936799
-0.02611593 -0.059798401 0.050936799
-0.11348319 -0.02403032 -0.027807131
-0.12860155 -0.030884851 -0.032649711
-0.12760475 -0.026871035 -0.033596087
-0.12762649 -0.022835538 -0.03552334
-0.02611593 -0.059798401 0.050936799
-0.02611593 -0.059798401 0.050936799
-0.02611593 -0.059798401 0.050936799
-0.02611593 -0.059798401 0.050936799
-0.12045533 -0.022023629 -0.026639901
-0.13554019 -0.029914167 -0.02950117
-0.13657652 -0.024857162 -0.03239128
-0.13354658 -0.021886528 -0.031393934
-0.02611593 -0.059798401 0.050936799
-0.02611593 -0.059798401 0.050936799
-0.02611593 -0.059798401 0.050936799
-0.02611593 -0.059798401 0.050936799
-0.13046436 -0.019969992 -0.027415618
-0.14854473 -0.026849933 -0.030202501
-0.14756665 -0.022818025 -0.032148544
-0.14253707 -0.019854572 -0.031188786
-0.02611593 -0.059798401 0.050936799
-0.02611593 -0.059798401 0.050936799
-0.02611593 -0.059798401 0.050936799
-0.02611593 -0.059798401 0.050936799
-0.14045076 -0.016934611 -0.027173657
-0.15648317 -0.025875658 -0.027035173
-0.15853412 -0.019797146 -0.030888136
-0.15149012 -0.017858788 -0.028984297
-0.02611593 -0.059798401 0.050936799
-0.02611593 -0.059798401 0.050936799
-0.02611593 -0.059798401 0.050936799
-0.02611593 -0.059798401 0.050936799
-0.1474081 -0.015945837 -0.025024783
-0.17046884 -0.022825927 -0.02671805
-0.16948682 -0.017794188 -0.028646067
-0.16044317 -0.015863005 -0.026779827
-0.02611593 -0.059798401 0.050936799
-0.02611593 -0.059798401 0.050936799
-0.02611593 -0.059798401 0.050936799
-0.02611593 -0.059798401 0.050936799
-0.15230966 -0.015018508 -0.019914512
-0.19651541 -0.016661279 -0.030120037
-0.18848635 -0.01370859 -0.02921664
-0.18045731 -0.010755897 -0.028313242
-0.02611593 -0.059798401 0.050936799
-0.02611593 -0.059798401 0.050936799
-0.02611593 -0.059798401 0.050936799
-0.02611593 -0.059798401 0.050936799
-0.17738992 -0.0078214398 -0.025316581
-0.22553878 -0.0095041208 -0.032447964
-0.2135144 -0.0075656148 -0.031637751
-0.20348571 -0.004620105 -0.030771945
-0.02611593 -0.059798401 0.050936799
-0.02611593 -0.059798401 0.050936799
-0.02611593 -0.059798401 0.050936799
-0.02611593 -0.059798401 0.050936799
-0.20041439 -0.00068582012 -0.027757246
-0.24745893 -0.0044802818 -0.028945498
-0.24050066 -0.00045181822 -0.032003935
-0.22645792 0.0014614202 -0.030231647
-0.02611593 -0.059798401 0.050936799
-0.02611593 -0.059798401 0.050936799
-0.02611593 -0.059798401 0.050936799
-0.02611593 -0.059798401 0.050936799
-0.22440514 0.0054173833 -0.028197832
-0.94985032 0.16903381 -0.23572622
-0.26743081 0.0066077155 -0.029371142
-0.2544401 0.0095786406 -0.030561022
-0.02611593 -0.059798401 0.050936799
-0.97250807 0.17380799 -0.21820974
-0.02611593 -0.059798401 0.050936799
-0.02611593 -0.059798401 0.050936799
-0.24635491 0.012477057 -0.026658639
-0.98310512 0.17546727 -0.19697413
-0.97039551 0.19777864 -0.21681519
-0.95763761 0.2180361 -0.23369336
-0.02611593 -0.059798401 0.050936799
-0.99669755 0.17813714 -0.1756641
-0.97899681 0.19843093 -0.19563518
-0.97530037 0.2217925 -0.21628881
-0.95553285 0.24000712 -0.23233485
-1.0072719 0.18077813 -0.15341081
-0.99260795 0.20111886 -0.17532484
-0.98090607 0.22143418 -0.19518319
-0.96818566 0.24172783 -0.21406063
-1.0178462 0.18341917 -0.1311575
-1.0062004 0.20378874 -0.15401483
-0.99251765 0.22411495 -0.17491043
-0.98483372 0.24446273 -0.19569328
-1.0193964 0.18299219 -0.10712805
-1.0238218 0.20850882 -0.13459297
-1.0021148 0.22577064 -0.15369359
-0.99445343 0.24513663 -0.1754941
-1.0269526 0.18560435 -0.083931483
-1.030386 0.2091177 -0.11145121
-1.0097163 0.22641933 -0.13253237
-1.0080833 0.2478427 -0.15618342
-1.0485358 0.19030258 -0.062435105
-1.0369648 0.21074454 -0.089291088
-1.0183136 0.22807141 -0.11133434
-1.010675 0.24645568 -0.13415255
-1.0590873 0.19392534 -0.039164141
-1.0435251 0.21235326 -0.066131309
-1.0469252 0.23483059 -0.091669716
-1.0192723 0.24810775 -0.11295448
-1.0796294 0.19958365 -0.015669227
-1.0520812 0.21496898 -0.042915925
-1.0434988 0.23340395 -0.068751894
-1.0348978 0.25182083 -0.093588203
-1.0971758 0.20423134 0.0077513009
-1.0836695 0.2227207 -0.022177257
-1.0460677 0.23299865 -0.045703322
-1.0484904 0.25449067 -0.072278209
-1.1016949 0.20679653 0.032890838
-1.1011932 0.22835013 0.0022609383
-1.0616332 0.23765729 -0.023320042
-1.0630827 0.25716412 -0.050949417
-1.126195 0.21343285 0.058478259
-1.11173 0.23095499 0.026513562
-1.0792023 0.24132325 -0.00091718882
-1.062656 0.25574827 -0.027975224
-1.1367092 0.21701941 0.083748557
-1.134249 0.23760219 0.051063746
-1.0947491 0.24596377 0.022465758
-1.0762258 0.25939986 -0.0056475401
-0.02611593 -0.059798401 0.050936799
-1.1487437 0.24118501 0.077408858
-1.1182867 0.25263268 0.046035066
-1.0967903 0.26407644 0.016829707
-1.1756358 0.23018378 0.13873413
-1.1562585 0.24476083 0.10262278
-1.1397909 0.2582584 0.071548097
-1.1233236 0.27175593 0.040473394
-0.02611593 -0.059798401 0.050936799
-0.02611593 -0.059798401 0.050936799
-1.1463286 0.26084888 0.095725551
-0.02611593 -0.059798401 0.050936799
-1.1895533 0.23722327 0.19514117
-1.1931894 0.25691822 0.15755276
-1.1817771 0.27048793 0.12357304
-1.1473966 0.27697635 0.089035012
-0.02611593 -0.059798401 0.050936799
-0.02611593 -0.059798401 0.050936799
-1.1852818 0.27203166 0.14967543
-0.02611593 -0.059798401 0.050936799
-1.2642094 0.2602981 0.26297933
-1.2380174 0.2710135 0.2176674
-0.02611593 -0.059798401 0.050936799
-1.2033271 0.2932193 0.14339443
-1.234781 0.25576058 0.28635418
-1.2384626 0.27349198 0.24673042
-1.2331241 0.2871556 0.20886479
-0.02611593 -0.059798401 0.050936799
-0.02611593 -0.059798401 0.050936799
-1.2737725 0.28500411 0.28161159
-1.2345917 0.28865597 0.23692894
-1.2312566 0.30132699 0.19908288
-1.2853824 0.27467754 0.35766795
-1.297096 0.29347369 0.31621319
-1.2500033 0.29416969 0.26732755
-1.2496681 0.30685148 0.22953784
-0.02611593 -0.059798401 0.050936799
-1.3194011 0.30192158 0.3517957
-1.2862943 0.30566734 0.30322713
-0.02611593 -0.059798401 0.050936799
-0.02611593 -0.059798401 0.050936799
-1.3118556 0.30237174 0.38067234
-0.02611593 -0.059798401 0.050936799
-0.02611593 -0.059798401 0.050936799
-2.5807781 0.64069134 0.86471391
-1.3301467 0.30978733 0.41716132
-1.296104 0.31158409 0.36553895
-1.2749535 0.31633657 0.31921321
-2.5428004 0.63760012 0.91696465
-2.4789579 0.64144319 0.80079949
-0.02611593 -0.059798401 0.050936799
-0.02611593 -0.059798401 0.050936799
-2.5098102 0.63752639 0.96936345
-2.4509931 0.63940579 0.85225648
-0.02611593 -0.059798401 0.050936799
-0.02611593 -0.059798401 0.050936799
-2.4698892 0.63448232 1.0185776
-2.428982 0.63935345 0.90586162
-2.3927705 0.64495295 0.80925214
-1.3507924 0.34164017 0.43012846
-2.4299827 0.63245612 1.0668101
-2.4039714 0.63929033 0.95941037
-2.3698089 0.6419338 0.86078513
-2.3394959 0.64444673 0.77023232
-2.4019649 0.63438189 1.1203386
-2.3770027 0.63825643 1.0109042
-2.3478391 0.64091772 0.91237295
-2.325506 0.64344132 0.82297015
-2.3591192 0.63139945 1.1654977
-2.3421178 0.63526642 1.058213
-2.3278506 0.63989085 0.96499789
-2.3134971 0.64242506 0.8767451
-2.3172693 0.6294204 1.2106936
-2.3092103 0.63326544 1.106577
-2.295969 0.6359117 1.0123451
-2.2905729 0.63944197 0.92627871
-2.2784188 0.62745208 1.255946
-2.2822566 0.63324934 1.1570892
-2.2730181 0.63491029 1.0629144
-2.276583 0.63843656 0.97901654
-2.2366252 0.62552732 1.298143
-2.2434473 0.63031745 1.2003243
-2.253063 0.6349194 1.1135582
-2.2526586 0.63544989 1.0285313
-2.1958089 0.62458783 1.3413765
-2.2095959 0.62836707 1.2456706
-2.2221777 0.63194376 1.1609421
-2.2406421 0.6364333 1.0823424
-2.156992 0.6236555 1.3846476
-2.168829 0.62446433 1.2868507
-2.1932881 0.6299752 1.2083817
-2.2186759 0.63441753 1.1339122
-2.1112552 0.62177068 1.4237703
-2.1349509 0.62449557 1.3332326
-2.1722877 0.63194418 1.261042
-2.199687 0.63339418 1.186556
-2.0665557 0.6199255 1.4609127
-2.1030917 0.62455195 1.3786526
-2.1354821 0.62801963 1.3042966
-2.1737781 0.63141823 1.2350516
-2.0228333 0.6190657 1.4990915
-2.0613618 0.62068176 1.4178146
-2.1115463 0.62803245 1.3538654
-2.1438925 0.62844622 1.2824544
-1.9771942 0.61627138 1.533198
-2.0245819 0.61979288 1.4591238
-2.0737786 0.62414038 1.3951019
-2.1229227 0.62743384 1.3340608
-1.9325283 0.6154623 1.5683591
-1.9888022 0.61890745 1.5004519
-2.0389647 0.62222266 1.4384301
-2.0960102 0.62645423 1.3825557
-1.89282 0.61563474 1.6056314
-1.949083 0.61706221 1.5386879
-2.007128 0.62129736 1.4828323
-2.0671017 0.62446749 1.430995
-1.8442562 0.6129021 1.6356828
-1.9093413 0.61619866 1.5779414
-1.9703335 0.61939049 1.5251232
-2.0371935 0.62247717 1.4794154
-1.8153391 0.61793226 1.6832485
-1.868641 0.6143679 1.6151589
-1.939455 0.61943251 1.5715617
-2.0082815 0.62149036 1.5278727
-1.7717065 0.61816275 1.7164471
-1.8289367 0.61354053 1.6524132
-1.8997399 0.6165874 1.6097796
-1.9764296 0.61954719 1.5732566
-1.7114266 0.61064112 1.7321877
-1.8019818 0.61854178 1.7020159
-1.8649223 0.61566943 1.6531258
-1.9425821 0.616597 1.6185849
-1.6580551 0.60707158 1.7521306
-1.7563988 0.61580181 1.7331234
-1.8340399 0.61671126 1.6995822
-1.9097081 0.61563194 1.6649677
-1.6135013 0.60637099 1.7812937
-1.6980811 0.60825109 1.750901
-1.8031536 0.6187529 1.7460567
-1.879792 0.61564136 1.7134242
-1.5611296 0.60280502 1.8012555
-1.6515545 0.60556173 1.7789907
-1.7447652 0.61013007 1.7678149
-1.8527552 0.61755264 1.7679709
-1.5117117 0.60121322 1.8233089
-1.6069673 0.60382521 1.8101352
-1.7040799 0.60931718 1.8040506
-1.8041658 0.61178422 1.7999676
-1.4662331 0.60058141 1.8484546
-1.5604556 0.60215378 1.8372433
-1.6575009 0.60557371 1.8351214
-1.7575347 0.60698676 1.8340195
-1.418815 0.59899688 1.8705456
-1.512008 0.59852982 1.8612788
-1.6148572 0.60379004 1.8693023
-1.7177596 0.60508716 1.8752543
-1.3694762 0.59647775 1.8885823
-1.4713935 0.5987891 1.8935339
-1.5732133 0.60201001 1.903502
-1.6770257 0.60222042 1.9144533
-1.3211517 0.59497994 1.9056562
-1.4278398 0.59809214 1.9227158
-1.5266491 0.59928441 1.933591
-1.6372466 0.60132074 1.955706
-1.2776691 0.59535515 1.9308575
-1.3745655 0.59361315 1.9376423
-1.4810622 0.59754431 1.9647166
-1.5974486 0.60040289 1.9979587
-1.2244844 0.59196645 1.9408038
-1.330989 0.59389794 1.967842
-1.4354938 0.59582222 1.9948425
-1.5498097 0.59760141 2.0320277
-1.1790996 0.59142506 1.9609512
-1.2874501 0.59421891 1.9960423
-1.3928424 0.59603816 2.0290596
-1.5051103 0.59575635 2.06917
-1.1327709 0.5909344 1.9780806
-1.2390695 0.59266686 2.016115
-1.3463118 0.59434867 2.0571673
-1.4633275 0.59584922 2.1104033
-1.0806652 0.58662188 1.9840291
-1.1926287 0.59206766 2.0392425
-1.2987814 0.5926556 2.0852563
-1.4157261 0.59308398 2.142473
-1.0420908 0.59094191 2.0133951
-1.1414102 0.58765018 2.0512078
-1.2522693 0.59098417 2.1123645
-1.3729436 0.59317333 2.1836877
-0.98908269 0.58571637 2.0143082
-1.0959651 0.5880543 2.0743723
-1.2067159 0.59028 2.1415086
-1.3262591 0.59233898 2.2198105
-0.94474596 0.58723259 2.0315113
-1.0485992 0.58752388 2.093482
-1.1552987 0.58868104 2.1635246
-1.2737149 0.5896101 2.2487874
-0.89653391 0.58584338 2.0425875
-1.0011547 0.58792084 2.1166089
-1.1068245 0.58703864 2.1885958
-1.2221891 0.58690274 2.276783
-0.850299 0.58544314 2.0547185
-0.95478481 0.58839381 2.1357558
-1.056403 0.58644313 2.2106485
-1.1754782 0.58804995 2.313942
-0.80025977 0.58320975 2.0567422
-0.9026376 0.58504498 2.1437213
-1.0069666 0.58483332 2.2337015
-1.1191484 0.58350593 2.331811
-0.75024331 0.57999462 2.0577478
-0.85533178 0.58356893 2.1598148
-0.95952594 0.58423054 2.2568104
-1.0676373 0.58181655 2.3588254
-0.70888323 0.58250326 2.076025
-0.80419922 0.58124149 2.1668174
-0.91102135 0.5855695 2.2829351
-1.0179871 0.58200741 2.392911
-0.66178346 0.58122623 2.0811217
-0.75878763 0.58268166 2.1880007
-0.85677695 0.58312285 2.2958798
-0.96541625 0.58126009 2.4229231
-0.61466098 0.58093095 2.0872364
-0.70763236 0.58133602 2.1960208
-0.80253255 0.58067608 2.3088243
-0.90993959 0.58059233 2.447881
-0.57044041 0.58155578 2.0984235
-0.65562022 0.57711387 2.1969714
-0.75590742 0.58391333 2.3410208
-0.83277738 0.5620392 2.4060864
-0.52247578 0.57940197 2.0964859
-0.61110312 0.58146673 2.2232254
-0.69045728 0.57114905 2.3135552
-0.75487053 0.54071814 2.3512235
-0.47641325 0.57816464 2.0996022
-0.55820739 0.57634974 2.2181408
-0.61958271 0.55088907 2.2568426
-0.68269956 0.52418256 2.3095589
-0.43412441 0.58174193 2.1138799
-0.49812779 0.55994773 2.1717036
-0.55456811 0.53252375 2.2072761
-0.60812223 0.5001803 2.237704
-0.38451678 0.57490736 2.0938206
-0.43994248 0.54646188 2.1303563
-0.49245146 0.51607835 2.1628006
-0.54198766 0.48370245 2.1941531
-0.33507073 0.56521803 2.0657101
-0.38570029 0.53293622 2.092083
-0.43427011 0.50159276 2.1214354
-0.47886723 0.4682534 2.1496766
-0.28488395 0.55176097 2.024513
-0.33341634 0.52038133 2.0558648
-0.37800559 0.48904157 2.0841422
-0.41968605 0.4537642 2.1082926
-0.24607222 0.56388068 2.0650194
-0.28397024 0.510692 2.0277541
-0.32472184 0.47648311 2.0479052
-0.36254191 0.43931824 2.0649469
-0.20631683 0.57605118 2.1025081
-0.2449221 0.52559412 2.0803103
-0.27517432 0.46870303 2.0248289
-0.31009644 0.42961818 2.0367796
-0.16220468 0.57778442 2.1077151
-0.20475781 0.5413841 2.1388638
-0.23598029 0.48246065 2.0853646
-0.2638427 0.42919981 2.0499108
-0.11749467 0.57287693 2.0927842
-0.16257519 0.55714864 2.1983795
-0.19376412 0.49718919 2.1468613
-0.22167188 0.44196495 2.1093724
-0.0734988 0.57371885 2.0919755
-0.1158063 0.56827605 2.2367182
-0.15036787 0.5147509 2.2173908
-0.17832486 0.45656338 2.1778481
-0.029660568 0.57270581 2.0831335
-0.0669128 0.56719083 2.2307813
-0.10556856 0.56512153 2.409528
-0.14135514 0.52795804 2.4815502
0.014158955 0.57171088 2.0732915
-0.017903041 0.56699687 2.23086
-0.051582363 0.56392789 2.4084954
-0.086628668 0.55925131 2.6201386
0.056132548 0.5715782 2.0715027
0.029050913 0.56686437 2.2279775
0.0023437366 0.56178868 2.4044456
-0.025606312 0.55799633 2.6209738
0.098956168 0.57158673 2.0616977
0.076907143 0.56581891 2.2200599
0.055255223 0.56067097 2.3994331
0.03324005 0.55491167 2.6128135
0.14191478 0.5724684 2.0589085
0.12592083 0.56662482 2.2201571
0.10924926 0.56147701 2.3984365
0.094386525 0.55654764 2.6197004
0.18371594 0.57149869 2.0481045
0.1726009 0.56374598 2.2032251
0.16204056 0.55846822 2.3873899
0.15533398 0.55536509 2.6165369
-0.02611593 -0.059798401 0.050936799
0.21943857 0.56272221 2.1943266
0.21599716 0.55931038 2.3843939
0.21724382 0.55421513 2.6113553
0.14253694 0.30215377 1.1857113
-0.02611593 -0.059798401 0.050936799
-0.02611593 -0.059798401 0.050936799
0.27913493 0.5530833 2.6051741
0.1630789 0.29649547 1.1622163
0.31522292 0.56457639 2.1815624
0.14543965 0.24402626 1.1916074
-0.02611593 -0.059798401 0.050936799
0.35090974 0.56963778 2.0039258
0.35978314 0.55981362 2.1586344
0.20958129 0.30101991 1.4005082
0.39874941 0.5509966 2.5838895
0.29577968 0.42507753 1.5461878
0.26391882 0.35673466 1.460519
0.24713804 0.31037894 1.4279836
0.45964459 0.55086815 2.5777447
0.430363 0.5678575 1.9743959
0.45677024 0.56548268 2.15592
0.2834546 0.31595927 1.4434099
0.27634797 0.27895454 1.444874
0.47119093 0.56887305 1.9646466
0.49819997 0.56085736 2.1260505
0.31747493 0.31781888 1.4438066
0.57915068 0.54988986 2.5504806
0.51195872 0.56894296 1.9518802
0.54394811 0.56092739 2.1121907
0.58549058 0.55535442 2.3013763
0.34840667 0.28264117 1.4465922
0.5516519 0.56908888 1.9351341
0.58969629 0.56099743 2.0983305
0.63615912 0.55447906 2.2834058
0.38338941 0.28453332 1.4449708
0.59142375 0.57016212 1.9224045
0.63226873 0.55924141 2.0754941
0.68792886 0.55550933 2.2704506
0.75927109 0.54905444 2.5020766
0.62905324 0.56836981 1.9026608
0.67802083 0.56031126 2.0616522
0.44689733 0.31989461 1.4114101
0.81584483 0.54824799 2.4789948
0.66778797 0.56948292 1.8879509
0.71959341 0.55855888 2.0388343
0.47558853 0.31908014 1.3948525
0.87347847 0.54838347 2.4589117
-0.02611593 -0.059798401 0.050936799
-0.02611593 -0.059798401 0.050936799
-0.02611593 -0.059798401 0.050936799
-0.02611593 -0.059798401 0.050936799
0.39995906 0.28861097 1.0486001
0.39879218 0.25565633 1.0460249
0.50041801 0.29397762 1.283896
0.51796418 0.2662881 1.3180783
0.45425364 0.31425846 1.112069
0.54823554 0.346203 1.3169568
0.53652859 0.29975697 1.288326
1.0441139 0.54805076 2.3846858
0.82050925 0.57114202 1.8180978
0.50712919 0.30016959 1.1608407
0.98250365 0.5537231 2.1388586
1.0954785 0.5464614 2.3506837
0.85502696 0.56946898 1.7924125
0.94105965 0.56522268 1.9537797
1.0341877 0.55684352 2.1209412
1.1499256 0.54678857 2.3206601
0.89166445 0.56967986 1.7727237
0.9743371 0.55977106 1.9160452
1.0775499 0.55428302 2.0870717
1.2012902 0.54519922 2.286658
0.92622346 0.56897038 1.7490559
1.0138617 0.56007969 1.8903021
1.127193 0.55644697 2.0671744
1.25576 0.54650825 2.2576523
0.95874143 0.56730455 1.7234082
1.0564458 0.56132317 1.8675196
1.1685221 0.55492961 2.0313611
1.3050916 0.54596204 2.2217064
0.99332321 0.56757694 1.7007579
1.092907 0.55969715 1.8387978
1.212971 0.55529273 2.0015254
1.356483 0.54635423 2.18874
1.0330282 0.57072228 1.6840659
1.1303532 0.55908549 1.8090756
1.2543188 0.55375743 1.9667116
1.4078594 0.54776442 2.1547923
1.0593671 0.56624126 1.6494799
1.1698817 0.56039405 1.7833505
1.2998087 0.55508053 1.9388744
1.4540942 0.5463196 2.1138866
1.0939714 0.56749535 1.6278473
1.2073506 0.56076419 1.7546458
1.3401607 0.55454856 1.9040974
1.5013738 0.54683471 2.0749974
1.1295568 0.56876397 1.6051965
1.2427783 0.56017774 1.7239615
1.3804753 0.55405289 1.8673211
1.5486723 0.54733175 2.0371079
1.1579819 0.56720293 1.5746256
1.2771876 0.55961311 1.6922964
1.4208312 0.55452073 1.8325624
1.5918553 0.54695183 1.9932779
1.1874295 0.56661999 1.5450536
1.3177387 0.56189978 1.6675701
1.4642695 0.55690515 1.8017817
1.6381018 0.5485065 1.9524264
1.2250974 0.56980866 1.5263997
1.3490696 0.56041837 1.6319447
1.5025883 0.55741632 1.7650611
1.6803075 0.54911196 1.9096326
1.2555635 0.56920415 1.4978087
1.3845052 0.56183171 1.6012964
1.5388473 0.55698919 1.7253612
1.7224946 0.54973543 1.8658391
1.2901382 0.57249397 1.4742129
1.4178998 0.56228846 1.5686684
1.575129 0.55754381 1.6866788
1.7616221 0.54942423 1.819085
1.3216456 0.57284945 1.4476204
1.4492536 0.56178892 1.5340605
1.6134292 0.5580731 1.6489584
1.799735 0.55013436 1.7713683
1.3469964 0.57137156 1.4131074
1.4836746 0.56422365 1.5024494
1.6466554 0.55869275 1.6073334
1.8398889 0.55180109 1.725631
1.3825711 0.57465786 1.3894928
1.5170506 0.56469858 1.4688216
1.6778405 0.55835593 1.5637288
1.8800615 0.55344969 1.6808937
1.4089631 0.57414001 1.3569782
1.5443301 0.56428564 1.4302903
1.7141262 0.5599103 1.5250645
1.9131004 0.55425024 1.6292721
1.4353549 0.57362211 1.3244637
1.5736279 0.56384748 1.3927213
1.7453527 0.56053716 1.4834769
1.9502175 0.55596393 1.5815918
1.4617511 0.57410407 1.2919672
1.6050121 0.56632924 1.3591671
1.7775455 0.56219637 1.4398896
1.9802343 0.5557934 1.5290089
1.4932288 0.57649535 1.2634114
1.6302731 0.56594151 1.3196738
1.8117942 0.56379408 1.3992634
2.017359 0.55950671 1.481365
1.514539 0.57406819 1.2269561
1.6616158 0.5674597 1.2841024
1.8399651 0.56448597 1.3547333
2.0463574 0.55935794 1.4278011
1.5449834 0.57749903 1.196438
1.6888994 0.56804657 1.2455891
1.8701396 0.56617051 1.3101838
2.0743825 0.56119436 1.3752918
1.5734203 0.57893753 1.1659212
1.7151642 0.56865513 1.2060951
1.8952737 0.56690925 1.2637107
2.1054258 0.56300181 1.3237258
1.5926973 0.57755339 1.1275222
1.7485372 0.57314748 1.1715397
1.924467 0.56857932 1.2201797
2.1263924 0.56391776 1.2683312
1.620097 0.57903165 1.0950249
1.7697616 0.57281029 1.1301222
1.9485862 0.57033956 1.1727438
2.1493351 0.5638448 1.2118812
1.6414378 0.57958573 1.0596234
1.7919897 0.5734694 1.0887039
1.9757426 0.5720529 1.127251
2.1793861 0.56765556 1.16037
1.6678001 0.58110374 1.0251456
1.8162363 0.57410324 1.0482477
1.9948176 0.57186764 1.0778737
2.1963158 0.56862205 1.1030511
1.6911443 0.58265054 0.98972452
1.8404719 0.57675487 1.0068278
2.0169001 0.57367128 1.0284762
2.218286 0.57053429 1.0476555
1.7104251 0.58226633 0.9513436
1.8586407 0.57648277 0.96246779
2.0380197 0.57544243 0.9810968
2.2372375 0.57247525 0.99131674
1.7287102 0.58288556 0.91299945
1.8808728 0.57814169 0.92106748
2.0591209 0.57723153 0.93271762
2.2551899 0.57441986 0.93499666
1.7520545 0.58443236 0.87757832
1.9041086 0.58079684 0.87966645
2.0782039 0.57904595 0.88337648
2.2731602 0.57634646 0.87967634
1.7723205 0.58506238 0.83819699
1.9182595 0.58055717 0.83438188
2.0922649 0.57989657 0.83311158
2.2820537 0.5773778 0.82050842
1.7845428 0.58375776 0.79693055
1.9374547 0.58226305 0.79103857
2.1042855 0.57979071 0.78086692
2.2949882 0.57935846 0.76328272
1.8058498 0.58534795 0.75954777
1.9536277 0.58299798 0.74673408
2.1243942 0.58358306 0.73254263
2.3028817 0.58039337 0.70413357
1.8241013 0.58700317 0.71922225
1.970786 0.58474725 0.70142907
2.1313779 0.58353132 0.67839265
2.3087947 0.5814175 0.64602166
1.8383497 0.58767289 0.67895395
1.9849445 0.58650732 0.6561805
2.1494689 0.58734906 0.62910628
2.324755 0.58536893 0.5897752
1.853598 0.58833897 0.63866687
1.9980806 0.58728915 0.60993302
2.151468 0.58629733 0.5760318
2.3276682 0.58640379 0.53171974
1.8728681 0.5899725 0.59932238
2.0041914 0.58611447 0.56278139
2.1585119 0.58719116 0.52489877
2.3255599 0.58647472 0.47274053
1.8881012 0.59165657 0.55805361
2.0143511 0.58788884 0.51760799
2.1685591 0.58907408 0.47372735
2.3284957 0.58849132 0.4157027
1.9023349 0.59334427 0.51680362
2.0305133 0.5906415 0.47233984
2.1745839 0.5899896 0.42161345
2.3334355 0.59150052 0.35864532
1.9155461 0.59405375 0.47455481
2.0406351 0.59245205 0.42516708
2.1755915 0.59094113 0.36859384
2.3333533 0.59354591 0.30066419
1.9247391 0.5947957 0.43138146
2.0497572 0.59426618 0.3780131
2.1786211 0.5928672 0.31655428
2.3262641 0.59361684 0.24277858
1.9399577 0.59749764 0.3891311
2.0618827 0.59706932 0.33082083
2.1816506 0.59479326 0.26451477
2.321202 0.595662 0.18589108
1.9471285 0.59726501 0.34497765
-0.02611593 -0.059798401 0.050936799
1.2071234 0.30578843 0.14149106
2.3221612 0.5986675 0.12990852
1.1713831 0.33783028 0.20276058
1.0751439 0.28619322 0.14760968
1.2116061 0.30827668 0.11344261
2.3131139 0.59970921 0.074077815
1.0384176 0.29208985 0.16140862
1.078679 0.28763095 0.122561
1.2180737 0.31177562 0.084374972
2.3020861 0.60074002 0.01928436
1.034961 0.29053509 0.13743711
1.0782069 0.28708333 0.09755145
-0.02611593 -0.059798401 0.050936799
2.2860551 0.60078889 -0.035433155
1.0475436 0.29490381 0.11427268
1.0857493 0.2905063 0.072463661
2.1778545 0.60343796 0.0076551745
2.2930286 0.60777217 -0.091456398
1.0280477 0.28742558 0.089494035
1.083259 0.28998399 0.046492029
-0.02611593 -0.059798401 0.050936799
-0.02611593 -0.059798401 0.050936799
0.97151518 0.26908204 0.065212421
0.94570321 0.24788094 0.026299
1.1059164 0.28416529 -0.024061341
1.0599948 0.2581273 -0.067687362
0.90500635 0.24673884 0.043045968
1.0423205 0.2789979 -0.00095629692
1.06445 0.27373034 -0.046481334
0.99159962 0.24069999 -0.084727839
0.88462675 0.24015549 0.024302088
0.97888279 0.260589 -0.020108063
1.0529763 0.2722224 -0.071302213
0.99715006 0.24612986 -0.10974202
0.88423359 0.24053536 0.0033092052
1.0503983 0.28386933 -0.051036395
0.97061616 0.24879211 -0.085188746
1.0725228 0.27154022 -0.14870675
0.87484908 0.23792996 -0.016568955
1.0519378 0.28631404 -0.076029465
0.95021093 0.24524443 -0.10587789
1.0440964 0.26703951 -0.17026326
0.9914003 0.27706417 -0.049054224
0.95459431 0.25690243 -0.087742932
1.0226218 0.27062938 -0.14278695
0.97581351 0.24950369 -0.18130577
1.0529138 0.2993806 -0.079812661
0.90226406 0.24236293 -0.10203102
1.0530828 0.28307685 -0.17414272
0.94846183 0.24492703 -0.19888242
0.94460493 0.26395524 -0.088428572
0.91683555 0.24874221 -0.12619664
0.97384226 0.26152694 -0.18205161
0.92111009 0.24035041 -0.21645905
0.87630624 0.24242006 -0.099543147
1.0470856 0.29313287 -0.17584911
0.90562642 0.24191906 -0.18913151
0.92167628 0.24478027 -0.24039765
0.87391347 0.24280712 -0.12049844
0.95986849 0.26757616 -0.18168044
0.90520757 0.2453346 -0.21206968
0.91725433 0.24721035 -0.26327863
0.98423731 0.28118008 -0.16488491
0.89166737 0.24695037 -0.1877787
0.89082783 0.24374698 -0.23183586
0.20564212 0.016799577 -0.032044876
0.95188951 0.27260402 -0.18144003
0.88227189 0.24636275 -0.20862047
0.90433252 0.25220188 -0.2599453
0.1886256 0.011861443 -0.031815529
0.89265716 0.2539818 -0.1896707
0.88285285 0.24977469 -0.23157743
0.20266533 0.017792094 -0.030970827
-0.02611593 -0.059798401 0.050936799
0.86335021 0.24635857 -0.20426482
-0.02611593 -0.059798401 0.050936799
0.19756868 0.016900644 -0.035893198
0.1655688 0.0059811822 -0.033490784
0.8719002 0.25177765 -0.22933537
0.21857755 0.024842013 -0.03714332
-0.02611593 -0.059798401 0.050936799
-0.02611593 -0.059798401 0.050936799
0.88641942 0.25921103 -0.25648195
0.19260705 0.016882412 -0.033799924
0.1695424 0.0090025039 -0.035511211
0.14156835 5.0254166e-05 -0.032148257
0.20962752 0.022820383 -0.034011252
-0.02611593 -0.059798401 0.050936799
-0.02611593 -0.059798401 0.050936799
-0.02611593 -0.059798401 0.050936799
0.18664168 0.015867943 -0.031705875
0.17153116 0.011013069 -0.036512423
0.14752285 0.0030824761 -0.035205927
0.12650314 -0.0028411332 -0.034919437
-0.02611593 -0.059798401 0.050936799
-0.02611593 -0.059798401 0.050936799
-0.02611593 -0.059798401 0.050936799
-0.02611593 -0.059798401 0.050936799
0.16359967 0.0089697707 -0.032399483
0.15149647 0.0061037834 -0.037226364
0.13049154 -0.00083774584 -0.035958234
0.10555831 -0.0088371029 -0.030634303
-0.02611593 -0.059798401 0.050936799
-0.02611593 -0.059798401 0.050936799
-0.02611593 -0.059798401 0.050936799
-0.02611593 -0.059798401 0.050936799
0.14057638 0.0020535006 -0.032093428
0.13345747 0.0001874998 -0.037995905
0.11347894 -0.0047760494 -0.035710867
0.096499853 -0.009750369 -0.033482186
-0.02611593 -0.059798401 0.050936799
-0.02611593 -0.059798401 0.050936799
-0.02611593 -0.059798401 0.050936799
-0.02611593 -0.059798401 0.050936799
0.11957145 -0.0048880284 -0.030825298
0.11347894 -0.0047760494 -0.035710867
0.097499669 -0.0097539583 -0.033500977
0.083505243 -0.013721118 -0.032310329
