# .PCD v0.7 - Point Cloud Data file format
VERSION 0.7
FIELDS x y z
SIZE 4 4 4
TYPE F F F
COUNT 1 1 1
WIDTH 1394
HEIGHT 1
VIEWPOINT 0 0 0 1 0 0 0
POINTS 1394
DATA ascii
-0.02611593 -0.059798401 0.050936799
-0.10936007 -0.0020845947 -0.025486566
-0.02611593 -0.059798401 0.050936799
-0.02611593 -0.059798401 0.050936799
-0.12237943 0.0019975547 -0.027169533
-0.02611593 -0.059798401 0.050936799
-0.14536645 0.0090970034 -0.027610887
-0.13739449 0.0070867124 -0.028796904
-0.02611593 -0.059798401 0.050936799
-0.1193987 0.0020048772 -0.028225575
-0.02611593 -0.059798401 0.050936799
-0.02611593 -0.059798401 0.050936799
-0.13034745 0.0050076689 -0.025965497
-0.02611593 -0.059798401 0.050936799
-0.15634872 0.013135796 -0.02733212
-0.15545338 0.015240404 -0.033312839
-0.02611593 -0.059798401 0.050936799
-0.12736674 0.0050149914 -0.027021527
-0.02611593 -0.059798401 0.050936799
-0.02611593 -0.059798401 0.050936799
-0.14539604 0.011132835 -0.029574171
-0.02611593 -0.059798401 0.050936799
-0.16930406 0.019163348 -0.025980063
-0.16135475 0.016171321 -0.028183766
-0.02611593 -0.059798401 0.050936799
-0.13735311 0.0080503728 -0.026779566
-0.02611593 -0.059798401 0.050936799
-0.02611593 -0.059798401 0.050936799
-0.15332663 0.014106772 -0.026370805
-0.02611593 -0.059798401 0.050936799
-0.18527758 0.025219746 -0.025571305
-0.17937227 0.025288658 -0.030682363
-0.02611593 -0.059798401 0.050936799
-0.14732078 0.011067657 -0.025537945
-0.02611593 -0.059798401 0.050936799
-0.02611593 -0.059798401 0.050936799
-0.16730443 0.019156169 -0.026017644
-0.02611593 -0.059798401 0.050936799
-0.20324285 0.033282984 -0.025088929
-0.1983413 0.032355662 -0.030199211
-0.02611593 -0.059798401 0.050936799
-0.15728845 0.014084949 -0.024296325
-0.02611593 -0.059798401 0.050936799
-0.02611593 -0.059798401 0.050936799
-0.18329665 0.025230657 -0.026608557
-0.02611593 -0.059798401 0.050936799
-0.2282138 0.044388928 -0.025420625
-0.21529196 0.039397392 -0.028753981
-0.02611593 -0.059798401 0.050936799
-0.17629099 0.022187956 -0.025794476
-0.02611593 -0.059798401 0.050936799
-0.02611593 -0.059798401 0.050936799
-0.20427617 0.034322582 -0.027051434
-0.02611593 -0.059798401 0.050936799
-0.25915313 0.058497798 -0.024585862
-0.23822977 0.04946015 -0.027141947
-0.02611593 -0.059798401 0.050936799
-0.19527873 0.029273041 -0.026310991
-0.02611593 -0.059798401 0.050936799
-0.02611593 -0.059798401 0.050936799
-0.22823253 0.044407018 -0.026420277
-0.02611593 -0.059798401 0.050936799
-0.95344651 0.40655911 -0.20635235
-0.26614007 0.06152242 -0.024400275
-0.02611593 -0.059798401 0.050936799
-0.21522494 0.037325375 -0.024791367
-0.9731158 0.41334024 -0.18985584
-0.02611593 -0.059798401 0.050936799
-0.25416583 0.055480368 -0.024733871
-0.02611593 -0.059798401 0.050936799
-0.96868289 0.40889245 -0.16601121
-0.95531207 0.40242222 -0.19838959
-0.02611593 -0.059798401 0.050936799
-0.24419121 0.049445502 -0.025029887
-0.98432332 0.41362339 -0.14762658
-0.97294819 0.40816021 -0.17994931
-0.95055735 0.39762223 -0.21056953
-0.02611593 -0.059798401 0.050936799
-0.9949311 0.4173004 -0.12735456
-0.96953779 0.40273428 -0.15710358
-0.96117687 0.39829969 -0.19035161
-0.93577969 0.38473338 -0.2200826
-1.0135633 0.42404181 -0.10887754
-0.98816985 0.40947565 -0.13862653
-0.96778637 0.39694515 -0.16924521
-0.95643783 0.38950041 -0.20260367
-1.0181464 0.42466164 -0.086773023
-0.99978137 0.41215643 -0.11835376
-0.97840208 0.39862254 -0.14900926
-0.96905321 0.39118493 -0.18233013
-1.0297501 0.42934206 -0.066464208
-1.0144032 0.41686568 -0.098988257
-1.012064 0.41147095 -0.13314122
-0.99071127 0.39595553 -0.1648324
-1.0423349 0.434008 -0.045136951
-1.0259961 0.41952839 -0.077715844
-1.0166364 0.41007304 -0.11007307
-1.0012934 0.39659688 -0.14261514
-1.0459183 0.43462422 -0.023051232
-1.0365666 0.42316923 -0.055444524
-1.0282332 0.41173592 -0.088818669
-1.0149084 0.398285 -0.12232281
-1.074465 0.44834608 -0.0012611672
-1.0541651 0.42887104 -0.035004951
-1.0378115 0.4133735 -0.066602178
-1.0224764 0.39789766 -0.099180281
-1.0830395 0.45097986 0.020954542
-1.0647355 0.43251187 -0.012733646
-1.0563912 0.4190608 -0.045144171
-1.0340544 0.39954242 -0.076926224
-1.1175545 0.46770465 0.04391107
-1.0832739 0.43916282 0.010741711
-1.0659472 0.42168015 -0.021910012
-1.0576295 0.4062475 -0.055356234
-0.02611593 -0.059798401 0.050936799
-1.0888345 0.44076797 0.0338827
-1.0805168 0.42533529 0.00043646991
-1.0711844 0.40888116 -0.032046907
-1.1555927 0.48599121 0.091970317
-1.1183472 0.45345739 0.057672855
-1.0930493 0.42894715 0.024744682
-1.0727427 0.40645456 -0.0080534965
-1.1750857 0.49460921 0.11749983
-1.129876 0.45806548 0.081980303
-1.1065817 0.43256259 0.049071699
-1.0952804 0.41311988 0.015497014
-1.1795824 0.49815622 0.14365704
-1.1613472 0.47172573 0.10782538
-1.1220871 0.43816677 0.074471988
-1.1067982 0.41571018 0.040768091
-1.1910659 0.50472772 0.16999984
-0.02611593 -0.059798401 0.050936799
-1.1276288 0.43975383 0.098612621
-1.1203119 0.41930756 0.066094764
-1.221477 0.51932991 0.19884315
-1.1882986 0.48386529 0.16156781
-1.1540939 0.4503786 0.12530936
-0.02611593 -0.059798401 0.050936799
-1.2279506 0.52386582 0.22605562
-1.2226825 0.50046343 0.19152196
-0.02611593 -0.059798401 0.050936799
-1.159276 0.43250808 0.11908101
-1.2612746 0.54140592 0.25900799
-1.239105 0.50799841 0.2209757
-1.2228773 0.47957548 0.18514559
-0.02611593 -0.059798401 0.050936799
-1.2915989 0.55893523 0.29190397
-1.2585005 0.51752579 0.25152153
-1.199438 0.46802449 0.21050641
-1.2021232 0.44661427 0.17815842
-1.4541423 0.64044261 0.35544312
-1.2738856 0.52502114 0.28295583
-1.2716024 0.5006116 0.24946019
-1.1886437 0.44008023 0.20479688
-1.4595 0.64586622 0.38865283
-1.2972124 0.53750813 0.31662986
-1.2571229 0.4940739 0.27607983
-0.02611593 -0.059798401 0.050936799
-1.4161479 0.62729895 0.41051272
-1.3374109 0.55796432 0.35576576
-1.2983667 0.51257026 0.31319919
-0.02611593 -0.059798401 0.050936799
-1.4463185 0.64568335 0.451424
-1.3507365 0.56639796 0.39017949
-1.3176683 0.52200723 0.34874335
-1.2676642 0.47159261 0.30488032
-1.4337857 0.64311606 0.48015264
-1.5199937 0.64865899 0.46886313
-1.3439196 0.53443259 0.38647237
-1.286974 0.47902986 0.34038842
-1.4133073 0.63655686 0.50665957
-1.5054129 0.64403057 0.50051713
-1.4436307 0.58073795 0.44719744
-1.3430228 0.50341618 0.38689467
-1.406724 0.63697439 0.53755432
-1.491828 0.6404056 0.53220797
-1.5770104 0.64290929 0.52284491
-1.3751714 0.51777232 0.4297708
-1.3931874 0.63540334 0.56628221
-1.4832115 0.63977993 0.56504649
-1.5762724 0.64420348 0.56186777
-1.6704237 0.64470363 0.55463713
-1.3836087 0.63481027 0.59710264
-1.4735767 0.63913262 0.59886587
-1.5626273 0.64152402 0.59657556
-1.6616802 0.64295149 0.59445524
-1.3720677 0.63424623 0.62588608
-1.4629793 0.63851786 0.63066709
-1.5529401 0.63982254 0.63337588
-1.6549137 0.64218831 0.63532859
-1.3605269 0.63368219 0.65466952
-1.4543403 0.63887393 0.66452324
-1.5492027 0.64110601 0.6723423
-1.6471325 0.64040369 0.67716479
-1.3558941 0.63707018 0.68765527
-1.4407474 0.63724864 0.69625008
-1.5335767 0.63843751 0.70601296
-1.6373665 0.63962972 0.71798182
-1.3433533 0.6365025 0.71641999
-1.4291354 0.63561243 0.72901422
-1.523867 0.63771778 0.74383098
-1.6315773 0.63985187 0.75989163
-1.3268547 0.6349569 0.74309212
-1.417497 0.63595766 0.76281399
-1.5121762 0.63700902 0.78061169
-1.6168387 0.63707834 0.79957891
-1.3143138 0.63438922 0.77185684
-1.4049002 0.6353358 0.7945776
-1.4945507 0.63433337 0.81424469
-1.5991195 0.63431221 0.83821023
-1.3007693 0.63481784 0.80062073
-1.3893263 0.63372141 0.82526726
-1.4838558 0.634628 0.8510623
-1.5913078 0.63550895 0.88110012
-1.2734126 0.62634242 0.82096213
-1.37273 0.63308507 0.85695577
-1.4672072 0.63293761 0.88573176
-1.5795048 0.6346916 0.92387891
-1.2707262 0.63370079 0.85605681
-1.3581336 0.632456 0.88868189
-1.4544942 0.63320702 0.92351145
-1.5627815 0.63292891 0.962547
-1.2532278 0.63215154 0.88271022
-1.342556 0.63184142 0.91938949
-1.4388229 0.63250196 0.95921737
-1.5479938 0.63311875 1.0042877
-1.2357292 0.63060224 0.90936363
-1.3230016 0.63023067 0.94900429
-1.4231477 0.6327967 0.99494123
-1.5292522 0.63133073 1.043918
-1.2221808 0.63203073 0.93814558
-1.3064054 0.62959445 0.9806928
-1.3995645 0.62913585 1.0264442
-1.508548 0.6295718 1.0815113
-1.1987661 0.62853265 0.96065152
-1.2898241 0.62997609 1.0113997
-1.3809165 0.62743837 1.061076
-1.4897838 0.62876552 1.1221591
-1.1803054 0.62701595 0.98528677
-1.2673156 0.62639117 1.0389228
-1.3612833 0.62675512 1.0947076
-1.46808 0.62700295 1.1597337
-1.1608406 0.62649554 1.0099213
-1.2457952 0.62580931 1.0665187
-1.3347381 0.62311965 1.1241548
-1.4433995 0.62424785 1.196234
-1.1423385 0.62594253 1.0365739
-1.2233016 0.62324226 1.09306
-1.3160635 0.62340367 1.1598223
-1.418734 0.62251067 1.2317528
-1.1179804 0.62249511 1.0560621
-1.2027436 0.62262779 1.1226741
-1.2924725 0.62174243 1.1913613
-1.3959891 0.62170821 1.2713261
-1.0994741 0.62294191 1.0827328
-1.1792462 0.62105697 1.1492147
-1.2669232 0.61911035 1.2208453
-1.3654072 0.61802208 1.3026973
-1.0800095 0.6224215 1.1073673
-1.1557528 0.6184864 1.1757373
-1.2403703 0.61747462 1.2503287
-1.3377647 0.61529255 1.337142
-1.059545 0.62189752 1.131983
-1.1332287 0.61890078 1.2033325
-1.2167753 0.61681318 1.2818856
-1.3120539 0.61551517 1.3746774
-1.0400538 0.62335873 1.1576532
-1.1087729 0.61636281 1.2278371
-1.1911808 0.6161446 1.313405
-1.286343 0.61573792 1.4122128
-1.0146772 0.61988962 1.1781222
-1.0872071 0.61774439 1.2574682
-1.1636467 0.61452335 1.3418697
-1.2537804 0.61206281 1.4425468
-0.99325037 0.61939812 1.2007198
-1.0597706 0.61521375 1.2809167
-1.1370898 0.61388731 1.371371
-1.2212136 0.60938752 1.4728991
-0.9698239 0.61889952 1.2232798
-1.0352694 0.61463916 1.3074566
-1.1124537 0.61418599 1.4049265
-1.1954576 0.61157376 1.5124699
-0.94348079 0.61646295 1.2417488
-1.0078478 0.6131264 1.3299235
-1.0829161 0.61355734 1.4333719
-1.1638453 0.61086559 1.5448762
-0.92301244 0.61693871 1.2663826
-0.97943002 0.61061019 1.3523536
-1.05242 0.61196148 1.4597809
-1.1283166 0.60821569 1.5731726
-0.89666545 0.61550194 1.2848696
-0.95492107 0.61203533 1.3789295
-1.0219426 0.61038357 1.4851904
-1.093765 0.60655117 1.6025056
-0.87225789 0.61501783 1.3064111
-0.92552233 0.60953361 1.400341
-0.98850709 0.6078313 1.5085262
-1.0592136 0.60488665 1.6318384
-0.84978598 0.61648625 1.3310254
-0.89711952 0.60803533 1.4217894
-0.96090508 0.6091553 1.540044
-1.0236583 0.60421836 1.6611707
-0.8224805 0.61408222 1.3474762
-0.86771297 0.60753328 1.4432369
-0.92454904 0.60566479 1.5593066
-0.99292183 0.60640472 1.6996478
-0.79611081 0.61362714 1.3669808
-0.83925003 0.60698062 1.4677025
-0.89400762 0.60603237 1.5877513
-0.94958967 0.60190743 1.7177613
-0.76976383 0.61219031 1.3854678
-0.80984342 0.60647851 1.4891502
-0.86249989 0.60743237 1.6141955
-0.91209096 0.60128623 1.7440568
-0.74143583 0.61076438 1.4029175
-0.78139526 0.60694367 1.5126337
-0.82612127 0.60492361 1.6344759
-0.8755132 0.60159606 1.774388
-0.71314532 0.60937464 1.418368
-0.74812829 0.6045543 1.5269727
-0.78879887 0.60246563 1.6517385
-0.83607495 0.60002214 1.7976289
-0.68581724 0.6079523 1.4358366
-0.71772188 0.60404873 1.5484014
-0.75529552 0.6028586 1.6781273
-0.7956329 0.59944445 1.8208692
-0.65750408 0.6075443 1.4523046
-0.68537205 0.60359013 1.5667937
-0.71797299 0.60040051 1.6953899
-0.75325525 0.59691417 1.8410369
-0.6282137 0.60615098 1.4677362
-0.65206367 0.60216433 1.5831499
-0.680628 0.59892422 1.7136703
-0.71186948 0.59638715 1.8612592
-0.59990054 0.60574299 1.4842043
-0.62069488 0.60169131 1.6025605
-0.64423746 0.59941494 1.7340046
-0.66852951 0.59388953 1.8794088
-0.57156867 0.60531688 1.501672
-0.58544707 0.59931284 1.6158621
-0.6049903 0.59702212 1.7472311
-0.62710249 0.59432614 1.9016486
-0.54318756 0.60785407 1.5211931
-0.55119509 0.59793776 1.6292003
-0.56760395 0.59650946 1.7675288
-0.58371717 0.59379196 1.9218335
-0.51104063 0.60357714 1.5295169
-0.51978099 0.59942818 1.6506464
-0.53019089 0.59797829 1.788862
-0.53942955 0.59234482 1.9369833
-0.47980681 0.60223091 1.541912
-0.48446912 0.59899503 1.666983
-0.48998147 0.59561813 1.8000703
-0.49510071 0.59186125 1.9541503
-0.45144835 0.60378635 1.5604154
-0.4492735 0.59767067 1.6773036
-0.45160609 0.59711957 1.8193855
-0.44985071 0.59044665 1.9672822
-0.42017317 0.60340375 1.5748277
-0.41489741 0.59918642 1.696694
-0.41137397 0.59574103 1.8316114
-0.40361968 0.58904654 1.9793954
-0.38799575 0.60210818 1.5842052
-0.3786419 0.598804 1.7100128
-0.36928505 0.5914824 1.8367481
-0.3593055 0.58958101 1.9955807
-0.35573947 0.60174012 1.597599
-0.34157076 0.59458148 1.7142438
-0.3281467 0.59019077 1.8439571
-0.31213081 0.58823156 2.0046761
-0.32262233 0.59949541 1.6039405
-0.30529258 0.59518081 1.7285802
-0.28780913 0.59172124 1.8612354
-0.26593328 0.5878675 2.0148082
-0.29132447 0.6000945 1.6193707
-0.26813474 0.59388536 1.736864
-0.24657324 0.59133893 1.8734605
-0.21875462 0.58751792 2.0239215
-0.25812459 0.5997771 1.6297468
-0.2310144 0.59262609 1.7431483
-0.204375 0.59098929 1.8836676
-0.17165482 0.58624089 2.0290184
-0.22488332 0.6004234 1.6421404
-0.19373249 0.59422171 1.757484
-0.16223289 0.59069383 1.8908758
-0.12367539 0.58306915 2.0280623
-0.19078504 0.59819317 1.6474633
-0.15653332 0.59388989 1.7677851
-0.11915108 0.58944917 1.895048
-0.076372646 0.58561051 2.0432279
-0.15658531 0.59787214 1.6578208
-0.11759362 0.58978677 1.7649809
-0.076967604 0.59011739 1.9042734
-0.029268909 0.58533329 2.0483427
-0.12346029 0.5976271 1.6641983
-0.079409406 0.5904693 1.7742814
-0.034005977 0.58698171 1.9024117
0.017575726 0.58129197 2.0403898
-0.088422313 0.59444773 1.6664857
-0.041243929 0.59116995 1.7825823
0.0089970231 0.58480954 1.9025674
0.0645632 0.58012342 2.0394888
-0.053297661 0.59419549 1.6728256
-0.0021426491 0.58992159 1.7878295
0.051124323 0.58553213 1.9087938
0.11363305 0.5808751 2.0425844
-0.018214377 0.59297955 1.6771481
0.035883911 0.58874923 1.7890967
0.095172442 0.58531994 1.9109659
0.16166565 0.58166647 2.0436997
0.015933109 0.59371269 1.6845247
0.074910298 0.58757329 1.7903451
0.13708201 0.58324188 1.906142
-0.02611593 -0.059798401 0.050936799
0.052016214 0.59249318 1.6888283
0.11501923 0.58832103 1.7956095
0.18109268 0.58306587 1.906315
0.13561402 0.30712378 1.1889317
0.087001942 0.59036797 1.6881347
0.15398945 0.58719933 1.793859
-0.02611593 -0.059798401 0.050936799
0.16017006 0.30043322 1.1663433
0.12408878 0.59014469 1.6924378
-0.02611593 -0.059798401 0.050936799
0.26808068 0.58375347 1.9046983
0.34898198 0.57359004 2.0070343
0.11269613 0.42463768 1.2775166
0.23510961 0.58778179 1.7993526
-0.02611593 -0.059798401 0.050936799
0.28456089 0.40622026 1.485036
0.13622184 0.41496921 1.2538933
0.27401972 0.58571452 1.7945852
0.19650683 0.31498542 1.1279132
0.44384137 0.57537538 1.9982877
0.23548129 0.59436566 1.7114351
0.27152517 0.50373775 1.5710732
0.21700349 0.30736366 1.102383
0.4916828 0.57534778 1.9893885
0.27241048 0.59228742 1.7077047
0.3505249 0.57787365 1.7690023
0.23974016 0.30351692 1.0888832
0.53850967 0.57634169 1.9795264
0.2738277 0.52246565 1.530355
0.39370516 0.58255571 1.7772813
-0.02611593 -0.059798401 0.050936799
0.58317524 0.57448816 1.9616505
0.34737411 0.5910365 1.7052778
-0.02611593 -0.059798401 0.050936799
0.28754026 0.30252573 1.0779666
0.62786353 0.57361615 1.9447923
0.38532972 0.5909363 1.7025644
-0.02611593 -0.059798401 0.050936799
0.31456184 0.3044104 1.0784948
0.67471302 0.57559186 1.9359479
0.42220277 0.58891243 1.6958352
-0.02611593 -0.059798401 0.050936799
0.33736652 0.30350894 1.068048
-0.02611593 -0.059798401 0.050936799
0.46017712 0.58879411 1.6941214
-0.02611593 -0.059798401 0.050936799
0.36229095 0.30449137 1.0635977
0.39681193 0.27973181 1.0424963
0.49699396 0.58682448 1.6843933
-0.02611593 -0.059798401 0.050936799
0.38297185 0.30070612 1.0471364
0.45512453 0.30534685 1.1068897
0.53594941 0.58672071 1.681661
0.63600147 0.58131689 1.737709
0.42046157 0.31213713 1.0706493
0.84822363 0.5723573 1.8556136
0.57484865 0.58667117 1.6759299
-0.02611593 -0.059798401 0.050936799
0.6136052 0.44504228 1.4235568
0.89081866 0.57158309 1.8337947
0.612688 0.58567971 1.6672007
0.62548661 0.50340432 1.5124203
0.81947649 0.57615429 1.7621888
0.93345904 0.57277226 1.8140112
-0.02611593 -0.059798401 0.050936799
0.6226722 0.47204158 1.421875
0.86114657 0.57531124 1.7443874
0.9740169 0.57204133 1.7902305
0.6087386 0.51321995 1.4708972
0.79718947 0.58249509 1.6926972
0.90182471 0.57647139 1.7266407
1.0145415 0.57234645 1.7644686
0.63213325 0.5036782 1.4402763
0.83171397 0.57780439 1.6679575
0.93835688 0.57377332 1.7018995
1.0551033 0.57261533 1.740706
0.76493675 0.58281845 1.6262844
0.87250841 0.57985592 1.656227
0.9790163 0.57495159 1.6831533
1.0925682 0.57198566 1.7119833
0.80374235 0.5828594 1.6155549
0.91015661 0.57804543 1.637483
1.0155334 0.57327139 1.6574304
1.132074 0.57231236 1.6852406
0.84152949 0.58292198 1.6038446
0.94781256 0.57823467 1.618775
1.0520735 0.57257289 1.6327254
1.1685389 0.57168633 1.6565369
0.87719673 0.58110064 1.5861379
0.98546475 0.57742411 1.600049
1.0916917 0.57279116 1.6119804
1.2070303 0.57303452 1.628831
0.91696471 0.58117414 1.5733904
1.025143 0.57858789 1.5823213
1.126176 0.57215405 1.5843139
1.2414209 0.57248795 1.5961663
0.95363575 0.58034909 1.5556829
1.0627764 0.57779539 1.5625956
1.1627198 0.57245547 1.5596268
1.2799348 0.57481796 1.5694783
0.98826188 0.57756758 1.5359776
1.0993538 0.5770607 1.5398898
1.1992451 0.57277489 1.5339401
1.3122842 0.57331491 1.5348337
1.0321198 0.58155376 1.5272256
1.1369764 0.57828599 1.5192006
1.2347329 0.57313406 1.5062727
1.3487573 0.57468843 1.506166
1.0687534 0.58076483 1.5075188
1.1715167 0.57759458 1.4945329
1.2712394 0.57347161 1.4795862
1.3800921 0.57420689 1.4705585
1.1064093 0.58095407 1.4888108
1.2080981 0.57785982 1.4718453
1.3098321 0.57672906 1.456915
1.4083904 0.57377225 1.4330081
1.1440654 0.58114326 1.4701029
1.2426009 0.5772047 1.4451784
1.3422416 0.57617158 1.4252874
1.442826 0.57518917 1.4023787
1.18168 0.58036882 1.4493777
1.2822269 0.57942259 1.4244696
1.378752 0.57750893 1.3986189
1.4731877 0.57669276 1.3678256
1.2172616 0.58063757 1.4267086
1.3177524 0.57974559 1.3988016
1.4091246 0.57699484 1.3650297
1.4974039 0.57434517 1.3263158
1.257921 0.5818159 1.4079623
1.351218 0.57913023 1.370154
1.439501 0.57748049 1.3314582
1.5338697 0.57873631 1.2967024
1.2965245 0.58305562 1.3862547
1.3816279 0.5785799 1.3385642
1.4719145 0.57792282 1.2998488
1.5560901 0.5773958 1.2552481
1.3279866 0.5814476 1.3576268
1.4160973 0.57896078 1.309916
1.5043321 0.57936496 1.2682571
1.5823925 0.57796812 1.2177532
1.3645304 0.58174896 1.3329396
1.4485483 0.57936692 1.2803056
1.5316677 0.57889777 1.2327248
1.6157988 0.58142442 1.1851792
1.4010556 0.58206838 1.307253
1.4789582 0.57881659 1.2487158
1.5610296 0.58040494 1.1981907
1.638023 0.58108371 1.143743
1.4345025 0.58147115 1.2776058
1.5144167 0.58121163 1.219085
1.5903915 0.5819121 1.1636566
1.6582476 0.58075023 1.1023443
1.4649086 0.57992095 1.2459977
1.5478526 0.58263212 1.1884743
1.61569 0.58148825 1.1261625
1.6805172 0.58237296 1.0629432
1.5003964 0.58028018 1.2183305
1.575207 0.58214676 1.1539418
1.6409925 0.58206421 1.0886865
1.703764 0.58301038 1.0225059
1.5338473 0.58068269 1.1887014
1.6076057 0.58360708 1.1213505
1.6632543 0.58168733 1.0492495
1.7240111 0.58365852 0.98212487
1.5723425 0.58303082 1.1610137
1.638986 0.58508903 1.0877784
1.6885568 0.58226335 1.0117735
1.7442436 0.58532465 0.94076216
1.6047374 0.58349127 1.1284045
1.6642846 0.58466518 1.0502845
1.7138633 0.58383912 0.97431546
1.7654946 0.58696908 0.90038031
1.6330688 0.58202058 1.0928354
1.6906017 0.58421957 1.0137713
1.7371286 0.58445847 0.93487763
1.7796828 0.58669323 0.85709506
1.6684898 0.58445179 1.0612055
1.7189263 0.58576661 0.97725654
1.7583756 0.58510309 0.8944779
1.8009417 0.5903374 0.81674922
1.7008471 0.58494842 1.0265969
1.7381471 0.58443677 0.93585855
1.7816449 0.58672225 0.85505807
1.8171524 0.59103614 0.77444404
1.7311863 0.58547032 0.99102634
1.7745383 0.58890027 0.90224659
1.8028961 0.58836675 0.81467634
1.8303258 0.5917818 0.73019588
1.7625065 0.58600664 0.9544372
1.7998034 0.58951247 0.86277127
1.8170843 0.58809084 0.77139097
1.8415188 0.59251654 0.68698496
1.7948343 0.58853912 0.91786534
1.819028 0.58918244 0.82139128
1.8383353 0.58973533 0.73100924
1.8537112 0.59324771 0.64375526
1.8180729 0.58717686 0.87739187
1.8402565 0.58984518 0.77999181
1.8505052 0.58948469 0.6867618
1.8669075 0.59497511 0.60052484
1.8554225 0.59067309 0.84174383
1.8644843 0.59049708 0.73853594
1.87176 0.59212899 0.64639801
1.8781002 0.59570986 0.55731386
1.8856945 0.59326696 0.80221045
1.8846941 0.59118146 0.69615561
1.8879559 0.59384567 0.60311115
1.8822528 0.59550613 0.51221722
1.9048553 0.59099162 0.75779557
1.9008859 0.59189826 0.65285075
1.9041516 0.59556228 0.55982429
1.8944532 0.59823692 0.46902353
1.9361271 0.59358186 0.71824348
1.9261214 0.59454632 0.61141211
1.9153255 0.59631515 0.51561373
1.9046501 0.59997517 0.42584941
1.962321 0.59526271 0.67476875
1.9372687 0.59331757 0.56616586
1.9274993 0.59706444 0.47138435
1.9047809 0.598804 0.37981015
1.9804672 0.5940088 0.62939095
1.957445 0.595038 0.52180415
1.9376737 0.59782088 0.4271926
1.9109784 0.60055649 0.33671123
2.0016205 0.59474385 0.58399284
1.9806474 0.59872919 0.47842181
1.9478331 0.59959519 0.38201919
1.1482867 0.34102085 0.19724883
2.0257776 0.59646797 0.53855634
1.9917799 0.59851831 0.43219391
1.9389123 0.59449321 0.33407763
-0.02611593 -0.059798401 0.050936799
2.0428903 0.59625375 0.491216
2.0069199 0.60029286 0.38592687
1.1622232 0.33500782 0.19487834
0.99983639 0.29078734 0.13109714
2.0660286 0.59799951 0.44479865
2.023078 0.60204566 0.34064069
1.0262583 0.28927812 0.15358275
0.93825561 0.26949838 0.1048561
2.0791047 0.59783584 0.39553419
-0.02611593 -0.059798401 0.050936799
1.0318117 0.2906906 0.12949619
0.87973827 0.25014409 0.081593715
2.0962029 0.59863949 0.3472122
1.0552263 0.28719249 0.15200216
1.0343618 0.29111394 0.10544795
0.87534183 0.24953848 0.060657978
2.1233332 0.60338849 0.29977408
1.0697861 0.29057232 0.12778248
1.0258833 0.28859538 0.080552682
0.86095428 0.24595118 0.04085575
-0.02611593 -0.059798401 0.050936799
1.0733173 0.29101017 0.10271579
0.97135061 0.27024466 0.056233488
0.84558165 0.24134953 0.022053955
1.1649171 0.30413851 0.13124794
1.0828552 0.29342616 0.07757239
0.86583924 0.23600729 0.036582973
0.80319738 0.22782826 0.0045970008
1.1954336 0.31151447 0.10380071
1.0833644 0.29289302 0.051544394
0.89748335 0.24727045 0.015186993
0.8408522 0.24206936 -0.016857665
1.2189245 0.31693396 0.075449318
0.98180377 0.26069528 0.028855763
0.88107353 0.24270861 -0.0055953339
0.83249009 0.24044213 -0.035736941
2.1865132 0.60879314 0.041601434
1.0733954 0.28984857 0.00065871701
0.88568723 0.24507019 -0.026646134
0.99598038 0.29953089 -0.075742617
2.1825433 0.60572714 -0.0093969796
1.0529262 0.28435552 -0.023065444
1.0631789 0.30510858 -0.066896863
0.95461851 0.28698778 -0.092200689
2.2055511 0.61261684 -0.063721552
1.0614456 0.2867932 -0.049189717
1.0377442 0.29859743 -0.088545769
0.8833313 0.26344565 -0.10229527
-0.02611593 -0.059798401 0.050936799
1.0489639 0.28328913 -0.074027829
0.92344713 0.26117584 -0.09608531
0.82606506 0.24585225 -0.1125448
1.0702274 0.26990849 -0.057662427
0.94663227 0.25187773 -0.084683724
0.86814708 0.24461126 -0.10835373
0.82270986 0.2462067 -0.13148201
1.0107743 0.25250316 -0.07787101
0.93721408 0.25030831 -0.10654318
0.85579652 0.24098057 -0.12619421
0.95694941 0.297618 -0.18308285
1.0003297 0.24895577 -0.10074737
1.0096172 0.27369362 -0.14348826
1.0129579 0.29739892 -0.18313545
0.89074796 0.27698508 -0.18921869
1.0776982 0.27335912 -0.13976772
1.0101568 0.27614191 -0.16846254
0.93075836 0.27180618 -0.18806106
0.84651375 0.26332626 -0.19864075
1.0672015 0.27086586 -0.16562507
0.96382928 0.26258075 -0.18284535
0.86259091 0.25014439 -0.19217801
0.79236323 0.24661338 -0.20293069
0.98293155 0.24635245 -0.17449372
0.9115513 0.24698713 -0.19415247
0.86020195 0.25153127 -0.2131153
0.80990845 0.25601757 -0.22909796
0.96053761 0.24079421 -0.19418165
0.90315574 0.24639592 -0.21501309
0.86476731 0.25594682 -0.23712906
0.21860898 0.032840651 -0.03699917
0.99692261 0.25329253 -0.22964883
0.91068316 0.25083682 -0.2410825
0.21267226 0.0247731 -0.032032266
0.19860779 0.026895363 -0.035731804
0.98847085 0.25275552 -0.25350842
0.9092418 0.2532742 -0.26501954
0.20262881 0.022845507 -0.03387972
-0.02611593 -0.059798401 0.050936799
0.97901529 0.25122228 -0.27736717
0.21955079 0.02285685 -0.038197804
-0.02611593 -0.059798401 0.050936799
0.16861144 0.016968546 -0.033348951
0.21062943 0.013782148 -0.032192886
0.19854978 0.016915146 -0.036911655
0.18053044 0.015998011 -0.037591103
-0.02611593 -0.059798401 0.050936799
0.19160934 0.0078513604 -0.031943977
-0.02611593 -0.059798401 0.050936799
-0.02611593 -0.059798401 0.050936799
0.14856888 0.010059605 -0.034098923
-0.02611593 -0.059798401 0.050936799
0.16655383 0.0069955206 -0.034491207
0.15650733 0.0090853386 -0.037266262
-0.02611593 -0.059798401 0.050936799
0.16556787 0.00096394715 -0.03258121
-0.02611593 -0.059798401 0.050936799
-0.02611593 -0.059798401 0.050936799
0.12658286 0.0031035761 -0.03181234
-0.02611593 -0.059798401 0.050936799
0.14154963 6.8343361e-05 -0.033147924
0.13452132 0.0021293014 -0.034979671
-0.02611593 -0.059798401 0.050936799
0.14254852 -0.0049524843 -0.03225714
-0.02611593 -0.059798401 0.050936799
-0.02611593 -0.059798401 0.050936799
0.10858133 -0.0028488892 -0.030582566
-0.02611593 -0.059798401 0.050936799
0.12154843 -0.0058769477 -0.031880558
0.11750477 -0.002808833 -0.034750324
-0.02611593 -0.059798401 0.050936799
0.12252861 -0.010879686 -0.03198944
-0.02611593 -0.059798401 0.050936799
-0.02611593 -0.059798401 0.050936799
0.096571729 -0.0058053141 -0.030411135
-0.02611593 -0.059798401 0.050936799
0.10949747 -0.0097970255 -0.033726465
0.10545775 -0.0057290797 -0.036578219
-0.02611593 -0.059798401 0.050936799
0.10453492 -0.014832497 -0.030723624
-0.02611593 -0.059798401 0.050936799
-0.02611593 -0.059798401 0.050936799
0.08752808 -0.0077364966 -0.032277383
-0.02611593 -0.059798401 0.050936799
0.094503231 -0.013760596 -0.032517027
0.097413912 -0.0076638516 -0.03846325
-0.02611593 -0.059798401 0.050936799
0.094491452 -0.016760089 -0.032571081
-0.02611593 -0.059798401 0.050936799
-0.02611593 -0.059798401 0.050936799
0.078517936 -0.010703685 -0.032162324
-0.02611593 -0.059798401 0.050936799
0.084478483 -0.015706278 -0.03336481
0.081453361 -0.012659846 -0.035253715
-0.02611593 -0.059798401 0.050936799
0.078530908 -0.021756081 -0.029361539
-0.02611593 -0.059798401 0.050936799
-0.02611593 -0.059798401 0.050936799
0.067526892 -0.013681784 -0.031010017
-0.02611593 -0.059798401 0.050936799
0.071502596 -0.019695122 -0.03119329
0.072447158 -0.014627206 -0.03512064
-0.02611593 -0.059798401 0.050936799
0.074438021 -0.021651281 -0.034284681
-0.02611593 -0.059798401 0.050936799
-0.02611593 -0.059798401 0.050936799
0.063452728 -0.013595073 -0.034933504
-0.02611593 -0.059798401 0.050936799
0.064462498 -0.020633653 -0.033079091
0.064422049 -0.016580064 -0.036006007
-0.02611593 -0.059798401 0.050936799
0.062465884 -0.024643881 -0.032113932
-0.02611593 -0.059798401 0.050936799
-0.02611593 -0.059798401 0.050936799
0.051532838 -0.017641773 -0.029781781
-0.02611593 -0.059798401 0.050936799
0.056456115 -0.0226046 -0.032964803
0.056415651 -0.018551014 -0.035891723
-0.02611593 -0.059798401 0.050936799
0.050512463 -0.027654571 -0.028943516
-0.02611593 -0.059798401 0.050936799
-0.02611593 -0.059798401 0.050936799
0.047492191 -0.018591071 -0.031723965
-0.02611593 -0.059798401 0.050936799
0.050415836 -0.023546718 -0.034869414
0.05037538 -0.019493129 -0.037796319
-0.02611593 -0.059798401 0.050936799
0.046453103 -0.02858578 -0.031885359
-0.02611593 -0.059798401 0.050936799
-0.02611593 -0.059798401 0.050936799
0.040489547 -0.019565774 -0.031610448
-0.02611593 -0.059798401 0.050936799
0.041447069 -0.025550254 -0.032737002
0.046319947 -0.019424507 -0.040720142
-0.02611593 -0.059798401 0.050936799
0.040435482 -0.028546158 -0.032772265
-0.02611593 -0.059798401 0.050936799
-0.02611593 -0.059798401 0.050936799
0.036448907 -0.020515075 -0.033552624
-0.02611593 -0.059798401 0.050936799
0.03347813 -0.027557384 -0.030623395
0.038350999 -0.021431636 -0.038606532
-0.02611593 -0.059798401 0.050936799
0.031500228 -0.031585701 -0.028658569
-0.02611593 -0.059798401 0.050936799
-0.02611593 -0.059798401 0.050936799
0.028494753 -0.023540121 -0.03045737
-0.02611593 -0.059798401 0.050936799
0.031403605 -0.027477849 -0.034584466
0.032329448 -0.022391843 -0.039511468
-0.02611593 -0.059798401 0.050936799
0.027444791 -0.031517081 -0.031582393
-0.02611593 -0.059798401 0.050936799
-0.02611593 -0.059798401 0.050936799
0.025424341 -0.022457168 -0.034381632
-0.02611593 -0.059798401 0.050936799
0.026385799 -0.027441815 -0.035490174
0.028274011 -0.022323221 -0.042435292
-0.02611593 -0.059798401 0.050936799
0.023389356 -0.031448457 -0.034506213
-0.02611593 -0.059798401 0.050936799
-0.02611593 -0.059798401 0.050936799
0.019455025 -0.024471469 -0.032305591
-0.02611593 -0.059798401 0.050936799
0.018435571 -0.029467031 -0.032376893
0.020376027 -0.025402533 -0.036341053
-0.02611593 -0.059798401 0.050936799
-0.02611593 -0.059798401 0.050936799
-0.02611593 -0.059798401 0.050936799
-0.02611593 -0.059798401 0.050936799
0.015455762 -0.024457112 -0.032230429
-0.02611593 -0.059798401 0.050936799
0.01439886 -0.029416498 -0.034301065
0.016339313 -0.025351997 -0.038265217
-0.02611593 -0.059798401 0.050936799
-0.02611593 -0.059798401 0.050936799
-0.02611593 -0.059798401 0.050936799
-0.02611593 -0.059798401 0.050936799
-0.02611593 -0.059798401 0.050936799
-0.02611593 -0.059798401 0.050936799
-0.02611593 -0.059798401 0.050936799
0.011302782 -0.025297876 -0.040170584
-0.02611593 -0.059798401 0.050936799
-0.02611593 -0.059798401 0.050936799
-0.02611593 -0.059798401 0.050936799
-0.02611593 -0.059798401 0.050936799
-0.02611593 -0.059798401 0.050936799
-0.02611593 -0.059798401 0.050936799
-0.02611593 -0.059798401 0.050936799
0.0072847931 -0.025265429 -0.041095082
-0.02611593 -0.059798401 0.050936799
-0.02611593 -0.059798401 0.050936799
-0.02611593 -0.059798401 0.050936799
-0.02611593 -0.059798401 0.050936799
-0.02611593 -0.059798401 0.050936799
-0.02611593 -0.059798401 0.050936799
-0.02611593 -0.059798401 0.050936799
0.0023340196 -0.027301416 -0.038038183
-0.02611593 -0.059798401 0.050936799
-0.02611593 -0.059798401 0.050936799
-0.02611593 -0.059798401 0.050936799
-0.02611593 -0.059798401 0.050936799
-0.02611593 -0.059798401 0.050936799
-0.02611593 -0.059798401 0.050936799
-0.02611593 -0.059798401 0.050936799
-0.02611593 -0.059798401 0.050936799
-0.02611593 -0.059798401 0.050936799
-0.02611593 -0.059798401 0.050936799
-0.02611593 -0.059798401 0.050936799
-0.02611593 -0.059798401 0.050936799
-0.02611593 -0.059798401 0.050936799
-0.02611593 -0.059798401 0.050936799
-0.02611593 -0.059798401 0.050936799
-0.02611593 -0.059798401 0.050936799
-0.02611593 -0.059798401 0.050936799
-0.02611593 -0.059798401 0.050936799
-0.02611593 -0.059798401 0.050936799
-0.02611593 -0.059798401 0.050936799
-0.02611593 -0.059798401 0.050936799
-0.02611593 -0.059798401 0.050936799
-0.02611593 -0.059798401 0.050936799
-0.02611593 -0.059798401 0.050936799
-0.02611593 -0.059798401 0.050936799
-0.02611593 -0.059798401 0.050936799
-0.02611593 -0.059798401 0.050936799
-0.02611593 -0.059798401 0.050936799
-0.02611593 -0.059798401 0.050936799
-0.02611593 -0.059798401 0.050936799
-0.02611593 -0.059798401 0.050936799
-0.02611593 -0.059798401 0.050936799
-0.02611593 -0.059798401 0.050936799
-0.02611593 -0.059798401 0.050936799
-0.02611593 -0.059798401 0.050936799
-0.02611593 -0.059798401 0.050936799
-0.02611593 -0.059798401 0.050936799
-0.02611593 -0.059798401 0.050936799
-0.02611593 -0.059798401 0.050936799
-0.02611593 -0.059798401 0.050936799
-0.02611593 -0.059798401 0.050936799
-0.02611593 -0.059798401 0.050936799
-0.02611593 -0.059798401 0.050936799
-0.02611593 -0.059798401 0.050936799
-0.02611593 -0.059798401 0.050936799
-0.02611593 -0.059798401 0.050936799
-0.02611593 -0.059798401 0.050936799
-0.02611593 -0.059798401 0.050936799
-0.02611593 -0.059798401 0.050936799
-0.02611593 -0.059798401 0.050936799
-0.02611593 -0.059798401 0.050936799
-0.02611593 -0.059798401 0.050936799
-0.02611593 -0.059798401 0.050936799
-0.02611593 -0.059798401 0.050936799
-0.02611593 -0.059798401 0.050936799
-0.02611593 -0.059798401 0.050936799
-0.02611593 -0.059798401 0.050936799
-0.02611593 -0.059798401 0.050936799
-0.02611593 -0.059798401 0.050936799
-0.02611593 -0.059798401 0.050936799
-0.02611593 -0.059798401 0.050936799
-0.02611593 -0.059798401 0.050936799
-0.02611593 -0.059798401 0.050936799
-0.02611593 -0.059798401 0.050936799
-0.02611593 -0.059798401 0.050936799
-0.02611593 -0.059798401 0.050936799
-0.02611593 -0.059798401 0.050936799
-0.02611593 -0.059798401 0.050936799
-0.02611593 -0.059798401 0.050936799
-0.02611593 -0.059798401 0.050936799
-0.02611593 -0.059798401 0.050936799
-0.02611593 -0.059798401 0.050936799
-0.02611593 -0.059798401 0.050936799
-0.02611593 -0.059798401 0.050936799
-0.02611593 -0.059798401 0.050936799
-0.02611593 -0.059798401 0.050936799
-0.02611593 -0.059798401 0.050936799
-0.02611593 -0.059798401 0.050936799
-0.02611593 -0.059798401 0.050936799
-0.02611593 -0.059798401 0.050936799
-0.02611593 -0.059798401 0.050936799
-0.02611593 -0.059798401 0.050936799
-0.02611593 -0.059798401 0.050936799
-0.02611593 -0.059798401 0.050936799
-0.02611593 -0.059798401 0.050936799
-0.02611593 -0.059798401 0.050936799
-0.02611593 -0.059798401 0.050936799
-0.02611593 -0.059798401 0.050936799
-0.02611593 -0.059798401 0.050936799
-0.02611593 -0.059798401 0.050936799
-0.02611593 -0.059798401 0.050936799
-0.02611593 -0.059798401 0.050936799
-0.02611593 -0.059798401 0.050936799
-0.02611593 -0.059798401 0.050936799
-0.02611593 -0.059798401 0.050936799
-0.02611593 -0.059798401 0.050936799
-0.02611593 -0.059798401 0.050936799
-0.02611593 -0.059798401 0.050936799
-0.02611593 -0.059798401 0.050936799
-0.02611593 -0.059798401 0.050936799
-0.02611593 -0.059798401 0.050936799
-0.02611593 -0.059798401 0.050936799
-0.02611593 -0.059798401 0.050936799
-0.02611593 -0.059798401 0.050936799
-0.02611593 -0.059798401 0.050936799
-0.02611593 -0.059798401 0.050936799
-0.02611593 -0.059798401 0.050936799
-0.02611593 -0.059798401 0.050936799
-0.02611593 -0.059798401 0.050936799
-0.02611593 -0.059798401 0.050936799
-0.02611593 -0.059798401 0.050936799
-0.02611593 -0.059798401 0.050936799
-0.02611593 -0.059798401 0.050936799
-0.02611593 -0.059798401 0.050936799
-0.02611593 -0.059798401 0.050936799
-0.02611593 -0.059798401 0.050936799
-0.02611593 -0.059798401 0.050936799
-0.02611593 -0.059798401 0.050936799
-0.02611593 -0.059798401 0.050936799
-0.02611593 -0.059798401 0.050936799
-0.02611593 -0.059798401 0.050936799
-0.02611593 -0.059798401 0.050936799
-0.02611593 -0.059798401 0.050936799
-0.02611593 -0.059798401 0.050936799
-0.02611593 -0.059798401 0.050936799
-0.02611593 -0.059798401 0.050936799
-0.02611593 -0.059798401 0.050936799
-0.063635178 -0.027082635 -0.035798341
-0.02611593 -0.059798401 0.050936799
-0.02611593 -0.059798401 0.050936799
-0.02611593 -0.059798401 0.050936799
-0.02611593 -0.059798401 0.050936799
-0.02611593 -0.059798401 0.050936799
-0.02611593 -0.059798401 0.050936799
-0.02611593 -0.059798401 0.050936799
-0.067615725 -0.02708637 -0.03472352
-0.02611593 -0.059798401 0.050936799
-0.02611593 -0.059798401 0.050936799
-0.02611593 -0.059798401 0.050936799
-0.02611593 -0.059798401 0.050936799
-0.02611593 -0.059798401 0.050936799
-0.02611593 -0.059798401 0.050936799
-0.02611593 -0.059798401 0.050936799
-0.071577549 -0.027108192 -0.03264904
-0.02611593 -0.059798401 0.050936799
-0.07955043 -0.030115146 -0.030553438
-0.02611593 -0.059798401 0.050936799
-0.02611593 -0.059798401 0.050936799
-0.02611593 -0.059798401 0.050936799
-0.02611593 -0.059798401 0.050936799
-0.078527957 -0.029136997 -0.029554561
-0.079661846 -0.024989372 -0.037460983
-0.02611593 -0.059798401 0.050936799
-0.084526859 -0.029115463 -0.029441815
-0.02611593 -0.059798401 0.050936799
-0.02611593 -0.059798401 0.050936799
-0.076587498 -0.025072496 -0.033518713
-0.02611593 -0.059798401 0.050936799
-0.08453773 -0.027097713 -0.030405428
-0.085656814 -0.023968009 -0.037330221
-0.02611593 -0.059798401 0.050936799
-0.088488683 -0.029137285 -0.027367327
-0.02611593 -0.059798401 0.050936799
-0.02611593 -0.059798401 0.050936799
-0.081567869 -0.025072642 -0.032425098
-0.02611593 -0.059798401 0.050936799
-0.087481007 -0.027141213 -0.027350079
-0.089599915 -0.02400792 -0.034256075
-0.02611593 -0.059798401 0.050936799
-0.097550146 -0.026033137 -0.031142801
-0.02611593 -0.059798401 0.050936799
-0.02611593 -0.059798401 0.050936799
-0.085548408 -0.025076374 -0.03135027
-0.02611593 -0.059798401 0.050936799
-0.094494522 -0.026098169 -0.028200187
-0.091509871 -0.025091019 -0.029238209
-0.02611593 -0.059798401 0.050936799
-0.10149325 -0.02607305 -0.028068651
-0.02611593 -0.059798401 0.050936799
-0.02611593 -0.059798401 0.050936799
-0.089491509 -0.025116283 -0.028276123
-0.02611593 -0.059798401 0.050936799
-0.10150411 -0.024055298 -0.029032283
-0.098523378 -0.024047974 -0.030088309
-0.02611593 -0.059798401 0.050936799
-0.10643224 -0.025109541 -0.024957705
-0.02611593 -0.059798401 0.050936799
-0.02611593 -0.059798401 0.050936799
-0.092434794 -0.025159786 -0.025220774
-0.02611593 -0.059798401 0.050936799
-0.10748036 -0.023052026 -0.027901854
-0.11061781 -0.01989706 -0.035788726
-0.02611593 -0.059798401 0.050936799
-0.11749333 -0.021998217 -0.028695598
-0.02611593 -0.059798401 0.050936799
-0.02611593 -0.059798401 0.050936799
-0.1035146 -0.022030372 -0.029958315
-0.02611593 -0.059798401 0.050936799
-0.1174894 -0.020998387 -0.028677579
-0.11962703 -0.017847009 -0.036583234
-0.02611593 -0.059798401 0.050936799
-0.12951678 -0.018919481 -0.030415375
-0.02611593 -0.059798401 0.050936799
-0.02611593 -0.059798401 0.050936799
-0.1074577 -0.022070285 -0.026884176
-0.02611593 -0.059798401 0.050936799
-0.12853177 -0.017905153 -0.031415813
-0.12456995 -0.017883332 -0.033490293
-0.02611593 -0.059798401 0.050936799
-0.1364702 -0.01693088 -0.028248485
-0.02611593 -0.059798401 0.050936799
-0.02611593 -0.059798401 0.050936799
-0.11648566 -0.020002149 -0.028678354
-0.02611593 -0.059798401 0.050936799
-0.13851817 -0.014869773 -0.031173855
-0.13356045 -0.015851371 -0.033285141
-0.02611593 -0.059798401 0.050936799
-0.14947477 -0.013866646 -0.028949805
-0.02611593 -0.059798401 0.050936799
-0.02611593 -0.059798401 0.050936799
-0.12041003 -0.02006015 -0.024604548
-0.02611593 -0.059798401 0.050936799
-0.14444217 -0.014920595 -0.027062457
-0.14151369 -0.013859179 -0.031099461
-0.02611593 -0.059798401 0.050936799
-0.15840909 -0.011888952 -0.025745675
-0.02611593 -0.059798401 0.050936799
-0.02611593 -0.059798401 0.050936799
-0.13243349 -0.016981414 -0.026324321
-0.02611593 -0.059798401 0.050936799
-0.15440983 -0.011903307 -0.025820836
-0.15148526 -0.011841718 -0.029875852
-0.02611593 -0.059798401 0.050936799
-0.17037249 -0.0078646513 -0.024448454
-0.02611593 -0.059798401 0.050936799
-0.02611593 -0.059798401 0.050936799
-0.14545678 -0.013899091 -0.028025314
-0.02611593 -0.059798401 0.050936799
-0.1693953 -0.008849985 -0.025484923
-0.15537222 -0.011935896 -0.023802727
-0.02611593 -0.059798401 0.050936799
-0.18836826 -0.0027828156 -0.025019791
-0.02611593 -0.059798401 0.050936799
-0.02611593 -0.059798401 0.050936799
-0.14734802 -0.015000274 -0.022007782
-0.02611593 -0.059798401 0.050936799
-0.18739109 -0.0037681423 -0.02605626
-0.17642361 -0.0067890231 -0.027316678
-0.02611593 -0.059798401 0.050936799
-0.21537326 0.0043490743 -0.026385643
-0.02611593 -0.059798401 0.050936799
-0.02611593 -0.059798401 0.050936799
-0.13812591 -0.020266885 -0.0092713982
-0.02611593 -0.059798401 0.050936799
-0.20937829 0.0033277101 -0.026516404
-0.19340086 -0.0017288584 -0.026907146
-0.02611593 -0.059798401 0.050936799
-0.23934139 0.011434015 -0.025808543
-0.02611593 -0.059798401 0.050936799
-0.02611593 -0.059798401 0.050936799
-0.1793521 -0.0078504402 -0.023279682
-0.02611593 -0.059798401 0.050936799
-0.23536478 0.010437925 -0.026901376
-0.22242029 0.0064281253 -0.029217061
-0.02611593 -0.059798401 0.050936799
-0.25722486 0.016407324 -0.020381909
-0.02611593 -0.059798401 0.050936799
-0.02611593 -0.059798401 0.050936799
-0.20435748 -0.00072573172 -0.024683103
-0.02611593 -0.059798401 0.050936799
-0.26732358 0.01955124 -0.026137911
-0.24938788 0.013523833 -0.028583582
-0.02611593 -0.059798401 0.050936799
-0.97884089 0.25247598 -0.19766119
-0.02611593 -0.059798401 0.050936799
-0.02611593 -0.059798401 0.050936799
-0.23136248 0.0064061582 -0.026048958
-0.98845673 0.25414976 -0.17744401
-0.96802408 0.24458259 -0.20600931
-0.25120422 0.012350289 -0.018567406
-0.02611593 -0.059798401 0.050936799
-0.99204409 0.25376618 -0.15537632
-0.97963959 0.24626356 -0.18575454
-0.02611593 -0.059798401 0.050936799
-0.25829655 0.012465857 -0.023434177
-1.0066551 0.25645769 -0.13504717
-1.0042971 0.2510449 -0.16820046
-0.9778586 0.23843861 -0.19593292
-0.02611593 -0.059798401 0.050936799
-1.0162671 0.25913134 -0.11481199
-1.008903 0.25068298 -0.14711364
-0.98847818 0.23911616 -0.17571497
-0.97711879 0.22965363 -0.2081098
-1.0278639 0.26079419 -0.093557574
-1.0174855 0.25131714 -0.12493395
-0.99708331 0.23876859 -0.15455297
-0.98271364 0.22727755 -0.18604052
-1.032447 0.26141399 -0.071453065
-1.0320965 0.25400868 -0.10460483
-1.0106984 0.24045672 -0.13426065
-0.99032295 0.22592656 -0.16491534
-1.054045 0.26713014 -0.050938353
-1.036665 0.25361058 -0.081518665
-1.0272944 0.24213749 -0.11291227
-1.0029234 0.22659318 -0.14366017
-1.0666151 0.27077818 -0.028629445
-1.038238 0.25220188 -0.058506891
-1.0268716 0.23972179 -0.089956112
-1.010514 0.22522409 -0.12153532
-1.0741751 0.27239046 -0.005450882
-1.0538261 0.25587875 -0.037141286
-1.041464 0.24239525 -0.068627313
-1.0301241 0.22793359 -0.10111223
-1.0797395 0.2729958 0.017672092
-1.0683998 0.25853413 -0.014812827
-1.0490317 0.24200791 -0.045484789
-1.0337007 0.22553223 -0.0780809
-1.0972819 0.27864334 0.041110639
-1.0869646 0.2632035 0.0076268315
-1.0536003 0.24160981 -0.022398628
-1.0422683 0.2251485 -0.054919578
-1.1248108 0.28732625 0.064791143
-1.09451 0.26379794 0.031787038
-1.0801785 0.24732581 -0.00079029053
-1.0598413 0.22781461 -0.032534756
-1.1423347 0.2929557 0.089229353
-1.1250383 0.27249157 0.055523925
-1.1027242 0.25199145 0.022724189
-1.073423 0.22846672 -0.010261126
-0.02611593 -0.059798401 0.050936799
-1.1305839 0.27307883 0.079646543
-1.1172456 0.25359273 0.04803361
-1.0989493 0.23312505 0.014309388
-1.1813025 0.30515638 0.14219758
-1.1590604 0.28071123 0.10632681
-1.1307629 0.25619027 0.073342264
-1.12148 0.23677278 0.038805515
-0.02611593 -0.059798401 0.050936799
-1.1745549 0.28429765 0.13269073
-1.1522901 0.26083422 0.097837619
-1.1409926 0.24039164 0.064244926
-1.232178 0.32132715 0.19946203
-1.1930224 0.28987643 0.16014668
-1.172761 0.26542035 0.12531316
-1.1465273 0.23896112 0.089331172
-1.2376369 0.32484153 0.22763737
-0.02611593 -0.059798401 0.050936799
-1.1842417 0.26797447 0.15258355
-0.02611593 -0.059798401 0.050936799
-1.2530488 0.33035523 0.25803596
-1.2279054 0.29997265 0.21800204
-1.2126658 0.27455279 0.18224478
-1.1884543 0.24711899 0.14528269
-1.2873774 0.34188187 0.29189867
-1.2423214 0.304483 0.24836382
-0.02611593 -0.059798401 0.050936799
-0.02611593 -0.059798401 0.050936799
-1.3087201 0.35036239 0.32546303
-1.2696631 0.312985 0.28204095
-1.2564497 0.28559074 0.24528557
-1.2322875 0.25519365 0.20627011
-1.2902524 0.34582812 0.35104391
-1.2979858 0.32147256 0.31673652
-1.2489345 0.28305948 0.27310848
-0.02611593 -0.059798401 0.050936799
-0.02611593 -0.059798401 0.050936799
-1.3212948 0.32892418 0.35231978
-1.2862331 0.29256099 0.30899087
-0.02611593 -0.059798401 0.050936799
-0.02611593 -0.059798401 0.050936799
-1.3366317 0.33436558 0.38671699
-1.2677504 0.28700885 0.33555338
-0.02611593 -0.059798401 0.050936799
-2.2182772 0.65176737 0.7260803
-1.3569038 0.34177026 0.42424321
-1.324868 0.30343631 0.37993497
-1.2629589 0.25808626 0.32993859
-2.1964276 0.64886028 0.77163404
-2.3785176 0.65163976 0.76809233
-1.3173153 0.30086881 0.40975726
-0.02611593 -0.059798401 0.050936799
-2.1795547 0.64695287 0.81829941
-2.3675084 0.65062702 0.82188612
-2.5794725 0.65540534 0.82494211
-0.02611593 -0.059798401 0.050936799
-2.1616628 0.64502376 0.86594576
-2.3544807 0.64958906 0.87664199
-2.5693171 0.65325171 0.88673395
-2.8669121 0.6670295 0.90856236
-2.1438046 0.64413071 0.91161072
-2.3354998 0.64656615 0.92924982
-2.560158 0.65210146 0.94856268
-2.8575921 0.66371679 0.979352
-2.1308856 0.64420104 0.96038663
-2.3244679 0.64653516 0.98406118
-2.5579293 0.65392154 1.0135759
-2.8472683 0.66140038 1.0501409
-2.1169627 0.64526772 1.0091617
-2.2995474 0.6425451 1.0335393
-2.5487511 0.65275323 1.0764042
-2.832968 0.65808791 1.1198367
-2.0891743 0.64139354 1.0515858
-2.2845354 0.64251786 1.087276
-2.5405278 0.65355194 1.1412867
-2.8126912 0.653772 1.1884023
-2.078228 0.64345258 1.1014351
-2.2704854 0.64245808 1.1430306
-2.5035655 0.64646506 1.1934841
-2.7884343 0.64945996 1.255893
-2.0593476 0.64353764 1.1480988
-2.2455614 0.6394679 1.1925268
-2.4893696 0.64526069 1.2572181
-2.7730742 0.64708936 1.3285872
-2.0315554 0.64066327 1.1905409
-2.227531 0.63941175 1.2472066
-2.4642961 0.64212573 1.3147116
-2.7527747 0.64375526 1.3981704
-2.0037816 0.63780701 1.2319834
-2.2075419 0.63838488 1.2998317
-2.4470966 0.64191049 1.3784072
-2.7354109 0.64237732 1.470845
-1.978985 0.63594311 1.2744998
-2.1806333 0.63640535 1.3483084
-2.4308977 0.64169878 1.4421216
-2.7229822 0.64296275 1.5466486
-1.9571236 0.63603556 1.3201077
-2.1556683 0.63437867 1.3998219
-2.4146566 0.64245075 1.5078536
-2.6937072 0.63861465 1.6150451
-1.9362435 0.63611346 1.3667338
-2.1287217 0.63236302 1.450298
-2.3697934 0.63442576 1.5548843
-2.6703632 0.63723332 1.6866071
-1.9055078 0.63328242 1.4061205
-2.1008134 0.63037992 1.4987561
-2.3426561 0.63322902 1.6153752
-2.6390846 0.63387775 1.754984
-1.8796847 0.63339674 1.4496539
-2.069905 0.62838614 1.5471578
-2.3155227 0.63103247 1.6758478
-2.6038482 0.62954438 1.8212683
-1.840075 0.62764257 1.4828193
-2.0429552 0.62737024 1.597652
-2.281503 0.62891918 1.730191
-2.595201 0.63294458 1.9081975
-1.8172098 0.62873113 1.5284265
-2.0100853 0.62540531 1.6440166
-2.2504077 0.62674445 1.7885892
-2.5510788 0.62868732 1.9683149
-1.7854744 0.62589663 1.5677943
-1.981154 0.62440038 1.6934736
-2.2143881 0.62462413 1.842895
-2.5108619 0.62435395 2.0335054
-1.756708 0.62605441 1.6082723
-1.9453259 0.62146109 1.7377646
-2.1891677 0.6253618 1.9074581
-2.4715996 0.6219877 2.1007504
-1.7426344 0.63199353 1.6641352
-1.8780522 0.60789728 1.7542653
-1.9438698 0.55578125 1.7745618
-2.4392345 0.62155575 2.173161
-1.6991042 0.62529761 1.6932091
-1.8334247 0.60210717 1.7883365
-1.8568815 0.53739965 1.7766012
-1.8774446 0.46977243 1.7597573
-1.657547 0.62059033 1.723356
-1.8377731 0.61558849 1.8736908
-1.8112167 0.53156978 1.8126531
-1.8228639 0.46198291 1.7916052
-1.6218872 0.61781389 1.7586499
-1.8038766 0.61560166 1.9210724
-1.9909269 0.60242736 2.0823908
-1.9300802 0.50190091 1.9864008
-1.5852424 0.61605167 1.7929438
-1.7601886 0.61076069 1.9581795
-1.9832519 0.61283004 2.1694648
-2.1516542 0.5778445 2.3160346
-1.5524994 0.61521327 1.8323289
-1.7213717 0.60982835 2.0014505
-1.9353548 0.6087755 2.2175109
-2.2141345 0.60981941 2.4978442
-1.5119529 0.61252743 1.861531
-1.682555 0.60889608 2.0447216
-1.8904119 0.60669518 2.2676489
-2.1502483 0.60370779 2.5455539
-1.4733498 0.60979444 1.8937697
-1.6417611 0.60697478 2.0869374
-1.8552456 0.60845113 2.3290431
-2.0990818 0.60138893 2.6075752
-1.4405655 0.60991973 1.9351723
-1.601907 0.60600275 2.132189
-1.799485 0.60349476 2.3699234
-2.0420327 0.59815717 2.6634674
-1.4058375 0.61009204 1.9735382
-1.5591509 0.60411048 2.1723676
-1.7505617 0.60141814 2.4189863
-1.9859424 0.59589267 2.721396
-1.3633102 0.60741705 2.001703
-1.5154138 0.60223281 2.2115281
-1.6987324 0.59942126 2.4629948
-1.9288703 0.59364271 2.778306
