# .PCD v0.7 - Point Cloud Data file format
VERSION 0.7
FIELDS x y z
SIZE 4 4 4
TYPE F F F
COUNT 1 1 1
WIDTH 1386
HEIGHT 1
VIEWPOINT 0 0 0 1 0 0 0
POINTS 1386
DATA ascii
-1.2263217 0.65050858 -0.030771092
-1.1857332 0.65275902 -0.053498015
-1.1421611 0.65099943 -0.076353371
-1.2562762 0.64258993 0.026665971
-1.221806 0.64798808 -0.0028917864
-1.1842545 0.65028548 -0.02756165
-1.1437154 0.64957261 -0.052341938
-1.2617127 0.64708602 0.055858977
-1.2242734 0.64949197 0.025191139
-1.1857822 0.65084028 -0.0025145188
-1.1442734 0.64714241 -0.028367326
-1.2591474 0.64753598 0.085829243
-1.2227643 0.6499998 0.052181218
-1.188291 0.65138054 0.023551058
-1.1488155 0.64872587 -0.0042454749
-1.2526282 0.64600819 0.11368899
-1.2172487 0.64747572 0.080041744
-1.1828169 0.64789277 0.049394239
-1.1513656 0.6483025 0.019802772
-1.2470824 0.64646548 0.14260323
-1.2157582 0.64800161 0.10603216
-1.1863215 0.64943653 0.075496629
-1.1539117 0.64887899 0.043869019
-1.2425548 0.6469444 0.17053659
-1.2092617 0.64549208 0.13287422
-1.1798848 0.64598131 0.099321686
-1.155462 0.64845198 0.067898467
-1.2290486 0.64239198 0.19821076
-1.2067525 0.64599627 0.1598455
-1.1793942 0.64651084 0.1253309
-1.153021 0.64601111 0.091816716
-1.2215255 0.64186037 0.22606975
-1.198275 0.64349765 0.18565033
-1.1749346 0.64404458 0.15021122
-1.1525716 0.64557695 0.11580858
-1.2139987 0.64232856 0.25394672
-1.1927705 0.64299124 0.21254724
-1.1714672 0.64358157 0.17514639
-1.1481348 0.64212894 0.13967124
-1.2044948 0.64180785 0.28076845
-1.1852888 0.641496 0.23838887
-1.1729683 0.64611793 0.20122918
-1.1506581 0.64368707 0.16475517
-1.1890265 0.6372844 0.30640572
-1.1778072 0.6400007 0.26423052
-1.1665093 0.64364457 0.22607195
-1.1462135 0.64223886 0.18865386
-1.1815145 0.63877058 0.33330107
-1.1762862 0.64350802 0.29127464
-1.1580504 0.64116395 0.25087711
-1.1477599 0.64281166 0.21270132
-1.1700336 0.63726091 0.35906753
-1.1648281 0.64101666 0.31602344
-1.1515872 0.6396904 0.27573788
-1.1452922 0.64235228 0.23765525
-1.1565759 0.63476229 0.38377875
-1.1543696 0.63852894 0.34079105
-1.1461202 0.63922018 0.30063546
-1.137856 0.63889354 0.26146156
-1.1450871 0.63525242 0.40958124
-1.1459031 0.63804799 0.36563218
-1.1426487 0.63975698 0.32558864
-1.1334113 0.63744521 0.28536022
-1.1306442 0.63376814 0.43329206
-1.1374365 0.63756704 0.39047343
-1.1342049 0.6382944 0.34941214
-1.1319356 0.63898909 0.31036901
-1.1201741 0.63427991 0.4581137
-1.1289659 0.63808596 0.41533265
-1.1247611 0.63682812 0.37321687
-1.1384201 0.64554262 0.33661786
-1.104754 0.63181037 0.48078799
-1.1135498 0.63461661 0.43798894
-1.116317 0.63536543 0.39704043
-1.1210426 0.63708508 0.35814679
-1.091307 0.63132954 0.50453556
-1.1050752 0.63613534 0.46286619
-1.1098462 0.6358915 0.4219372
-1.1155943 0.63663304 0.38204473
-1.0748833 0.62985629 0.52720916
-1.0946279 0.6356653 0.48667014
-1.1013983 0.63542867 0.44577873
-1.10815 0.63517386 0.40588701
-1.059478 0.62840468 0.5489018
-1.0772536 0.63122505 0.50727153
-1.0870007 0.6319809 0.4674542
-1.1056744 0.63671416 0.43087703
-1.0430731 0.62694943 0.57057565
-1.0658022 0.63175124 0.5310747
-1.0785528 0.63151807 0.4912957
-1.0952536 0.63426256 0.45364529
-1.0326139 0.62947887 0.59443372
-1.0543736 0.63129568 0.55386019
-1.0671282 0.6300627 0.51406324
-1.0868096 0.6327998 0.47746879
-1.0162235 0.62904161 0.61512589
-1.0419413 0.63183647 0.5766449
-1.0626451 0.63359547 0.53905165
-1.0803574 0.63334405 0.50136596
-1.0018103 0.62959319 0.63687342
-1.0255589 0.62939954 0.59730113
-1.0482664 0.63016582 0.55972743
-1.0729094 0.63288474 0.52522629
-0.98344302 0.62816703 0.65651041
-1.0131452 0.62995827 0.61908627
-1.0417649 0.63367337 0.58567798
-1.0624617 0.6324147 0.54903024
-0.96707147 0.62774777 0.67620301
-1.0007316 0.63051707 0.64087135
-1.024428 0.62926924 0.60427999
-1.052037 0.63096291 0.5718165
-0.94575018 0.62434733 0.69374812
-0.98139113 0.62710571 0.65945375
-1.0139766 0.62979907 0.62810194
-1.0396352 0.62852234 0.59354746
-0.92643929 0.62297183 0.71036744
-0.9679777 0.62766099 0.68122005
-0.99958986 0.62836915 0.64881372
-1.0292064 0.62807035 0.61635184
-0.91106361 0.62355602 0.73009676
-0.9516288 0.62625998 0.69989496
-0.98915333 0.62991685 0.67165405
-1.0197546 0.6286037 0.64019263
-0.89368838 0.62413311 0.74978858
-0.93328029 0.62485188 0.71853226
-0.97278959 0.62749803 0.69131064
-1.007349 0.62716287 0.66194165
-0.87635052 0.62474632 0.76748109
-0.91790867 0.62443632 0.73824364
-0.95642197 0.62607896 0.71098518
-0.99789339 0.62869608 0.68580043
-0.85901272 0.62535948 0.78517354
-0.90253305 0.6250205 0.75797296
-0.94598538 0.62762666 0.7338255
-0.98546499 0.62823695 0.70856714
-0.83676642 0.62202781 0.79870141
-0.88520306 0.62363404 0.77562946
-0.92566383 0.62422985 0.75138956
-0.9700824 0.62580359 0.72924209
-0.81549335 0.62068129 0.81328368
-0.87080061 0.62620342 0.7964133
-0.91422337 0.62677377 0.77422911
-0.95667291 0.62535906 0.75099039
-0.80012858 0.62328327 0.83204943
-0.85051256 0.62384254 0.81199604
-0.89492035 0.62339866 0.79081225
-0.94421792 0.62688142 0.77479285
-0.77887416 0.6219548 0.84563202
-0.82826632 0.62051088 0.82552385
-0.88149899 0.62595344 0.81261456
-0.92785424 0.6244626 0.79444933
-0.75764257 0.61964464 0.85819697
-0.81386387 0.62308025 0.84630775
-0.86317313 0.62356365 0.83023423
-0.91246378 0.62402886 0.81516039
-0.74225122 0.62422812 0.87799847
-0.79556763 0.62272626 0.86196405
-0.84484339 0.62217361 0.84787184
-0.89511901 0.62162453 0.83379847
-0.72101551 0.62291777 0.89058149
-0.77527565 0.62136525 0.87756485
-0.82749081 0.62176895 0.86654598
-0.88263744 0.62512851 0.85863662
-0.70075709 0.62259275 0.90420091
-0.75795656 0.62199652 0.89425766
-0.81308842 0.62433821 0.88732988
-0.86333442 0.62175339 0.87521976
-0.67662352 0.61936241 0.91169322
-0.73767936 0.62165338 0.90887678
-0.78888774 0.61903596 0.89878476
-0.84594434 0.62131256 0.89589322
-0.65833807 0.62102616 0.92638588
-0.71837932 0.62229562 0.92453229
-0.77152729 0.62063086 0.91749489
-0.83248556 0.62383115 0.91969484
-0.63227278 0.61484349 0.9307875
-0.6942122 0.6180293 0.93400586
-0.75318962 0.6212405 0.93516856
-0.80728912 0.6175254 0.93111289
-0.61783201 0.62239385 0.95266116
-0.67593074 0.61869311 0.94868064
-0.73096204 0.61792684 0.94769669
-0.78893667 0.61711711 0.94976825
-0.59278136 0.61723262 0.95609993
-0.65566838 0.61936802 0.96231812
-0.71457869 0.62050718 0.96744335
-0.77447414 0.62063205 0.9735691
-0.57157922 0.61695832 0.96670157
-0.63540989 0.61904293 0.97593755
-0.69332832 0.6181789 0.98100793
-0.74831527 0.6143589 0.98296905
-0.55137306 0.61768734 0.97734004
-0.61417031 0.61873245 0.9885385
-0.67107415 0.61684686 0.99457186
-0.73383009 0.61885554 1.0077876
-0.53112537 0.61938006 0.9899959
-0.59390402 0.62040704 1.0021939
-0.6497972 0.6165002 1.0091722
-0.71153849 0.61748737 1.0233507
-0.50897974 0.61915642 0.99757975
-0.57266444 0.6200965 1.0147949
-0.62952 0.61615705 1.0237912
-0.68831116 0.61417013 1.0358601
-0.48686051 0.61695117 1.004128
-0.55048132 0.61983669 1.0243782
-0.60730326 0.61486119 1.0353558
-0.6679551 0.6147545 1.0544958
-0.46471477 0.61672747 1.0117118
-0.52445346 0.61369008 1.0267805
-0.58602232 0.61551434 1.0499741
-0.64763653 0.61537504 1.0711323
-0.44358754 0.61652553 1.0183148
-0.50422853 0.61440104 1.0384187
-0.56282461 0.6142329 1.0605202
-0.6243639 0.6140213 1.0856771
-0.42050597 0.61435282 1.022845
-0.48300371 0.61510849 1.050038
-0.54062653 0.61295521 1.071085
-0.60304546 0.61463827 1.1022947
-0.40029192 0.61708164 1.0335195
-0.45983946 0.6148631 1.0586028
-0.5183872 0.6126411 1.0836673
-0.58074605 0.61526972 1.1178939
-0.37628937 0.61397785 1.0340141
-0.43861073 0.61657035 1.0702401
-0.49324983 0.61040699 1.0911587
-0.55457532 0.61199605 1.1273478
-0.35705245 0.61769199 1.0457251
-0.41740078 0.61829567 1.0808779
-0.47004807 0.61012542 1.1017228
-0.53131741 0.61166024 1.140911
-0.33398572 0.61653727 1.0492736
-0.39236495 0.61415237 1.083335
-0.44686899 0.60886222 1.1112691
-0.50805563 0.61232424 1.1544921
-0.31194144 0.61440432 1.0518231
-0.37023789 0.6139468 1.0899192
-0.42464048 0.61056584 1.1228878
-0.48090377 0.60906506 1.1629275
-0.29082507 0.61622012 1.0574626
-0.34617525 0.61178863 1.0934309
-0.40045765 0.61029881 1.1324335
-0.45760059 0.61069274 1.178526
-0.26690525 0.61118913 1.0539225
-0.32213131 0.60964853 1.0959427
-0.37629354 0.6100499 1.1409794
-0.43333501 0.61235303 1.1921065
-0.24479303 0.61200142 1.059525
-0.29804605 0.60847217 1.1004721
-0.35118967 0.60885179 1.1464896
-0.40532234 0.60721719 1.1934894
-0.22375943 0.61188984 1.0611298
-0.27593774 0.60828471 1.1060567
-0.3270857 0.60765731 1.1520185
-0.38006085 0.6078741 1.207033
-0.20172994 0.61077493 1.0626976
-0.25278038 0.61105692 1.1136758
-0.30289894 0.60839009 1.1615824
-0.35391584 0.60763609 1.2145417
-0.17969652 0.61065978 1.0642836
-0.22973627 0.6089204 1.1162066
-0.27781382 0.6072101 1.1660928
-0.32679754 0.6054129 1.2209959
-0.15862153 0.61151189 1.0679057
-0.2065789 0.61169261 1.1238259
-0.2536231 0.60894275 1.1756744
-0.3025054 0.60905474 1.235612
-0.13665214 0.60945129 1.0664567
-0.18356833 0.61059219 1.1243752
-0.22763966 0.60584998 1.1751319
-0.27442086 0.60786402 1.2400662
-0.11459213 0.61131775 1.0690782
-0.15952046 0.60945195 1.1269053
-0.20435818 0.61151314 1.188803
-0.2482571 0.60760784 1.2485745
-0.0935359 0.61218798 1.0717006
-0.13642322 0.61127859 1.1315074
-0.17748423 0.60450786 1.1831712
-0.2192781 0.60350448 1.2479575
-0.071603939 0.61016363 1.0682522
-0.11243546 0.60919285 1.1310203
-0.15151556 0.60243297 1.1816471
-0.19210669 0.6052444 1.2564832
-0.050694458 0.60716116 1.0638049
-0.088567898 0.60521597 1.1244993
-0.12640387 0.60323453 1.1871932
-0.16504067 0.60407537 1.2599564
-0.029611632 0.61001289 1.067463
-0.066429079 0.60800982 1.1311377
-0.10116022 0.60892671 1.1988274
-0.13697092 0.60390252 1.2634289
-0.0085888971 0.61191911 1.0681041
-0.04249749 0.60597831 1.1276517
-0.076210096 0.60687351 1.1963223
-0.1089238 0.60274798 1.2658838
0.012301868 0.60893464 1.0626571
-0.0194564 0.60785919 1.1292548
-0.05013603 0.60770768 1.1998504
-0.080850087 0.60357493 1.2693744
0.033283226 0.60987723 1.061281
0.0035393927 0.6077767 1.1288226
-0.02433286 0.60177821 1.1902568
-0.052840427 0.60245651 1.2698298
0.054260664 0.60981995 1.0598867
0.026516462 0.60771227 1.1273909
0.00082805753 0.60554308 1.1978564
-0.024868198 0.60137427 1.268286
0.074136816 0.60785705 1.0534768
0.049470879 0.60666609 1.1249413
0.025928881 0.60836238 1.2024391
0.0021416564 0.60025936 1.2687602
0.094990127 0.60490882 1.0460305
0.073451698 0.60759783 1.1235088
0.051781282 0.60539627 1.1948988
0.031159 0.6011371 1.269233
0.11603944 0.60879654 1.0477073
0.095282175 0.60366428 1.1150259
0.07673534 0.60434288 1.1924118
0.059135154 0.60105467 1.2677072
0.13587029 0.6048702 1.0392621
0.11819915 0.60265422 1.1105771
0.10269706 0.60528558 1.1899418
0.085753925 0.59128511 1.2490258
0.15681814 0.60684884 1.0359046
0.14118406 0.60458946 1.1091814
0.12863219 0.60424668 1.1864364
0.11487667 0.59507179 1.2545509
0.17560777 0.60196233 1.0254608
0.16410497 0.60457927 1.1047504
0.15461266 0.60517132 1.1849661
0.14398068 0.5988766 1.2590764
0.19557455 0.6039263 1.0231218
0.18698058 0.60260558 1.0982842
0.17949574 0.60519004 1.1784984
0.17194206 0.59981209 1.256569
0.2165224 0.605905 1.0197643
0.20999208 0.60652238 1.0979242
0.20441234 0.60417289 1.1740119
0.19986203 0.59978396 1.2520441
0.23533863 0.60300004 1.0103562
0.23178904 0.60362482 1.0874602
0.22927278 0.60321003 1.1665266
0.22659406 0.59492314 1.2384511
0.25424153 0.60302234 1.0050009
0.25473261 0.60459638 1.084047
0.25302801 0.59934163 1.1540074
0.25566456 0.59976387 1.2409953
0.27412948 0.60405892 0.99864507
0.27557504 0.60366589 1.0756371
0.27797511 0.60130572 1.1505749
0.28352836 0.59979004 1.2334716
0.29403612 0.60507739 0.99328905
0.29846245 0.60469174 1.069225
0.30177566 0.59940088 1.1400912
0.31032836 0.5978744 1.2229315
0.31290159 0.6051358 0.98593444
0.31924084 0.60181582 1.05778
0.32874504 0.60233968 1.1376386
0.33713228 0.59695852 1.2124095
0.33172175 0.60323077 0.97654438
0.34112841 0.60284519 1.0513866
0.35044447 0.59853274 1.1221582
0.36500004 0.59798449 1.2049038
0.35163236 0.60524911 0.97120631
0.3608883 0.59999102 1.0389608
0.37216261 0.59470767 1.1076776
0.38974023 0.59513044 1.1913844
0.36737034 0.60142756 0.957838
0.38275719 0.60103858 1.0315678
0.40022242 0.60156977 1.1092768
0.4176119 0.59715629 1.1838967
0.38726214 0.60346389 0.95150024
0.40464863 0.60306776 1.0251926
0.41986212 0.59682453 1.0908171
0.44441974 0.59724021 1.1733928
0.40717667 0.60648215 0.94618016
0.42648005 0.60415143 1.0158002
0.43216035 0.58139557 1.0562959
0.40724236 0.51412636 1.0205336
0.42182812 0.59973699 0.92877793
0.44524401 0.60230064 1.0034112
0.46854666 0.59995568 1.0729562
0.49389723 0.59554952 1.1454263
0.44174266 0.60275513 0.92345792
0.46605295 0.6024062 0.99302006
0.49131387 0.5990904 1.0605099
0.52069026 0.59665143 1.1339407
0.46059722 0.60483128 0.91513962
0.48788828 0.60448968 0.98364574
0.51412636 0.60018849 1.0500991
0.54752463 0.59871697 1.1244725
0.4794479 0.60590768 0.90680331
0.5045886 0.60070074 0.96825927
0.5358789 0.60034472 1.0366902
0.57017565 0.59696037 1.1060103
0.49414861 0.60212588 0.89145446
0.52746904 0.60474414 0.9609015
0.55659026 0.59954089 1.0212827
0.59490895 0.59712392 1.0915452
0.51200342 0.60420561 0.88315499
0.54313213 0.60099488 0.94353455
0.5834927 0.60455167 1.0148674
0.62170976 0.60022545 1.0800959
0.52877164 0.60336185 0.87082165
0.56085891 0.59918392 0.92916501
0.60422671 0.60472959 1.0004776
0.64127862 0.59655237 1.0576553
0.54763019 0.60643786 0.86252135
0.58163822 0.60132521 0.91681057
0.62596065 0.60490382 0.98606896
0.66293359 0.59579909 1.0392301
0.56338 0.60561574 0.84920704
0.59836519 0.59951782 0.9024598
0.64561599 0.60415781 0.96768123
0.68869716 0.59894055 1.0257999
0.57708478 0.60283744 0.83389509
0.61712223 0.60068452 0.88912523
0.6622414 0.60044116 0.94829613
0.70933372 0.59820896 1.0063938
0.59592068 0.60493165 0.82457715
0.6348381 0.60089135 0.87379205
0.67989719 0.5997023 0.92994595
0.72997022 0.5974775 0.98698765
0.61065191 0.60413128 0.81028199
0.65257269 0.60107994 0.85945863
0.70059764 0.60091627 0.91357481
0.75467783 0.60067672 0.9705773
0.627428 0.60528708 0.79798466
0.67030728 0.60126859 0.84512514
0.72133958 0.60309374 0.89922106
0.77531826 0.600945 0.95118916
0.64218187 0.60546845 0.78470719
0.68702328 0.60147887 0.82981074
0.73999524 0.60235131 0.8808521
0.79391772 0.60025686 0.92982125
0.65691304 0.60466808 0.77041209
0.70474303 0.60268557 0.81449562
0.75458753 0.59967786 0.8595233
0.81252104 0.60056853 0.90847129
0.67062569 0.60388935 0.75513601
0.72044057 0.60291749 0.79820043
0.77429211 0.60189521 0.84318894
0.83110178 0.59989846 0.88610369
0.68433845 0.60311055 0.73986006
0.73713791 0.60314596 0.78188634
0.79091454 0.60219598 0.82287621
0.8497051 0.60021013 0.86475384
0.70009601 0.6042881 0.72658181
0.75385791 0.60435605 0.76659
0.80552953 0.60050428 0.80256516
0.86728996 0.6005435 0.84242308
0.71076393 0.60155666 0.70932686
0.76647329 0.6026715 0.74631655
0.82215595 0.60180485 0.78227055
0.88590103 0.60285485 0.82110912
0.72854775 0.60470861 0.6970467
0.782152 0.60292161 0.72902167
0.83472985 0.59915668 0.75997961
0.90044123 0.60123551 0.79679942
0.74124193 0.60395151 0.68078989
0.79478997 0.60221887 0.70976579
0.85544598 0.60436988 0.7436806
0.9200561 0.60454309 0.7754848
0.75700736 0.60712874 0.66754764
0.80742794 0.60151601 0.69050992
0.86902761 0.60371774 0.72140694
0.93153661 0.60198891 0.74821442
0.77172375 0.6073463 0.65227091
0.82719654 0.60567874 0.67721057
0.88467294 0.60500383 0.70213073
0.94610721 0.603351 0.72495836
0.78339934 0.60661089 0.63503313
0.83881599 0.60499769 0.6569739
0.89725465 0.60435534 0.67987585
0.96470362 0.60668021 0.70266283
0.79203027 0.60392278 0.61581641
0.85248029 0.60627282 0.63873494
0.91084021 0.60470307 0.65762025
0.97622544 0.60508978 0.67740983
0.80675447 0.60613996 0.60057569
0.86409974 0.60559171 0.61849821
0.92342985 0.60605419 0.63540143
0.98875499 0.60549533 0.652174
0.81945646 0.60738254 0.58435488
0.87574184 0.60589236 0.59927917
0.93703419 0.60638386 0.61414552
1.00027 0.60692233 0.62597537
0.82909495 0.60669053 0.56515539
0.89039123 0.60818183 0.58003974
0.94557923 0.60578585 0.58996654
1.0107774 0.6063534 0.59975946
0.841793 0.60693336 0.54891652
0.89999223 0.607526 0.55884099
0.95614666 0.60616237 0.56676763
1.0212884 0.60678422 0.57356149
0.85143155 0.60624123 0.52971703
0.9106158 0.60784829 0.53864104
0.96771377 0.60653538 0.5435499
1.0318223 0.60819679 0.54838133
0.86209255 0.60652739 0.51151645
0.92124325 0.60917044 0.51845914
0.98235232 0.61084265 0.5233469
1.0423375 0.60962743 0.52220148
0.87377596 0.60779172 0.49431473
0.92882204 0.60754007 0.49628022
0.98887509 0.60927004 0.49818781
1.0458007 0.60712016 0.49408174
0.88141489 0.6071068 0.47515279
0.93943077 0.60888028 0.47509867
0.99640167 0.60869372 0.47302794
1.058342 0.61052513 0.4689
0.89205712 0.60741109 0.45595255
0.95005828 0.61020237 0.45491675
1.0079994 0.61204815 0.45086399
1.0668575 0.61196297 0.4427577
0.90272206 0.608697 0.43776998
0.96067095 0.61254245 0.43375322
1.0115001 0.60950464 0.42474356
1.0673026 0.60948449 0.41369468
0.91236842 0.6100046 0.41860652
0.9652276 0.60994107 0.41061303
1.0220753 0.61188084 0.40158072
1.0758221 0.61192214 0.38757044
0.92000717 0.60931981 0.39944464
0.97484046 0.61228466 0.38946825
1.0286285 0.61328965 0.37747532
1.0772896 0.6104219 0.35950631
0.93268359 0.61359805 0.38127851
0.98343086 0.6136502 0.36732465
1.0402114 0.61766195 0.35432968
1.0838094 0.61286664 0.33341962
0.94130749 0.61392754 0.3611162
0.99001771 0.61402297 0.34520054
1.0366869 0.61316198 0.32730514
1.0893067 0.61433339 0.30633402
0.94793177 0.61426419 0.34099144
0.99458224 0.6134212 0.32209638
1.0442399 0.61456728 0.30318093
1.090782 0.61483276 0.27830595
0.95453727 0.61461896 0.31986704
0.99614334 0.61183053 0.29903054
1.0457489 0.61403054 0.27713418
1.0912725 0.61431766 0.25127828
0.96216136 0.61495203 0.29972348
1.0067413 0.61518842 0.27688536
1.0553322 0.61841005 0.25402611
1.0937703 0.6157952 0.22424908
0.96676338 0.61431408 0.27861863
1.0163393 0.61855 0.25475895
1.052834 0.61588806 0.22801846
1.0952684 0.61727625 0.19723867
0.97237301 0.61567229 0.25753102
1.0128748 0.61499554 0.2307514
1.0543655 0.61633313 0.20298937
0.7442373 0.40577716 0.13296331
0.98000103 0.61700523 0.23740548
0.97220647 0.58668673 0.20099065
0.63293314 0.35229325 0.1280781
0.62844044 0.3367264 0.10487276
0.8588801 0.53222823 0.19512534
0.62405986 0.36023375 0.13338967
0.61154503 0.3386966 0.11022655
0.64018881 0.34495324 0.089796506
0.61121297 0.3651529 0.14072166
0.60871989 0.34957883 0.11747874
0.59821635 0.33103403 0.094332099
0.62383813 0.33631971 0.072940752
0.58682835 0.34754962 0.12385407
0.59037644 0.33793494 0.10160618
0.58089554 0.32036823 0.079458416
0.59748435 0.32170501 0.057164449
0.57651794 0.3398582 0.1089029
0.57908493 0.33022901 0.08767347
0.58564425 0.32360303 0.065423265
0.6012333 0.32494342 0.043148093
0.56221515 0.32916358 0.094972521
0.58282995 0.33246759 0.073639095
0.57536435 0.31889305 0.05152582
-0.02611593 -0.059798401 0.050936799
0.57501948 0.33733264 0.082876459
0.56953865 0.32476881 0.059743963
0.56911016 0.31615022 0.038588911
0.59368777 0.32449329 0.014271431
0.56875366 0.33159035 0.069885492
0.57430226 0.32698569 0.046690453
0.5838846 0.32634795 0.02449199
0.62043911 0.34370065 -0.0028877966
0.57151753 0.33381435 0.056869566
0.56706327 0.32322857 0.034753978
0.57861555 0.32461947 0.010554649
0.59913766 0.33303115 -0.016686656
0.57830733 0.33800566 0.044814173
0.56582004 0.32346728 0.021777175
0.57535398 0.32488346 -0.0033842362
0.63186622 0.35625249 -0.035885878
0.56904197 0.33227414 0.031879585
0.57658732 0.33167976 0.0077193715
0.58411777 0.33210325 -0.017422482
0.60160291 0.34056187 -0.046606734
0.5728057 0.33449456 0.018844863
0.58033621 0.33491808 -0.0062969849
0.59485155 0.34135166 -0.033461582
0.68324614 0.3968007 -0.077128358
0.57855821 0.33872566 0.00480894
0.5760709 0.3341859 -0.020235099
0.60757017 0.35161081 -0.050519921
0.7518416 0.44510567 -0.1085495
0.57330394 0.33597925 -0.0081467554
0.58481592 0.34142372 -0.035273001
0.63328826 0.37185779 -0.06964165
0.7544902 0.45145562 -0.12849098
0.57707161 0.33919954 -0.021163464
0.60655648 0.35764959 -0.052392334
0.75682777 0.45614013 -0.11144424
0.76213491 0.46180519 -0.149454
0.60781145 0.3604103 -0.039361477
0.62226367 0.36991569 -0.070470661
0.7664721 0.4664824 -0.13244486
0.76577234 0.47016928 -0.17037791
0.61254531 0.36466303 -0.054378279
0.74782944 0.45617241 -0.11127512
0.76711702 0.47183979 -0.15236676
0.76740634 0.47754079 -0.19128224
0.61926818 0.37092629 -0.070396274
0.75947732 0.46750733 -0.1322953
0.76876575 0.47819334 -0.17228946
-0.02611593 -0.059798401 0.050936799
0.74283034 0.45619038 -0.11118117
0.76013708 0.47184682 -0.15123555
0.76941079 0.4835507 -0.19221139
0.21093066 0.10482093 -0.033552185
0.75848138 0.46851081 -0.13225849
0.76476651 0.47820771 -0.1722143
0.20407689 0.098684289 -0.024531819
-0.02611593 -0.059798401 0.050936799
0.76114082 0.47284302 -0.15123633
0.7664153 0.48456126 -0.19213699
0.20894583 0.10381021 -0.032532968
0.1708999 0.080914304 -0.030234024
0.76679271 0.48018205 -0.17121617
0.19908868 0.096684486 -0.023474235
0.19190967 0.093872912 -0.032393716
-0.02611593 -0.059798401 0.050936799
0.76843363 0.48453599 -0.19117491
0.20495741 0.10180681 -0.031494174
-0.02611593 -0.059798401 0.050936799
0.14785305 0.067999072 -0.030036081
0.15824439 0.067583308 -0.0092311054
0.1929134 0.094869159 -0.032394484
0.16684054 0.0799831 -0.03317586
-0.02611593 -0.059798401 0.050936799
0.19998007 0.09778925 -0.029472977
-0.02611593 -0.059798401 0.050936799
-0.02611593 -0.059798401 0.050936799
0.12781352 0.057072707 -0.029858474
0.18893589 0.090848014 -0.030392069
0.16884016 0.079975925 -0.03321344
0.14379367 0.067067854 -0.032977916
-0.02611593 -0.059798401 0.050936799
-0.02611593 -0.059798401 0.050936799
-0.02611593 -0.059798401 0.050936799
-0.02611593 -0.059798401 0.050936799
0.1087925 0.046124682 -0.028700002
0.16685142 0.077965356 -0.032212242
0.1457933 0.067060679 -0.033015497
0.12475394 0.056137919 -0.0328191
-0.02611593 -0.059798401 0.050936799
-0.02611593 -0.059798401 0.050936799
-0.02611593 -0.059798401 0.050936799
-0.02611593 -0.059798401 0.050936799
0.089827657 0.035122391 -0.02454254
0.14380063 0.064050287 -0.032032322
0.12773862 0.057145067 -0.033857118
0.10577039 0.045153715 -0.029661305
-0.02611593 -0.059798401 0.050936799
-0.02611593 -0.059798401 0.050936799
-0.02611593 -0.059798401 0.050936799
-0.02611593 -0.059798401 0.050936799
0.083746009 0.033216618 -0.028464474
0.12576464 0.054116581 -0.031874277
0.11370976 0.049196683 -0.033738203
0.096700162 0.041240964 -0.032563243
-0.02611593 -0.059798401 0.050936799
-0.02611593 -0.059798401 0.050936799
-0.02611593 -0.059798401 0.050936799
-0.02611593 -0.059798401 0.050936799
0.073732123 0.029253187 -0.028348647
0.11173184 0.045168359 -0.031773377
0.099680878 0.041248284 -0.033619281
0.086667553 0.037295617 -0.033447079
-0.02611593 -0.059798401 0.050936799
-0.02611593 -0.059798401 0.050936799
-0.02611593 -0.059798401 0.050936799
-0.02611593 -0.059798401 0.050936799
0.058793139 0.020218113 -0.02323065
0.096717969 0.036205631 -0.030654017
0.08964435 0.03630311 -0.034521136
0.074679703 0.030303702 -0.031348404
-0.02611593 -0.059798401 0.050936799
-0.02611593 -0.059798401 0.050936799
-0.02611593 -0.059798401 0.050936799
-0.02611593 -0.059798401 0.050936799
0.05373396 0.019290494 -0.026153695
0.084696598 0.030249722 -0.03053664
0.076656684 0.029314775 -0.032403655
0.06466189 0.025340438 -0.031250589
-0.02611593 -0.059798401 0.050936799
-0.02611593 -0.059798401 0.050936799
-0.02611593 -0.059798401 0.050936799
-0.02611593 -0.059798401 0.050936799
0.044753406 0.014287462 -0.024075352
0.074678786 0.025286458 -0.030438829
0.067623898 0.02536585 -0.033306282
0.05763267 0.022384156 -0.032172762
-0.02611593 -0.059798401 0.050936799
-0.02611593 -0.059798401 0.050936799
-0.02611593 -0.059798401 0.050936799
-0.02611593 -0.059798401 0.050936799
0.038746651 0.012309335 -0.023998644
0.063675955 0.019308873 -0.029340584
0.060594678 0.022409569 -0.034228466
0.048656046 0.018380962 -0.030076403
-0.02611593 -0.059798401 0.050936799
-0.02611593 -0.059798401 0.050936799
-0.02611593 -0.059798401 0.050936799
-0.02611593 -0.059798401 0.050936799
0.031754874 0.009316883 -0.02292151
0.055661712 0.015338261 -0.029262334
0.053584177 0.019435205 -0.034150992
0.043615598 0.017435249 -0.031999785
-0.02611593 -0.059798401 0.050936799
-0.02611593 -0.059798401 0.050936799
-0.02611593 -0.059798401 0.050936799
-0.02611593 -0.059798401 0.050936799
0.026747936 0.0073351674 -0.022863593
0.050621249 0.014392553 -0.031185728
0.045569927 0.015464596 -0.034072742
0.035620071 0.013446555 -0.030921884
-0.02611593 -0.059798401 0.050936799
-0.02611593 -0.059798401 0.050936799
-0.02611593 -0.059798401 0.050936799
-0.02611593 -0.059798401 0.050936799
0.021726197 0.0063713621 -0.023787316
0.040655691 0.0083751986 -0.028106943
0.037597056 0.012457636 -0.031977136
0.031598154 0.012479169 -0.031864394
-0.02611593 -0.059798401 0.050936799
-0.02611593 -0.059798401 0.050936799
-0.02611593 -0.059798401 0.050936799
-0.02611593 -0.059798401 0.050936799
0.016737981 0.0043715639 -0.022729743
0.037600067 0.0084402319 -0.031049557
0.031590302 0.010479508 -0.031900432
0.02462117 0.0084687993 -0.029805616
-0.02611593 -0.059798401 0.050936799
-0.02611593 -0.059798401 0.050936799
-0.02611593 -0.059798401 0.050936799
-0.02611593 -0.059798401 0.050936799
0.013705013 0.0054183393 -0.024654672
0.028656967 0.0034010229 -0.026971892
0.027534859 0.010548132 -0.034824263
0.020584455 0.0085193329 -0.031729769
-0.02611593 -0.059798401 0.050936799
-0.02611593 -0.059798401 0.050936799
-0.02611593 -0.059798401 0.050936799
-0.02611593 -0.059798401 0.050936799
0.0096830949 0.0044509536 -0.025597189
0.024601534 0.0034696455 -0.029895708
0.01960637 0.0044874204 -0.029783737
0.01655167 0.0095696971 -0.033635926
-0.02611593 -0.059798401 0.050936799
-0.02611593 -0.059798401 0.050936799
-0.02611593 -0.059798401 0.050936799
-0.02611593 -0.059798401 0.050936799
0.0056690304 0.0054832292 -0.026503675
0.019594587 0.0014879287 -0.029837791
0.015569661 0.0045379545 -0.031707894
0.011544729 0.0075879805 -0.033578008
-0.02611593 -0.059798401 0.050936799
-0.02611593 -0.059798401 0.050936799
-0.02611593 -0.059798401 0.050936799
-0.02611593 -0.059798401 0.050936799
0.0016658333 0.0044977539 -0.026446529
0.016528105 0.0035707131 -0.033744033
0.011532946 0.0045884885 -0.033632066
0.006560442 0.0065879975 -0.032502409
-0.02611593 -0.059798401 0.050936799
-0.02611593 -0.059798401 0.050936799
-0.02611593 -0.059798401 0.050936799
-0.02611593 -0.059798401 0.050936799
-0.0023521562 0.0045301989 -0.027371027
0.011554681 0.00055299129 -0.031704806
0.0075001614 0.0056388527 -0.035538204
0.0015909426 0.0045701102 -0.030445173
-0.02611593 -0.059798401 0.050936799
-0.02611593 -0.059798401 0.050936799
-0.02611593 -0.059798401 0.050936799
-0.02611593 -0.059798401 0.050936799
-0.0063701472 0.0045626434 -0.028295524
0.0075179692 0.00060352508 -0.033628978
0.0034969647 0.0046533779 -0.035481058
-0.0024270467 0.0046025552 -0.031369664
-0.02611593 -0.059798401 0.050936799
-0.02611593 -0.059798401 0.050936799
-0.02611593 -0.059798401 0.050936799
-0.02611593 -0.059798401 0.050936799
-0.0093843928 0.0055913301 -0.029220793
0.0015447275 -0.0024106079 -0.031570952
-0.0014873235 0.0036534027 -0.034405462
-0.0054935319 0.0066853319 -0.035275906
-0.02611593 -0.059798401 0.050936799
-0.02611593 -0.059798401 0.050936799
-0.02611593 -0.059798401 0.050936799
-0.02611593 -0.059798401 0.050936799
-0.02611593 -0.059798401 0.050936799
-0.0024732621 -0.0023781632 -0.032495458
-0.0064420248 0.00061759172 -0.031366576
-0.010477822 0.0056853644 -0.034200314
-0.02611593 -0.059798401 0.050936799
-0.02611593 -0.059798401 0.050936799
-0.02611593 -0.059798401 0.050936799
-0.02611593 -0.059798401 0.050936799
-0.017353337 0.0035842019 -0.027107183
-0.0064912532 -0.0023457184 -0.033419963
-0.009523306 0.0037182919 -0.036254458
-0.013477273 0.0056961309 -0.034143943
-0.02611593 -0.059798401 0.050936799
-0.02611593 -0.059798401 0.050936799
-0.02611593 -0.059798401 0.050936799
-0.02611593 -0.059798401 0.050936799
-0.02611593 -0.059798401 0.050936799
-0.010509243 -0.0023132737 -0.034344461
-0.014459283 0.00066439214 -0.032215919
-0.01847636 0.0057140756 -0.034049988
-0.02611593 -0.059798401 0.050936799
-0.02611593 -0.059798401 0.050936799
-0.02611593 -0.059798401 0.050936799
-0.02611593 -0.059798401 0.050936799
-0.02611593 -0.059798401 0.050936799
-0.014523306 -0.0012810022 -0.035250939
-0.018458551 0.00067874778 -0.032140754
-0.021475811 0.0057248422 -0.033993617
-0.02611593 -0.059798401 0.050936799
-0.02611593 -0.059798401 0.050936799
-0.02611593 -0.059798401 0.050936799
-0.02611593 -0.059798401 0.050936799
-0.027347581 0.0046199216 -0.026901264
-0.019459283 -0.0043349019 -0.031212389
-0.022476543 0.00071119255 -0.033065259
-0.025460284 0.0047212783 -0.032936815
-0.02611593 -0.059798401 0.050936799
-0.02611593 -0.059798401 0.050936799
-0.02611593 -0.059798401 0.050936799
-0.02611593 -0.059798401 0.050936799
-0.02611593 -0.059798401 0.050936799
-0.023458552 -0.0043205465 -0.031137228
-0.02647581 0.00072554819 -0.032990098
-0.028426217 0.0036960361 -0.030899126
-0.02611593 -0.059798401 0.050936799
-0.02611593 -0.059798401 0.050936799
-0.02611593 -0.059798401 0.050936799
-0.02611593 -0.059798401 0.050936799
-0.033346482 0.0046414551 -0.026788522
-0.027506134 -0.0022522621 -0.034025021
-0.029475261 0.00073631492 -0.032933727
-0.032473795 0.0057643205 -0.033786923
-0.02611593 -0.059798401 0.050936799
-0.02611593 -0.059798401 0.050936799
-0.02611593 -0.059798401 0.050936799
-0.02611593 -0.059798401 0.050936799
-0.02611593 -0.059798401 0.050936799
-0.030520378 -0.0012235794 -0.03495029
-0.033455808 0.00073258154 -0.031858899
-0.036450412 0.00676041 -0.032694083
-0.02611593 -0.059798401 0.050936799
-0.02611593 -0.059798401 0.050936799
-0.02611593 -0.059798401 0.050936799
-0.02611593 -0.059798401 0.050936799
-0.040352143 0.0076841586 -0.027602587
-0.034519646 -0.0012092238 -0.034875128
-0.037455074 0.00074693718 -0.031783737
-0.040449683 0.0067747659 -0.032618918
-0.02611593 -0.059798401 0.050936799
-0.02611593 -0.059798401 0.050936799
-0.02611593 -0.059798401 0.050936799
-0.02611593 -0.059798401 0.050936799
-0.044347484 0.0086983442 -0.027509406
-0.038466673 -0.0022489622 -0.031818997
-0.040431876 0.0017394418 -0.030709676
-0.04443023 0.0067710322 -0.031544089
-0.02611593 -0.059798401 0.050936799
-0.02611593 -0.059798401 0.050936799
-0.02611593 -0.059798401 0.050936799
-0.02611593 -0.059798401 0.050936799
-0.048328027 0.0086946115 -0.026434585
-0.04249946 -0.0011986014 -0.033725142
-0.044412427 0.0017357084 -0.029634863
-0.049518086 0.012896495 -0.037339997
-0.02611593 -0.059798401 0.050936799
-0.02611593 -0.059798401 0.050936799
-0.02611593 -0.059798401 0.050936799
-0.02611593 -0.059798401 0.050936799
-0.051338345 0.010723121 -0.027341839
-0.046480004 -0.0012023349 -0.032650322
-0.050518814 0.0078828493 -0.036411639
-0.053483836 0.011874842 -0.035283528
-0.02611593 -0.059798401 0.050936799
-0.02611593 -0.059798401 0.050936799
-0.02611593 -0.059798401 0.050936799
-0.02611593 -0.059798401 0.050936799
-0.056348301 0.012758816 -0.028211508
-0.050456624 -0.00020624138 -0.031557478
-0.054499365 0.0078791156 -0.035336811
-0.057460453 0.012870939 -0.034190688
-0.02611593 -0.059798401 0.050936799
-0.02611593 -0.059798401 0.050936799
-0.02611593 -0.059798401 0.050936799
-0.02611593 -0.059798401 0.050936799
-0.060343638 0.013773003 -0.028118324
-0.056514703 0.0038869712 -0.035371304
-0.058461186 0.0078572929 -0.033262331
-0.060407661 0.011827609 -0.031153347
-0.02611593 -0.059798401 0.050936799
-0.02611593 -0.059798401 0.050936799
-0.02611593 -0.059798401 0.050936799
-0.02611593 -0.059798401 0.050936799
-0.06227231 0.012707993 -0.024100117
-0.060461733 0.0028472289 -0.03231518
-0.062441733 0.0078535601 -0.032187507
-0.064403005 0.012841795 -0.031060167
-0.02611593 -0.059798401 0.050936799
-0.02611593 -0.059798401 0.050936799
-0.02611593 -0.059798401 0.050936799
-0.02611593 -0.059798401 0.050936799
-0.06729313 0.016761439 -0.025933418
-0.065438166 0.003846915 -0.031203542
-0.070510313 0.013971693 -0.036927376
-0.067331485 0.011780375 -0.02702317
-0.02611593 -0.059798401 0.050936799
-0.02611593 -0.059798401 0.050936799
-0.02611593 -0.059798401 0.050936799
-0.02611593 -0.059798401 0.050936799
-0.069225729 0.014696599 -0.021933232
-0.070429407 0.005864521 -0.031073555
-0.07345359 0.013928193 -0.033872019
-0.074400261 0.01789492 -0.031781837
-0.02611593 -0.059798401 0.050936799
-0.02611593 -0.059798401 0.050936799
-0.02611593 -0.059798401 0.050936799
-0.02611593 -0.059798401 0.050936799
-0.075246364 0.018753635 -0.023747731
-0.075439356 0.0079002157 -0.031943232
-0.077396698 0.013888281 -0.030797873
-0.078343362 0.017855007 -0.028707691
-0.02611593 -0.059798401 0.050936799
-0.02611593 -0.059798401 0.050936799
-0.02611593 -0.059798401 0.050936799
-0.02611593 -0.059798401 0.050936799
-0.081267007 0.02281066 -0.025562238
-0.079378523 0.0088601355 -0.028851062
-0.085450485 0.018988501 -0.034556098
-0.084363997 0.021912042 -0.03052219
-0.02611593 -0.059798401 0.050936799
-0.02611593 -0.059798401 0.050936799
-0.02611593 -0.059798401 0.050936799
-0.02611593 -0.059798401 0.050936799
-0.084229007 0.02278525 -0.023506541
-0.085384369 0.011899242 -0.029683918
-0.089408383 0.019966511 -0.032463603
-0.091365732 0.025954574 -0.031318251
-0.02611593 -0.059798401 0.050936799
-0.02611593 -0.059798401 0.050936799
-0.02611593 -0.059798401 0.050936799
-0.02611593 -0.059798401 0.050936799
-0.090227 0.027824024 -0.024303373
-0.089327462 0.01185933 -0.026609778
-0.093347557 0.020926431 -0.029371429
-0.09532363 0.026932582 -0.029225737
-0.02611593 -0.059798401 0.050936799
-0.02611593 -0.059798401 0.050936799
-0.02611593 -0.059798401 0.050936799
-0.02611593 -0.059798401 0.050936799
-0.098243341 0.032888062 -0.026062276
-0.1024208 0.021031085 -0.033200964
-0.10236372 0.025994055 -0.031111553
-0.10130682 0.030953441 -0.029040918
-0.02611593 -0.059798401 0.050936799
-0.02611593 -0.059798401 0.050936799
-0.02611593 -0.059798401 0.050936799
-0.02611593 -0.059798401 0.050936799
-0.10220124 0.033866066 -0.023969773
-0.10735586 0.022994418 -0.030071989
-0.10833212 0.028996984 -0.029945087
-0.11031905 0.037020896 -0.030763026
-0.02611593 -0.059798401 0.050936799
-0.02611593 -0.059798401 0.050936799
-0.02611593 -0.059798401 0.050936799
-0.02611593 -0.059798401 0.050936799
-0.11019493 0.039911848 -0.024711002
-0.1163533 0.028043959 -0.03081245
-0.11834022 0.036067866 -0.031630382
-0.11728334 0.04102724 -0.029559754
-0.02611593 -0.059798401 0.050936799
-0.02611593 -0.059798401 0.050936799
-0.02611593 -0.059798401 0.050936799
-0.02611593 -0.059798401 0.050936799
-0.11920323 0.046979129 -0.026415076
-0.12228425 0.031010717 -0.027646665
-0.12832963 0.04312066 -0.032316003
-0.12626205 0.046058699 -0.029300544
-0.02611593 -0.059798401 0.050936799
-0.02611593 -0.059798401 0.050936799
-0.02611593 -0.059798401 0.050936799
-0.02611593 -0.059798401 0.050936799
-0.12212779 0.046917539 -0.022360057
-0.13225885 0.037045583 -0.027350649
-0.13930014 0.050158944 -0.031983182
-0.13523683 0.052089974 -0.029023319
-0.02611593 -0.059798401 0.050936799
-0.02611593 -0.059798401 0.050936799
-0.02611593 -0.059798401 0.050936799
-0.02611593 -0.059798401 0.050936799
-0.13514231 0.057016768 -0.024934582
-0.147273 0.047151975 -0.029887591
-0.14927474 0.05619381 -0.031687163
-0.1441929 0.058103163 -0.027746424
-0.02611593 -0.059798401 0.050936799
-0.02611593 -0.059798401 0.050936799
-0.02611593 -0.059798401 0.050936799
-0.02611593 -0.059798401 0.050936799
-0.14409837 0.06302996 -0.023657694
-0.15721017 0.05315068 -0.027592242
-0.15921189 0.062192496 -0.029391829
-0.15715517 0.067148291 -0.027339984
-0.02611593 -0.059798401 0.050936799
-0.02611593 -0.059798401 0.050936799
-0.02611593 -0.059798401 0.050936799
-0.02611593 -0.059798401 0.050936799
-0.15506494 0.071068071 -0.023306854
-0.17316402 0.06420622 -0.027093388
-0.17416988 0.072244614 -0.028929785
-0.17011745 0.076193422 -0.02693354
-0.02611593 -0.059798401 0.050936799
-0.02611593 -0.059798401 0.050936799
-0.02611593 -0.059798401 0.050936799
-0.02611593 -0.059798401 0.050936799
-0.17204428 0.085162893 -0.024734475
-0.19011772 0.075265355 -0.026575748
-0.18910913 0.082278669 -0.027468074
-0.18405688 0.086223871 -0.025490634
-0.02611593 -0.059798401 0.050936799
-0.02611593 -0.059798401 0.050936799
-0.02611593 -0.059798401 0.050936799
-0.02611593 -0.059798401 0.050936799
-0.18801688 0.096236534 -0.025235288
-0.21406528 0.092366695 -0.026818126
-0.20904654 0.0973479 -0.026821986
-0.19899222 0.097257748 -0.024010908
-0.02611593 -0.059798401 0.050936799
-0.02611593 -0.059798401 0.050936799
-0.02611593 -0.059798401 0.050936799
-0.02611593 -0.059798401 0.050936799
-0.20494398 0.10927723 -0.023681939
-0.23899001 0.11045336 -0.026024032
-0.22996506 0.11240263 -0.02515744
-0.22495028 0.11638399 -0.025179319
-0.02611593 -0.059798401 0.050936799
-0.02611593 -0.059798401 0.050936799
-0.02611593 -0.059798401 0.050936799
-0.02611593 -0.059798401 0.050936799
-0.23189008 0.13140658 -0.024777509
-0.26184413 0.12746066 -0.02128689
-0.25785875 0.13348146 -0.023253266
-0.25185892 0.13847716 -0.024275567
-0.02611593 -0.059798401 0.050936799
-0.02611593 -0.059798401 0.050936799
-0.02611593 -0.059798401 0.050936799
-0.02611593 -0.059798401 0.050936799
-0.24776514 0.1433896 -0.020261999
-0.92505169 0.64798683 -0.17850737
-0.88508856 0.64987916 -0.18122229
-0.85310829 0.65579945 -0.18371478
-0.02611593 -0.059798401 0.050936799
-0.92863512 0.64860308 -0.15642165
-0.88871729 0.64853191 -0.16117191
-0.85575986 0.65346688 -0.16470088
-0.81782299 0.65338475 -0.16841391
-0.9332332 0.65024084 -0.13529876
-0.8953445 0.65221262 -0.14197475
-0.85541594 0.65012372 -0.14576137
-0.81850547 0.6480636 -0.15049133
-0.93281043 0.64782506 -0.1123426
-0.89695889 0.64984024 -0.12098031
-0.86206979 0.65182287 -0.12759991
-0.8302176 0.6538524 -0.13616246
-0.93038797 0.64540225 -0.089424022
-0.89557379 0.64745712 -0.10004226
-0.86873847 0.65454 -0.11042009
-0.83188802 0.65153432 -0.11816701
-0.93396354 0.64801812 -0.067302257
-0.89919466 0.64810956 -0.079955854
-0.87138611 0.65320724 -0.091388181
-0.83657277 0.65024489 -0.10109685
-0.93556607 0.64864522 -0.046253778
-0.89780951 0.64572644 -0.0590178
-0.87002355 0.64984232 -0.071467794
-0.84126836 0.65097326 -0.084990293
-0.93114805 0.64521533 -0.023390777
-0.89744294 0.64336509 -0.039060615
-0.87067556 0.6475026 -0.052491486
-0.84494936 0.65068012 -0.067920893
-0.93172807 0.64682066 -0.0013434142
-0.89806437 0.64400667 -0.019030586
-0.8773402 0.65121955 -0.035293639
-0.84962618 0.65139037 -0.050814673
-0.9303351 0.64643723 0.019630682
-0.9006815 0.64565527 0.0010550469
-0.87998009 0.6518864 -0.016225688
-0.84830511 0.64706182 -0.032911651
-0.91895258 0.63900095 0.041290406
-0.89631957 0.64227974 0.020919055
-0.87564468 0.6465292 0.0026026219
-0.84998643 0.64676154 -0.015879832
-0.92353499 0.644638 0.062485352
-0.89694101 0.64292133 0.04094908
-0.87728465 0.64719254 0.021651793
-0.84567374 0.64042252 0.0019308031
-0.91914654 0.64324397 0.083385058
-0.89755851 0.64456272 0.060997132
-0.87792867 0.64685243 0.04066414
-0.85234243 0.64313972 0.019110627
-0.91575384 0.64285326 0.10432157
-0.8932153 0.64120525 0.079861477
-0.87759167 0.64652681 0.058658041
-0.85699272 0.64583153 0.03725253
-0.90836984 0.64044869 0.12514687
-0.89382887 0.64384651 0.099927545
-0.87723595 0.64618313 0.077651605
-0.85468656 0.64251733 0.054155134
-0.90796483 0.64306825 0.1461938
-0.88848191 0.64148527 0.11879112
-0.8749072 0.64385068 0.095571876
-0.85834098 0.64420569 0.072260231
-0.89959979 0.64067811 0.16600066
-0.88411212 0.6401093 0.13869116
-0.87456626 0.64452499 0.11358379
-0.8590225 0.64390177 0.089273259
-0.89422625 0.64029843 0.18589994
-0.88075697 0.63975483 0.15762836
-0.87121505 0.6431706 0.13250296
-0.85472459 0.63858074 0.10610224
-0.88984859 0.64092207 0.20583603
-0.87939352 0.64140719 0.17663915
-0.87085539 0.64382678 0.15151453
-0.8613627 0.6442793 0.12433579
-0.87948382 0.63852477 0.22560529
-0.87304676 0.63904238 0.19548392
-0.86951858 0.64349759 0.16948965
-0.86002982 0.6429503 0.14229289
-0.8770979 0.6411553 0.24561498
-0.87066478 0.64067298 0.21547562
-0.86616343 0.64314312 0.18842684
-0.85769713 0.64161766 0.16023117
-0.86774778 0.63977945 0.2644214
-0.8643328 0.63932604 0.23333874
-0.86482263 0.64381379 0.20641997
-0.85636425 0.64028865 0.17818826
-0.85642844 0.63541502 0.28213656
-0.85897797 0.63896441 0.25223833
-0.86445898 0.64546973 0.22544956
-0.85602331 0.64096284 0.19620019
-0.85303891 0.63904184 0.30214548
-0.85461909 0.63960618 0.27117479
-0.85316241 0.64012361 0.24214703
-0.85271347 0.63864493 0.21310201
-0.84767222 0.6416797 0.32109913
-0.84431434 0.63626331 0.28792706
-0.85180295 0.6407761 0.26113981
-0.85334575 0.64130431 0.23216842
-0.8353492 0.63831151 0.33881348
-0.84192854 0.63889378 0.30793676
-0.84943968 0.64242494 0.28013182
-0.84901732 0.63896471 0.25005114
-0.8250367 0.63696831 0.35560182
-0.83756179 0.64153528 0.32690918
-0.84013486 0.63908559 0.29690289
-0.84470367 0.63764304 0.26695219
-0.81272453 0.63561797 0.37235254
-0.82824904 0.64019567 0.34371626
-0.8367945 0.63974905 0.31485844
-0.84434003 0.63929898 0.28598177
-0.80538094 0.63726681 0.39025095
-0.81794441 0.6368528 0.36046857
-0.82848549 0.63741326 0.33166629
-0.83903056 0.63697392 0.30284604
-0.79506451 0.63692343 0.40705729
-0.80863172 0.63551313 0.37727571
-0.82314944 0.6370697 0.34956625
-0.83369446 0.63663036 0.32074597
-0.7837522 0.63557667 0.42382678
-0.79933763 0.63419157 0.39308313
-0.81681353 0.63672251 0.36744741
-0.83233106 0.63828272 0.33975679
-0.77442771 0.63723642 0.44068795
-0.79397112 0.63682938 0.41203681
-0.8144424 0.64037097 0.38647544
-0.8250258 0.63495052 0.35656545
-0.76016122 0.63391542 0.45536575
-0.78170413 0.63351548 0.42675215
-0.80217952 0.63605726 0.40117285
-0.81968969 0.63460702 0.37446538
-0.74888235 0.63360459 0.47015399
-0.7723875 0.63317567 0.44357729
-0.7978127 0.6386987 0.4201453
-0.81337249 0.634278 0.39134687
-0.73660761 0.63229036 0.48490536
-0.76308572 0.63385379 0.45942077
-0.78949589 0.63836247 0.43698919
-0.80704057 0.63293093 0.40921003
-0.72925222 0.63693875 0.50285786
-0.75574213 0.6355027 0.47731918
-0.77922869 0.63505578 0.45174217
-0.80564666 0.63756472 0.42927453
-0.71302754 0.63264692 0.51548076
-0.74346745 0.63418847 0.49207059
-0.77288491 0.6367082 0.46965933
-0.79931468 0.63621777 0.44713768
-0.70174474 0.63333589 0.53028697
-0.73318845 0.63388127 0.5068776
-0.76159519 0.63437974 0.48541117
-0.79099786 0.63588154 0.46398157
-0.68653065 0.63106525 0.54196501
-0.71796346 0.62959296 0.51951927
-0.75230122 0.63305819 0.50121862
-0.78171164 0.63256031 0.47975299
-0.67427075 0.63076901 0.55573475
-0.70965749 0.63127446 0.53539956
-0.74397653 0.63472164 0.51809859
-0.77142179 0.63023537 0.49552366
-0.66200697 0.63147253 0.5695225
-0.69540578 0.62897128 0.54909569
-0.73270559 0.63241112 0.53285074
-0.76605523 0.63287324 0.51447731
-0.6467889 0.63020176 0.5812186
-0.68216872 0.62768972 0.56182897
-0.71845776 0.62910813 0.54652888
-0.75379229 0.62855953 0.52917463
-0.62766618 0.62398988 0.58875072
-0.67088991 0.62737888 0.57661718
-0.7121101 0.63176054 0.56446409
-0.74545282 0.62920505 0.54703623
-0.61834866 0.62866724 0.60466629
-0.6566757 0.62511188 0.58831406
-0.6988582 0.62946087 0.57817906
-0.73515517 0.62887973 0.56284291
-0.6002031 0.62344074 0.61323488
-0.64736599 0.62778962 0.60419357
-0.6915068 0.63310951 0.59611344
-0.72388804 0.62556946 0.57757705
-0.58795398 0.62516224 0.62604105
-0.63410228 0.62848955 0.6179626
-0.67532337 0.62785393 0.60671908
-0.71749508 0.63018525 0.59754771
-0.57472384 0.62689811 0.63782877
-0.6218611 0.62821132 0.63073272
-0.665995 0.63051367 0.62359816
-0.70424712 0.62688583 0.61124462
-0.56345195 0.62960494 0.65167141
-0.60863876 0.62794757 0.64248431
-0.65275782 0.62923199 0.6363315
-0.68999934 0.6235829 0.62492269
-0.54533988 0.62541437 0.65825874
-0.59442061 0.62668043 0.65419912
-0.64049792 0.62893569 0.6501013
-0.68265182 0.62623167 0.64283907
-0.53212845 0.62716836 0.66904676
-0.58117956 0.62639868 0.66695046
-0.62819672 0.62960309 0.66588843
-0.67133158 0.62688446 0.65964466
-0.51694793 0.62593383 0.67874348
-0.5679307 0.62811655 0.67973781
-0.61495566 0.62932128 0.67863971
-0.65415239 0.6206255 0.67021346
-0.50470978 0.62967306 0.69058597
-0.54786825 0.62095547 0.6842342
-0.60267311 0.63000661 0.69342715
-0.64480132 0.62426692 0.68811023
-0.48854807 0.62845302 0.69926429
-0.53659636 0.62366223 0.69807684
-0.58650053 0.62676883 0.70306909
-0.63349974 0.62493789 0.70391619
-0.47242779 0.62626922 0.70592523
-0.52238905 0.62441283 0.70882803
-0.57323301 0.62846863 0.71685606
-0.61729383 0.620664 0.71553934
-0.45534909 0.62311834 0.71055007
-0.50816303 0.62514532 0.72057891
-0.55804151 0.62521625 0.72751641
-0.60303426 0.62036055 0.72927153
-0.4392249 0.62193441 0.71722901
-0.49202406 0.62294358 0.72823954
-0.54379678 0.62593067 0.74026692
-0.59171003 0.62201321 0.74609512
-0.42503235 0.62370294 0.72699863
-0.47877121 0.62566119 0.74104494
-0.52664316 0.62270743 0.7488904
-0.57451516 0.61975354 0.75673592
-0.40890422 0.62351888 0.73369557
-0.46260956 0.62444121 0.7497232
-0.51437145 0.62541056 0.76271427
-0.56316829 0.62238801 0.77457714
-0.39473045 0.62530547 0.7424655
-0.44455764 0.61930507 0.75329351
-0.50010407 0.62710679 0.77648246
-0.54695052 0.62111366 0.78625447
-0.37764782 0.6231544 0.74710834
-0.43130091 0.62302262 0.76611686
-0.4839237 0.62586856 0.78616041
-0.52975553 0.61885399 0.79689521
-0.36349273 0.62495905 0.75487858
-0.41517669 0.62183875 0.77279586
-0.46678486 0.62366325 0.79380226
-0.5125832 0.61561263 0.80651838
-0.34831518 0.62774199 0.76364774
-0.39996561 0.62358558 0.78354633
-0.45055923 0.62438852 0.80551553
-0.50022483 0.62124294 0.82439488
-0.32936487 0.62069309 0.76216495
-0.38381881 0.6233834 0.79124296
-0.43244323 0.62119788 0.81212091
-0.48398438 0.6209504 0.83708984
-0.31329685 0.61956346 0.76584494
-0.36766803 0.62418109 0.79895759
-0.41725481 0.62196296 0.82185364
-0.46487248 0.6167562 0.84365839
-0.2972101 0.61841571 0.7705245
-0.34963083 0.62006295 0.80154628
-0.40009335 0.62073934 0.83051312
-0.4466925 0.61551094 0.85329878
-0.2840243 0.62320542 0.77936733
-0.33163899 0.61398125 0.80209959
-0.38388246 0.62248254 0.84124482
-0.43044415 0.6172179 0.86602974
-0.26791099 0.62403929 0.78508264
-0.31737065 0.6206947 0.81495821
-0.36675847 0.62129509 0.84790492
-0.41322261 0.61693984 0.87770617
-0.2509298 0.61997896 0.7846911
-0.29844299 0.61266404 0.8124578
-0.34959304 0.62107128 0.85658246
-0.39506131 0.61571264 0.88634688
-0.23485783 0.61984921 0.78838909
-0.28319752 0.61839211 0.8242799
-0.33146924 0.61988026 0.86322385
-0.37687737 0.61546713 0.89600527
-0.21975911 0.62170464 0.7931416
-0.26615229 0.61627716 0.82692343
-0.31338283 0.61872536 0.86786592
-0.35773501 0.61425442 0.90362757
-0.20375118 0.61962938 0.79380453
-0.24906179 0.6161257 0.83160233
-0.29525506 0.61853415 0.87452531
-0.33954716 0.61500877 0.91330391
-0.18674341 0.61755067 0.79444873
-0.23201661 0.61401075 0.83424586
-0.27617279 0.6163758 0.8791306
-0.32040477 0.61379606 0.92092621
-0.17261793 0.62139124 0.80025572
-0.21585797 0.61680812 0.84199649
-0.25902218 0.61716998 0.8868264
-0.30123582 0.61456484 0.92958415
-0.15652332 0.62224311 0.80497146
-0.19880883 0.61569297 0.84465802
-0.23997734 0.61504781 0.88943237
-0.28115374 0.61240298 0.9341706
-0.14055282 0.62020421 0.80363506
-0.18171047 0.61754125 0.84937298
-0.22182301 0.61683816 0.89712745
-0.26200348 0.61318994 0.94182891
-0.124473 0.62207401 0.80736905
-0.16465741 0.61742598 0.85205257
-0.20279689 0.61473411 0.89873374
-0.2418761 0.61299157 0.94845074
-0.10850251 0.62003505 0.80603278
-0.1485175 0.6202414 0.85880351
-0.18559706 0.61849159 0.90848297
