# .PCD v0.7 - Point Cloud Data file format
VERSION 0.7
FIELDS x y z
SIZE 4 4 4
TYPE F F F
COUNT 1 1 1
WIDTH 1378
HEIGHT 1
VIEWPOINT 0 0 0 1 0 0 0
POINTS 1378
DATA ascii
0.61982542 0.59799033 0.92703873
0.52777302 0.61131084 0.7629475
0.55855995 0.60240865 0.80622476
0.59858644 0.60227358 0.86049134
0.6436308 0.60210252 0.9156636
0.54052329 0.61049956 0.7496897
0.57742238 0.60648447 0.79794252
0.61527985 0.60150218 0.84415925
0.65920025 0.59844375 0.89329833
0.55633706 0.61162281 0.7394104
0.59006733 0.60276413 0.77963227
0.6319772 0.60173059 0.82784528
0.67890096 0.59966123 0.87694597
0.56908345 0.60981172 0.72613454
0.60684341 0.60391998 0.76733494
0.64868933 0.60094112 0.81251287
0.69760185 0.60088223 0.86061239
0.57978493 0.60604423 0.71086079
0.62362349 0.6060757 0.75505561
0.66640913 0.60214764 0.79719776
0.7183063 0.60309601 0.84425926
0.59662896 0.61014533 0.70161647
0.6363098 0.60331899 0.73876268
0.68210661 0.60237962 0.78090256
0.73392105 0.60140067 0.82392925
0.61244673 0.61226845 0.69135529
0.65002251 0.60254025 0.72348666
0.69880784 0.60360795 0.76460654
0.74749488 0.59874898 0.80161965
0.62417841 0.61147881 0.67711651
0.66885138 0.60765207 0.7132231
0.71448666 0.60385799 0.74731165
0.76618493 0.60198772 0.78432244
0.63590634 0.60968935 0.66285974
0.68356776 0.60786957 0.69794631
0.72814322 0.6031335 0.72903669
0.78180361 0.60129225 0.76401055
0.64966035 0.60987425 0.64960104
0.69217604 0.60419977 0.67771196
0.74077713 0.60143089 0.70976281
0.79742616 0.60159665 0.74371666
0.66139215 0.60908455 0.63536233
0.70589262 0.60442084 0.66245389
0.75645989 0.6026808 0.69248587
0.81305271 0.6029008 0.72344083
0.67412758 0.60929114 0.62112272
0.72063553 0.60661995 0.64821285
0.76707554 0.60100347 0.67224997
0.8276794 0.60420859 0.70318377
0.68688577 0.61047953 0.60790098
0.73128873 0.60490638 0.62997621
0.78173977 0.60227507 0.65399224
0.84026122 0.60356003 0.68092895
0.69659913 0.60971504 0.59270012
0.74398679 0.60514921 0.6137374
0.79540414 0.60355026 0.63575327
0.85384679 0.60390776 0.65867329
0.71440959 0.61484867 0.58145571
0.75566626 0.60541362 0.59651768
0.81109464 0.60679984 0.61851239
0.8613655 0.60133183 0.63347739
0.72512281 0.61408067 0.56623602
0.76734585 0.60567802 0.57929802
0.81866962 0.60416961 0.5963155
0.88106704 0.60756648 0.61621547
0.73583996 0.61431253 0.55103445
0.78105152 0.60791689 0.56307638
0.83131146 0.60446662 0.57707763
0.88756335 0.60401243 0.59002072
0.74451214 0.61258811 0.53383505
0.79070878 0.60720676 0.54487652
0.84091645 0.60481066 0.55589688
0.90117937 0.60734153 0.56881875
0.75625181 0.61379814 0.51963234
0.79934353 0.60551852 0.5256778
0.85256243 0.60611105 0.5366959
0.90872067 0.60574722 0.54464054
0.76797265 0.61502618 0.50442994
0.81407565 0.60973531 0.51047313
0.86218619 0.60643697 0.51651472
0.92031443 0.60810184 0.52245855
0.7715739 0.60937464 0.48425344
0.8176434 0.60511976 0.48831534
0.87179118 0.60678095 0.49533397
0.92483371 0.60553664 0.49731901
0.78027266 0.60963178 0.46808976
0.82730848 0.60640931 0.47015154
0.87937385 0.60615033 0.47317305
0.93440521 0.60691661 0.47415692
0.79097503 0.61088151 0.45190653
0.83595109 0.60672069 0.45098886
0.88697922 0.60650158 0.45202982
0.94498038 0.60929286 0.45099404
0.8006736 0.61113507 0.43572405
0.84561229 0.60701042 0.43280703
0.89761055 0.60882348 0.43186596
0.94850755 0.60873091 0.42590934
0.80935365 0.61141026 0.41856065
0.85123277 0.60635084 0.41268307
0.90822327 0.6111635 0.41070244
0.95405334 0.60814363 0.40178671
0.81803375 0.61168551 0.40139729
0.86089796 0.60764045 0.39451927
0.91785878 0.61448896 0.39057538
0.96363258 0.61152327 0.37866068
0.82671773 0.61296052 0.38425201
0.87155193 0.61094415 0.3753731
0.91838956 0.60992038 0.36647463
0.96415257 0.60897243 0.35359627
0.82832336 0.60831606 0.36413109
0.87819487 0.61126268 0.35624799
0.92800635 0.61326373 0.34534788
0.97170961 0.61137754 0.32949013
0.84105581 0.61254001 0.34896395
0.88279688 0.61062479 0.33514312
0.93460107 0.61563629 0.32325983
0.97928935 0.61476433 0.30640167
0.85072482 0.61482942 0.33081818
0.88944376 0.61194319 0.31603608
0.93515843 0.61304927 0.30019477
0.98282444 0.61620212 0.281353
0.85538298 0.61413717 0.31271231
0.89504552 0.61130166 0.2949124
0.93772334 0.61245471 0.27712819
0.98537451 0.61662549 0.25730476
0.86505198 0.61642665 0.29456654
0.89664423 0.60967475 0.27384591
0.94734406 0.61679804 0.25601947
0.98087668 0.61411059 0.23133469
0.8717137 0.61672711 0.27644113
0.90630233 0.61398184 0.25473654
0.94490194 0.61422169 0.2330108
0.61539638 0.36897504 0.14971553
0.87635314 0.61605299 0.25733557
0.90990448 0.61334753 0.23365045
0.61356795 0.38387117 0.15602136
0.58697122 0.3504225 0.13090575
0.87395942 0.61142278 0.23728986
0.60365742 0.39185145 0.15935239
0.58311266 0.36234435 0.13619545
-0.02611593 -0.059798401 0.050936799
0.59278446 0.39979908 0.16470154
0.59132081 0.38218564 0.14340311
0.57680935 0.35663822 0.12120516
-0.02611593 -0.059798401 0.050936799
0.57239914 0.38218147 0.14775878
0.56893981 0.36557499 0.12651595
0.5695101 0.35193557 0.10625168
-0.02611593 -0.059798401 0.050936799
0.5580737 0.37050509 0.13281071
0.56265521 0.35985079 0.11252533
0.55922234 0.34522587 0.092318207
0.56179333 0.33659652 0.071106784
-0.02611593 -0.059798401 0.050936799
0.56140411 0.35808989 0.099512488
0.55394942 0.34249759 0.078362845
0.55852777 0.3358607 0.05714988
0.55356026 0.36399093 0.10676855
0.5531199 0.35237283 0.085559443
0.55771703 0.34571788 0.065346144
0.55929208 0.33809194 0.044171534
0.55332768 0.36220837 0.094736576
0.55086905 0.3506155 0.072565399
0.5584774 0.34694928 0.052349776
0.55703032 0.33835235 0.030213857
0.55308038 0.36144367 0.081722975
0.54761833 0.34886178 0.059590138
0.55422682 0.34519917 0.03939331
0.56178689 0.3435868 0.016214745
0.5498445 0.35867205 0.069729351
0.55040097 0.35106772 0.047573872
0.55197996 0.34444159 0.026417278
0.56955481 0.35180998 0.0022133067
0.5485934 0.35691109 0.056716509
0.55318362 0.35327372 0.035557602
0.5507406 0.34568024 0.013458494
-0.02611593 -0.059798401 0.050936799
0.53635037 0.34715486 0.045765541
0.55194038 0.35351244 0.022580799
0.55148625 0.34792951 -0.00051951781
0.59903353 0.37829486 -0.030870743
0.5381332 0.34936443 0.033768065
0.55671179 0.35772899 0.0095633268
0.55325419 0.35115701 -0.013498634
0.58177662 0.36957443 -0.042709403
0.56895179 0.37150264 0.019586707
0.55946088 0.36097094 -0.0044342466
0.57000649 0.36538303 -0.029560391
-0.02611593 -0.059798401 0.050936799
0.55569404 0.36276793 0.0076728873
0.55521035 0.3592208 -0.017390709
0.56074911 0.36165115 -0.042458951
0.60322249 0.39210677 -0.076714858
-0.02611593 -0.059798401 0.050936799
0.56598163 0.36843303 -0.031430498
0.57349426 0.37389192 -0.058481578
0.77967882 0.52444398 -0.13264371
0.58422834 0.38418484 -0.021483816
0.57573426 0.37766698 -0.046451151
0.58822429 0.38714334 -0.075523444
0.91106296 0.62691158 -0.1862682
0.56098253 0.36845097 -0.031336546
0.58647192 0.38791522 -0.062472235
0.68381941 0.4604376 -0.11199978
0.90664876 0.63134128 -0.20911317
0.58071947 0.38368422 -0.048436318
0.58820653 0.39217868 -0.07743267
0.90507191 0.62893277 -0.18611942
0.89426857 0.6297465 -0.22891697
0.58846468 0.39092562 -0.063455433
0.67780179 0.4604772 -0.1128867
0.89868367 0.63033396 -0.20698154
0.87889987 0.62614477 -0.24770075
0.58022577 0.38717207 -0.075373113
0.89907295 0.62895429 -0.18600667
0.88828844 0.62975001 -0.22780454
0.20602401 0.11880033 -0.031206653
0.66183639 0.4494642 -0.10878561
0.8866998 0.62434191 -0.20486486
0.87692696 0.62813348 -0.24662746
0.19096875 0.10887395 -0.032104649
0.89908779 0.62793636 -0.18502505
0.88630754 0.62973905 -0.2267673
0.20403919 0.11778958 -0.030187428
-0.02611593 -0.059798401 0.050936799
0.89369154 0.62733442 -0.20594199
0.87991929 0.63114023 -0.24762943
0.18898393 0.1078632 -0.031085413
0.15694474 0.086945444 -0.028863188
0.88930309 0.62872839 -0.22684169
0.20403525 0.11678974 -0.030205447
-0.02611593 -0.059798401 0.050936799
-0.02611593 -0.059798401 0.050936799
0.87694865 0.62409794 -0.24470022
0.18998373 0.10785961 -0.031104203
0.1698841 0.0959877 -0.033943601
0.13786757 0.076051682 -0.03070369
0.20503113 0.11578634 -0.030242257
-0.02611593 -0.059798401 0.050936799
-0.02611593 -0.059798401 0.050936799
-0.02611593 -0.059798401 0.050936799
0.18799105 0.10484921 -0.030121021
0.16590658 0.091966562 -0.031941194
0.14584829 0.081058294 -0.032763239
0.12183514 0.067110635 -0.030565206
-0.02611593 -0.059798401 0.050936799
-0.02611593 -0.059798401 0.050936799
-0.02611593 -0.059798401 0.050936799
-0.02611593 -0.059798401 0.050936799
0.16094007 0.085931249 -0.028956369
0.14783314 0.082069039 -0.033782467
0.12977843 0.072153427 -0.034624092
0.10678381 0.058184091 -0.031445179
-0.02611593 -0.059798401 0.050936799
-0.02611593 -0.059798401 0.050936799
-0.02611593 -0.059798401 0.050936799
-0.02611593 -0.059798401 0.050936799
0.13989286 0.073008843 -0.028796006
0.12878948 0.070139259 -0.033641674
0.11374209 0.062212553 -0.034503628
0.089799888 0.047192708 -0.028324962
-0.02611593 -0.059798401 0.050936799
-0.02611593 -0.059798401 0.050936799
-0.02611593 -0.059798401 0.050936799
-0.02611593 -0.059798401 0.050936799
0.12383386 0.062086217 -0.02969322
0.11771175 0.064234041 -0.036542073
0.093769573 0.049214192 -0.030363407
0.078778341 0.041233208 -0.028226376
-0.02611593 -0.059798401 0.050936799
-0.02611593 -0.059798401 0.050936799
-0.02611593 -0.059798401 0.050936799
-0.02611593 -0.059798401 0.050936799
0.10681249 0.05113101 -0.028572325
0.10269396 0.054271482 -0.035440739
0.082748018 0.043254685 -0.030264817
0.069745563 0.037284277 -0.029128995
-0.02611593 -0.059798401 0.050936799
-0.02611593 -0.059798401 0.050936799
-0.02611593 -0.059798401 0.050936799
-0.02611593 -0.059798401 0.050936799
0.093783453 0.043179031 -0.028472196
0.089683622 0.046301402 -0.034340952
0.073711306 0.038305927 -0.031185463
0.062716335 0.034327995 -0.030051176
-0.02611593 -0.059798401 0.050936799
-0.02611593 -0.059798401 0.050936799
-0.02611593 -0.059798401 0.050936799
-0.02611593 -0.059798401 0.050936799
0.081758156 0.036223289 -0.028372839
0.078662075 0.040341903 -0.034242366
0.064712033 0.033320986 -0.030106772
0.051747024 0.027314398 -0.026971631
-0.02611593 -0.059798401 0.050936799
-0.02611593 -0.059798401 0.050936799
-0.02611593 -0.059798401 0.050936799
-0.02611593 -0.059798401 0.050936799
0.071736425 0.030260202 -0.028293047
0.06470418 0.031321332 -0.03014281
0.057668019 0.031382632 -0.032010596
0.044736519 0.02434003 -0.026894152
-0.02611593 -0.059798401 0.050936799
-0.02611593 -0.059798401 0.050936799
-0.02611593 -0.059798401 0.050936799
-0.02611593 -0.059798401 0.050936799
0.061752133 0.024260929 -0.026213925
0.059645001 0.030393714 -0.033065863
0.049653772 0.027412023 -0.031932347
0.035774697 0.019318918 -0.023816146
-0.02611593 -0.059798401 0.050936799
-0.02611593 -0.059798401 0.050936799
-0.02611593 -0.059798401 0.050936799
-0.02611593 -0.059798401 0.050936799
0.053737886 0.020290324 -0.026135676
0.051645558 0.025405183 -0.032005966
0.042658068 0.023419732 -0.030873232
0.03171926 0.019387539 -0.02673997
-0.02611593 -0.059798401 0.050936799
-0.02611593 -0.059798401 0.050936799
-0.02611593 -0.059798401 0.050936799
-0.02611593 -0.059798401 0.050936799
0.048693493 0.018344786 -0.028077085
0.046605099 0.024459474 -0.033929367
0.035666287 0.020427283 -0.02979609
0.025727298 0.016391492 -0.025681615
-0.02611593 -0.059798401 0.050936799
-0.02611593 -0.059798401 0.050936799
-0.02611593 -0.059798401 0.050936799
-0.02611593 -0.059798401 0.050936799
0.040697977 0.014356085 -0.026999176
0.038605642 0.019470951 -0.032869466
0.033566099 0.023542477 -0.035702422
0.019750126 0.012377524 -0.023641624
-0.02611593 -0.059798401 0.050936799
-0.02611593 -0.059798401 0.050936799
-0.02611593 -0.059798401 0.050936799
-0.02611593 -0.059798401 0.050936799
0.03273204 0.0083315531 -0.023957975
0.032613683 0.016474903 -0.031811111
0.026589118 0.019532107 -0.033643648
0.015732141 0.012409969 -0.024566121
-0.02611593 -0.059798401 0.050936799
-0.02611593 -0.059798401 0.050936799
-0.02611593 -0.059798401 0.050936799
-0.02611593 -0.059798401 0.050936799
0.028676605 0.0084001757 -0.026881799
0.026606925 0.014496775 -0.031734407
0.021600896 0.017532295 -0.03258606
0.012684373 0.014474664 -0.027472701
-0.02611593 -0.059798401 0.050936799
-0.02611593 -0.059798401 0.050936799
-0.02611593 -0.059798401 0.050936799
-0.02611593 -0.059798401 0.050936799
0.022703366 0.0053860391 -0.024823785
0.019648658 0.010468308 -0.028675966
0.013653688 0.011489673 -0.028545205
0.0076961583 0.012474858 -0.026415125
-0.02611593 -0.059798401 0.050936799
-0.02611593 -0.059798401 0.050936799
-0.02611593 -0.059798401 0.050936799
-0.02611593 -0.059798401 0.050936799
0.018647928 0.0054546623 -0.027747609
0.018514771 0.014615932 -0.036582392
0.011587017 0.013568868 -0.03247023
0.0046444675 0.013539723 -0.029339712
-0.02611593 -0.059798401 0.050936799
-0.02611593 -0.059798401 0.050936799
-0.02611593 -0.059798401 0.050936799
-0.02611593 -0.059798401 0.050936799
0.012674687 0.0024405257 -0.025689594
0.013530484 0.013615957 -0.035506796
0.0075729545 0.014601143 -0.03337672
0.00064127054 0.012554248 -0.029282566
-0.02611593 -0.059798401 0.050936799
-0.02611593 -0.059798401 0.050936799
-0.02611593 -0.059798401 0.050936799
-0.02611593 -0.059798401 0.050936799
0.0096377954 0.0024874704 -0.027632549
0.0065722233 0.0095874975 -0.032448355
0.0035362404 0.014651677 -0.035300873
-0.0033432017 0.011550684 -0.028225765
-0.02611593 -0.059798401 0.050936799
-0.02611593 -0.059798401 0.050936799
-0.02611593 -0.059798401 0.050936799
-0.02611593 -0.059798401 0.050936799
0.0046347803 0.0015055845 -0.027556617
0.0025838208 0.0075841025 -0.031409558
-0.0014332534 0.012633782 -0.033243638
-0.0073572667 0.01258296 -0.029132243
-0.02611593 -0.059798401 0.050936799
-0.02611593 -0.059798401 0.050936799
-0.02611593 -0.059798401 0.050936799
-0.02611593 -0.059798401 0.050936799
0.00064637966 -0.00049781031 -0.026517831
-0.00048266421 0.0096668871 -0.035315804
-0.0064066774 0.0096160639 -0.03120441
-0.011356534 0.012597315 -0.029057082
-0.02611593 -0.059798401 0.050936799
-0.02611593 -0.059798401 0.050936799
-0.02611593 -0.059798401 0.050936799
-0.02611593 -0.059798401 0.050936799
-0.0033716117 -0.00046536559 -0.027442329
-0.0054669543 0.0086669121 -0.034240209
-0.0094505139 0.012680583 -0.034092974
-0.015311417 0.0095579186 -0.026037
-0.02611593 -0.059798401 0.050936799
-0.02611593 -0.059798401 0.050936799
-0.02611593 -0.059798401 0.050936799
-0.02611593 -0.059798401 0.050936799
-0.0064380984 0.0016174187 -0.031348556
-0.0094849458 0.0086993566 -0.035164706
-0.013453707 0.011695107 -0.034035832
-0.018388771 0.013658446 -0.030906845
-0.02611593 -0.059798401 0.050936799
-0.02611593 -0.059798401 0.050936799
-0.02611593 -0.059798401 0.050936799
-0.02611593 -0.059798401 0.050936799
-0.010437366 0.0016317744 -0.031273395
-0.013502936 0.0087318011 -0.036089204
-0.017467773 0.012727383 -0.034942307
-0.022324931 0.010600953 -0.026887104
-0.02611593 -0.059798401 0.050936799
-0.02611593 -0.059798401 0.050936799
-0.02611593 -0.059798401 0.050936799
-0.02611593 -0.059798401 0.050936799
-0.02611593 -0.059798401 0.050936799
-0.017468687 0.0077101481 -0.03403274
-0.021481834 0.013759659 -0.035848785
-0.02530566 0.010593631 -0.025831074
-0.02611593 -0.059798401 0.050936799
-0.02611593 -0.059798401 0.050936799
-0.02611593 -0.059798401 0.050936799
-0.02611593 -0.059798401 0.050936799
-0.018421106 0.00064256974 -0.030141436
-0.021501472 0.0087605119 -0.035938878
-0.0254959 0.014791934 -0.036755275
-0.028349496 0.013658158 -0.028719623
-0.02611593 -0.059798401 0.050936799
-0.02611593 -0.059798401 0.050936799
-0.02611593 -0.059798401 0.050936799
-0.02611593 -0.059798401 0.050936799
-0.02611593 -0.059798401 0.050936799
-0.025422839 0.0046851002 -0.030937482
-0.028402653 0.0096950205 -0.030791018
-0.031363744 0.014686843 -0.029644903
-0.02611593 -0.059798401 0.050936799
-0.02611593 -0.059798401 0.050936799
-0.02611593 -0.059798401 0.050936799
-0.02611593 -0.059798401 0.050936799
-0.02611593 -0.059798401 0.050936799
-0.028403567 0.0046777776 -0.029881459
-0.032524206 0.016852895 -0.038587023
-0.035285104 0.010611432 -0.024643503
-0.02611593 -0.059798401 0.050936799
-0.02611593 -0.059798401 0.050936799
-0.02611593 -0.059798401 0.050936799
-0.02611593 -0.059798401 0.050936799
-0.02611593 -0.059798401 0.050936799
-0.032402836 0.0046921335 -0.029806297
-0.036471233 0.015813153 -0.035530895
-0.038343739 0.014693877 -0.0285137
-0.02611593 -0.059798401 0.050936799
-0.02611593 -0.059798401 0.050936799
-0.02611593 -0.059798401 0.050936799
-0.02611593 -0.059798401 0.050936799
-0.02611593 -0.059798401 0.050936799
-0.036461283 0.0087781679 -0.033657704
-0.040470503 0.015827509 -0.03545573
-0.042324282 0.014690144 -0.027438879
-0.02611593 -0.059798401 0.050936799
-0.02611593 -0.059798401 0.050936799
-0.02611593 -0.059798401 0.050936799
-0.02611593 -0.059798401 0.050936799
-0.037447218 0.0027465946 -0.031747699
-0.041475166 0.0098140324 -0.034545392
-0.044480637 0.017859606 -0.036344197
-0.04527542 0.012646982 -0.024419557
-0.02611593 -0.059798401 0.050936799
-0.02611593 -0.059798401 0.050936799
-0.02611593 -0.059798401 0.050936799
-0.02611593 -0.059798401 0.050936799
-0.02611593 -0.059798401 0.050936799
-0.045455709 0.0098102987 -0.033470571
-0.047416981 0.014798533 -0.032343239
-0.049296424 0.016696839 -0.026271649
-0.02611593 -0.059798401 0.050936799
-0.02611593 -0.059798401 0.050936799
-0.02611593 -0.059798401 0.050936799
-0.02611593 -0.059798401 0.050936799
-0.045378722 0.0007032922 -0.027634766
-0.049447123 0.011824308 -0.033359371
-0.052441731 0.017852141 -0.034194548
-0.053291768 0.017711017 -0.026178468
-0.02611593 -0.059798401 0.050936799
-0.02611593 -0.059798401 0.050936799
-0.02611593 -0.059798401 0.050936799
-0.02611593 -0.059798401 0.050936799
-0.050422188 0.0037749922 -0.030485734
-0.053427666 0.011820575 -0.03228455
-0.056403551 0.01783032 -0.032120068
-0.058327384 0.022782382 -0.028993409
-0.02611593 -0.059798401 0.050936799
-0.02611593 -0.059798401 0.050936799
-0.02611593 -0.059798401 0.050936799
-0.02611593 -0.059798401 0.050936799
-0.054398812 0.0047710896 -0.029392906
-0.05740821 0.011816842 -0.031209722
-0.059365559 0.017804906 -0.030064359
-0.063363001 0.027853746 -0.031808347
-0.02611593 -0.059798401 0.050936799
-0.02611593 -0.059798401 0.050936799
-0.02611593 -0.059798401 0.050936799
-0.02611593 -0.059798401 0.050936799
-0.057346016 0.0037277583 -0.026355565
-0.063443638 0.016891794 -0.034005869
-0.064371586 0.02084044 -0.03091602
-0.02611593 -0.059798401 0.050936799
-0.02611593 -0.059798401 0.050936799
-0.02611593 -0.059798401 0.050936799
-0.02611593 -0.059798401 0.050936799
-0.02611593 -0.059798401 0.050936799
-0.06237077 0.0067813657 -0.028206874
-0.068434872 0.0189094 -0.033875879
-0.069396324 0.023894047 -0.032767337
-0.061044812 0.0084699318 -0.011195395
-0.02611593 -0.059798401 0.050936799
-0.02611593 -0.059798401 0.050936799
-0.02611593 -0.059798401 0.050936799
-0.02611593 -0.059798401 0.050936799
-0.068376608 0.0098204874 -0.029039744
-0.072396703 0.018887579 -0.031801399
-0.075383447 0.026915073 -0.032600541
-0.02611593 -0.059798401 0.050936799
-0.02611593 -0.059798401 0.050936799
-0.02611593 -0.059798401 0.050936799
-0.02611593 -0.059798401 0.050936799
-0.02611593 -0.059798401 0.050936799
-0.071309023 0.0077592367 -0.025020763
-0.077402718 0.021923097 -0.032653052
-0.074257411 0.020767795 -0.024730153
-0.02611593 -0.059798401 0.050936799
-0.02611593 -0.059798401 0.050936799
-0.02611593 -0.059798401 0.050936799
-0.02611593 -0.059798401 0.050936799
-0.02611593 -0.059798401 0.050936799
-0.076311119 0.011794586 -0.025854398
-0.082375228 0.023922615 -0.031523399
-0.082288556 0.02684975 -0.027470693
-0.082231469 0.031812724 -0.025381282
-0.02611593 -0.059798401 0.050936799
-0.02611593 -0.059798401 0.050936799
-0.02611593 -0.059798401 0.050936799
-0.02611593 -0.059798401 0.050936799
-0.081287555 0.012794272 -0.024742763
-0.087351665 0.0249223 -0.030411765
-0.089319877 0.032928117 -0.030230034
-0.088233389 0.035851665 -0.026196126
-0.02611593 -0.059798401 0.050936799
-0.02611593 -0.059798401 0.050936799
-0.02611593 -0.059798401 0.050936799
-0.02611593 -0.059798401 0.050936799
-0.089299969 0.018858146 -0.026483648
-0.094349474 0.029964659 -0.031189807
-0.095307 0.035949141 -0.030063238
-0.094231375 0.040890429 -0.026992951
-0.02611593 -0.059798401 0.050936799
-0.02611593 -0.059798401 0.050936799
-0.02611593 -0.059798401 0.050936799
-0.02611593 -0.059798401 0.050936799
-0.09324307 0.018818235 -0.023409501
-0.10234709 0.03501061 -0.031949047
-0.10229001 0.039973579 -0.029859629
-0.10019977 0.043893367 -0.025826491
-0.02611593 -0.059798401 0.050936799
-0.02611593 -0.059798401 0.050936799
-0.02611593 -0.059798401 0.050936799
-0.02611593 -0.059798401 0.050936799
-0.10429933 0.027946625 -0.028038949
-0.10831549 0.038013548 -0.030782588
-0.1082732 0.043994434 -0.029674809
-0.10719757 0.04893573 -0.026604522
-0.02611593 -0.059798401 0.050936799
-0.02611593 -0.059798401 0.050936799
-0.02611593 -0.059798401 0.050936799
-0.02611593 -0.059798401 0.050936799
-0.10925312 0.029928045 -0.025909636
-0.11527977 0.042019904 -0.029579315
-0.11523749 0.04800079 -0.028471537
-0.11316597 0.05193866 -0.025438067
-0.02611593 -0.059798401 0.050936799
-0.02611593 -0.059798401 0.050936799
-0.02611593 -0.059798401 0.050936799
-0.02611593 -0.059798401 0.050936799
-0.11822789 0.035959333 -0.025632411
-0.12427329 0.048069268 -0.030301753
-0.12522295 0.056053407 -0.02913915
-0.12114093 0.057966352 -0.025179632
-0.02611593 -0.059798401 0.050936799
-0.02611593 -0.059798401 0.050936799
-0.02611593 -0.059798401 0.050936799
-0.02611593 -0.059798401 0.050936799
-0.1282025 0.041994207 -0.025336392
-0.13322935 0.054082468 -0.029024862
-0.13117263 0.059038255 -0.026973031
-0.1301266 0.066015385 -0.025866028
-0.02611593 -0.059798401 0.050936799
-0.02611593 -0.059798401 0.050936799
-0.02611593 -0.059798401 0.050936799
-0.02611593 -0.059798401 0.050936799
-0.14119829 0.05207533 -0.026911259
-0.14421463 0.062138662 -0.029673684
-0.1431686 0.069115803 -0.028566677
-0.13808677 0.071025148 -0.024625953
-0.02611593 -0.059798401 0.050936799
-0.02611593 -0.059798401 0.050936799
-0.02611593 -0.059798401 0.050936799
-0.02611593 -0.059798401 0.050936799
-0.15013564 0.058070429 -0.024634704
-0.15717299 0.072183602 -0.029249225
-0.15614568 0.07917884 -0.029141884
-0.14906813 0.080081187 -0.025256749
-0.02611593 -0.059798401 0.050936799
-0.02611593 -0.059798401 0.050936799
-0.02611593 -0.059798401 0.050936799
-0.02611593 -0.059798401 0.050936799
-0.16711891 0.071165405 -0.026080351
-0.17011261 0.082210481 -0.027825095
-0.1680894 0.088202283 -0.027754564
-0.1630411 0.091147669 -0.025795143
-0.02611593 -0.059798401 0.050936799
-0.02611593 -0.059798401 0.050936799
-0.02611593 -0.059798401 0.050936799
-0.02611593 -0.059798401 0.050936799
-0.18406475 0.084224209 -0.025526669
-0.18506666 0.093262441 -0.027345031
-0.18604983 0.10228259 -0.028163742
-0.17597678 0.10217435 -0.024352998
-0.02611593 -0.059798401 0.050936799
-0.02611593 -0.059798401 0.050936799
-0.02611593 -0.059798401 0.050936799
-0.02611593 -0.059798401 0.050936799
-0.20299149 0.097272098 -0.023935746
-0.20902115 0.11338137 -0.028533015
-0.19594564 0.10924494 -0.023851056
-0.19393329 0.11725449 -0.024744157
-0.02611593 -0.059798401 0.050936799
-0.02611593 -0.059798401 0.050936799
-0.02611593 -0.059798401 0.050936799
-0.02611593 -0.059798401 0.050936799
-0.23493968 0.12343678 -0.025864951
-0.22491494 0.12538248 -0.025017157
-0.21990015 0.12936386 -0.025039032
-0.21889849 0.13939475 -0.026876971
-0.02611593 -0.059798401 0.050936799
-0.02611593 -0.059798401 0.050936799
-0.02611593 -0.059798401 0.050936799
-0.02611593 -0.059798401 0.050936799
-0.25179189 0.13640516 -0.020312969
-0.25682962 0.15051116 -0.024965063
-0.24780075 0.15346025 -0.024080452
-0.23278175 0.14937094 -0.022435065
-0.02611593 -0.059798401 0.050936799
-0.02611593 -0.059798401 0.050936799
-0.02611593 -0.059798401 0.050936799
-0.02611593 -0.059798401 0.050936799
-0.84678513 0.64743561 -0.1649781
-0.8108173 0.65034205 -0.16759984
-0.7808367 0.65626955 -0.17005476
-0.25866792 0.17244224 -0.020532429
-0.85042471 0.64810604 -0.14589137
-0.81447959 0.65003079 -0.14953077
-0.77950072 0.65092307 -0.1511701
-0.02611593 -0.059798401 0.050936799
-0.85003936 0.64572656 -0.12493452
-0.81612742 0.64869446 -0.13051766
-0.78919852 0.65568686 -0.13589719
-0.75227714 0.651609 -0.13966347
-0.85465223 0.64838225 -0.1047933
-0.81478763 0.64434791 -0.11161496
-0.78989178 0.65238339 -0.11893819
-0.75699145 0.65235543 -0.1245566
-0.8552776 0.64802402 -0.084781289
-0.82243341 0.64805031 -0.093398668
-0.78957051 0.64805853 -0.10101639
-0.75770742 0.64807028 -0.10861531
-0.85689878 0.64866924 -0.064732455
-0.81908995 0.64469635 -0.074515522
-0.79324752 0.64876515 -0.083928943
-0.76142979 0.64681345 -0.093563244
-0.85451388 0.64628255 -0.043813199
-0.8227483 0.64538491 -0.056428455
-0.79594743 0.6484865 -0.067878
-0.76813585 0.64956671 -0.078382738
-0.85614991 0.64794564 -0.024746016
-0.82540292 0.64706981 -0.038342141
-0.79762882 0.64818615 -0.050846174
-0.77285016 0.65031314 -0.063275844
-0.85677141 0.64858729 -0.0047159865
-0.82106364 0.64271241 -0.019495808
-0.80130589 0.64889282 -0.033758767
-0.77656853 0.65005618 -0.048205763
-0.85539705 0.64822191 0.015258439
-0.82371825 0.6443972 -0.0014095008
-0.80099547 0.6465857 -0.016800568
-0.77927244 0.64877766 -0.032172836
-0.85102731 0.64684594 0.035158489
-0.82736868 0.64708543 0.016713616
-0.79767472 0.64225 0.0010648966
-0.78097248 0.64849538 -0.016140677
-0.84766126 0.64447379 0.055059299
-0.82603186 0.64675623 0.034688722
-0.80335826 0.64598143 0.017244283
-0.78367633 0.64721698 -0.0001077503
-0.84530199 0.64512271 0.074033298
-0.82567614 0.64641255 0.053682283
-0.80403978 0.64567745 0.034257311
-0.78739083 0.64795977 0.014980346
-0.84294266 0.64577168 0.093007296
-0.82135165 0.64307308 0.071546964
-0.80372542 0.64437008 0.051233534
-0.78909081 0.64767754 0.031012505
-0.83759177 0.64441025 0.11188889
-0.82401317 0.64777553 0.088687666
-0.80739069 0.6480763 0.068375014
-0.78579283 0.64236021 0.04786028
-0.83126372 0.64206344 0.12973401
-0.81968474 0.64543587 0.10657037
-0.80410349 0.64477664 0.084259152
-0.78350145 0.64006388 0.063781239
-0.82890445 0.64271235 0.148708
-0.81236875 0.64008605 0.12434264
-0.79681003 0.63844496 0.10101375
-0.79119951 0.64482045 0.079016566
-0.82554144 0.64435756 0.16768123
-0.81004685 0.64077121 0.14131731
-0.80246705 0.64415801 0.11822884
-0.79189974 0.64453459 0.095029935
-0.81422603 0.63899338 0.18537834
-0.80671042 0.6404348 0.15925485
-0.7961657 0.63982964 0.13503827
-0.78761661 0.64023149 0.11087728
-0.80888999 0.63864982 0.20327829
-0.80239677 0.63911319 0.17615589
-0.79484761 0.63951856 0.15201372
-0.79228169 0.64394122 0.12803754
-0.80454582 0.64030951 0.22123307
-0.80105203 0.64078355 0.19416705
-0.79551733 0.64221406 0.16908079
-0.79098624 0.64264834 0.14399531
-0.79623693 0.63797373 0.23804094
-0.79374295 0.63845134 0.21099372
-0.7951951 0.64290643 0.18609305
-0.78869498 0.64035213 0.15991628
-0.78890115 0.63762295 0.2559033
-0.78742963 0.63712239 0.22785719
-0.78790861 0.63959241 0.20190203
-0.78936863 0.64204782 0.17696534
-0.77961105 0.63530147 0.27169275
-0.78310823 0.6378004 0.24479428
-0.78459483 0.63827431 0.21882188
-0.78508162 0.63874459 0.19283071
-0.77326733 0.63695407 0.28960991
-0.77582163 0.63448626 0.26060328
-0.78326887 0.63996285 0.23583338
-0.78476334 0.63843709 0.20982495
-0.76300007 0.63364732 0.30436289
-0.7705003 0.63516062 0.27752158
-0.78094304 0.64164776 0.25282606
-0.7844559 0.64014727 0.22585556
-0.7586481 0.63730669 0.32235369
-0.76320601 0.63384628 0.29336661
-0.77266067 0.63733041 0.26859826
-0.78313386 0.640836 0.24284902
-0.74738097 0.63399637 0.33708784
-0.76085365 0.63751286 0.31139499
-0.76836187 0.63702661 0.28451768
-0.77882415 0.63851452 0.25973207
-0.73808318 0.63367462 0.35291329
-0.75158626 0.63420963 0.32616675
-0.76603603 0.63871151 0.30151036
-0.77949387 0.64121008 0.27679914
-0.73275006 0.63734853 0.36988568
-0.74528384 0.6348986 0.34206659
-0.75774974 0.63539392 0.31730056
-0.77123022 0.63691068 0.29157168
-0.71852881 0.63206398 0.3825281
-0.73798174 0.63558394 0.35794765
-0.7564159 0.63908207 0.33434808
-0.77187735 0.64058805 0.30965641
-0.71120006 0.63473088 0.39944488
-0.73068339 0.63526934 0.37381071
-0.74714851 0.63577902 0.34911984
-0.76559067 0.63727754 0.32548419
-0.70193571 0.63544512 0.41328907
-0.72142684 0.63398391 0.38761881
-0.7398541 0.63446462 0.36496484
-0.76424205 0.63994783 0.34351337
-0.69066083 0.63413453 0.42805922
-0.71709359 0.63766134 0.40460998
-0.73752058 0.6381492 0.38199359
-0.75894338 0.63964051 0.35941398
-0.68040049 0.63384539 0.44186658
-0.70287627 0.63137698 0.41723436
-0.7262761 0.63385719 0.39571005
-0.75364864 0.63833326 0.37529659
-0.66816318 0.63256729 0.45461869
-0.69459295 0.6320768 0.43209702
-0.72392386 0.63752371 0.41373849
-0.74833131 0.63800782 0.39219689
-0.65594852 0.6303075 0.46635309
-0.69025582 0.63675404 0.44910616
-0.71367532 0.63423514 0.42749175
-0.7380867 0.63371938 0.40593216
-0.64273411 0.62804413 0.47806871
-0.6780225 0.63447618 0.46184024
-0.70144981 0.62995756 0.44018978
-0.7367155 0.63737142 0.424979
-0.63444299 0.6307435 0.49296737
-0.66678894 0.63220191 0.4745931
-0.69908959 0.63562375 0.45825422
-0.7294172 0.63705683 0.44084206
-0.61927027 0.62750936 0.50262803
-0.65850174 0.63390154 0.48947373
-0.68981439 0.63432032 0.47306201
-0.72114569 0.63475716 0.45565063
-0.61097515 0.6312086 0.51754469
-0.64529115 0.6306383 0.50117135
-0.67955798 0.63303137 0.48685133
-0.71285152 0.63343924 0.47147685
-0.5997299 0.63193381 0.53035164
-0.63407642 0.62838209 0.51292455
-0.66930157 0.63174236 0.50064069
-0.70162576 0.62916523 0.48419365
-0.58262551 0.62574714 0.53692174
-0.62185788 0.62712216 0.52467698
-0.65906787 0.62947166 0.5134123
-0.69922817 0.63479525 0.50425744
-0.57137626 0.62747222 0.54974663
-0.61158967 0.62883264 0.53852034
-0.65175784 0.63215661 0.52932942
-0.68405247 0.62754369 0.51484573
-0.56014574 0.6292153 0.5615719
-0.60232532 0.62954694 0.55236447
-0.64147884 0.63184941 0.54413646
-0.67870456 0.63019955 0.53279972
-0.54694611 0.6279698 0.57230592
-0.58912957 0.62730163 0.56308043
-0.62828702 0.62860423 0.55483437
-0.67237562 0.63287002 0.54973525
-0.53278804 0.62575716 0.58100379
-0.57985729 0.63001561 0.57696068
-0.61607635 0.62534463 0.56655073
-0.66210055 0.63156295 0.56452423
-0.52157623 0.62751836 0.59182936
-0.56470728 0.62579966 0.58560371
-0.60973948 0.63001472 0.58352232
-0.65182155 0.63125575 0.57933128
-0.50546384 0.62333494 0.59845424
-0.55638564 0.63148046 0.60155606
-0.59847546 0.63072187 0.5973289
-0.64154255 0.63094854 0.59413826
-0.49620244 0.6280666 0.6113708
-0.5432086 0.62925327 0.61127234
-0.58527976 0.6284765 0.60804486
-0.62931305 0.62767082 0.60685432
-0.48108196 0.62588656 0.61805052
-0.53000504 0.62900764 0.6220243
-0.57111084 0.62424606 0.61770642
-0.62000734 0.62934875 0.62271577
-0.46596548 0.62270659 0.62471229
-0.51779741 0.62976545 0.63281316
-0.56081998 0.62693828 0.63256747
-0.60775131 0.62805253 0.63646752
-0.45472315 0.62744921 0.63659155
-0.50459385 0.62951982 0.64356512
-0.54762435 0.62469304 0.64328337
-0.59549135 0.62775624 0.65023732
-0.44157574 0.62725782 0.64434463
-0.48947728 0.62633979 0.65022683
-0.53928393 0.63035583 0.6602354
-0.58130372 0.62350774 0.66089845
-0.42742854 0.62706286 0.65207875
-0.47824675 0.62808293 0.66205209
-0.52510709 0.62812501 0.66993284
-0.5709942 0.6261819 0.67675918
-0.40846738 0.61799622 0.65155959
-0.46408081 0.6278699 0.67078596
-0.50897598 0.62392354 0.67755747
-0.55775714 0.62490028 0.68949246
-0.39917547 0.6257093 0.66552997
-0.44991881 0.62665701 0.67950183
-0.49965841 0.62860096 0.69347304
-0.54647046 0.62658906 0.70431674
-0.38409245 0.62356544 0.67021036
-0.43382511 0.62249172 0.68512714
-0.48352334 0.62539935 0.70111567
-0.53032058 0.62236953 0.71294093
-0.3709372 0.62537366 0.67799938
-0.42065507 0.62328213 0.69389784
-0.46934259 0.6241684 0.71083117
-0.51898855 0.62602186 0.72980058
-0.35680479 0.62619656 0.68475199
-0.40650785 0.62308723 0.70163202
-0.45608979 0.62688601 0.72363651
-0.50478911 0.62477285 0.74051577
-0.34176314 0.62308908 0.687415
-0.39233798 0.62387395 0.71038389
-0.43997344 0.62370253 0.73027939
-0.48761675 0.62153143 0.75013888
-0.32763463 0.62291217 0.69414961
-0.37816811 0.62466073 0.71913582
-0.42578876 0.62347138 0.740013
-0.47437182 0.62224948 0.76290822
-0.31352091 0.62375325 0.69990247
-0.36115342 0.61956435 0.7207256
-0.41062695 0.62225497 0.74871004
-0.45625982 0.61805892 0.76949555
-0.3003805 0.6265794 0.70670992
-0.34891132 0.6243034 0.73258615
-0.39548385 0.62105656 0.75640744
-0.44201505 0.61877334 0.78224611
-0.28531617 0.62445354 0.71039075
-0.33478281 0.62412655 0.7393207
-0.38222715 0.62477404 0.76923084
-0.42681184 0.6185205 0.79296052
-0.26933482 0.62039685 0.71001798
-0.31774548 0.62001193 0.74192816
-0.36512965 0.62160504 0.77485526
-0.41160473 0.61926752 0.80369294
-0.2552211 0.62123787 0.71577084
-0.30263585 0.61984956 0.74764431
-0.34805095 0.61845404 0.7794801
-0.39540169 0.61901116 0.81438863
-0.24119017 0.62015164 0.71748906
-0.2894353 0.62362134 0.7574687
-0.33290002 0.6192553 0.78721356
-0.37728176 0.61682028 0.8210119
-0.22705381 0.62197447 0.72425967
-0.27241665 0.6195249 0.75907648
-0.31675315 0.61905324 0.79491025
-0.36109352 0.61758178 0.83072591
-0.21206833 0.6189211 0.7239238
-0.25730708 0.61936247 0.76479268
-0.3006703 0.61690569 0.79957187
-0.34393206 0.6163581 0.83938539
-0.19892393 0.62274718 0.73074913
-0.2422162 0.61921817 0.76950908
-0.28449687 0.61868513 0.80830419
-0.32773992 0.61811948 0.8491174
-0.18389316 0.62165737 0.73244864
-0.22807594 0.62204081 0.77629769
-0.26745561 0.61557037 0.8109296
-0.30966139 0.61496496 0.85372341
-0.168953 0.61664051 0.73007733
-0.21198525 0.62189293 0.78099531
-0.25221404 0.62029868 0.82273382
-0.29153752 0.61377388 0.86036479
-0.15489154 0.61853564 0.7328493
-0.19690919 0.62276655 0.78473008
-0.23421432 0.6162166 0.82332313
-0.27341372 0.6125828 0.86700618
-0.14081527 0.6194129 0.73660296
-0.18090516 0.61969155 0.78537512
-0.21810099 0.61705041 0.82903856
-0.25617644 0.61630404 0.87875473
-0.12678039 0.61932647 0.73833913
-0.16489723 0.61761642 0.7860381
-0.20103313 0.61591727 0.83269972
-0.23806742 0.61613095 0.88441449
-0.11262833 0.62514859 0.74518192
-0.14877602 0.62044996 0.79178947
-0.18391998 0.6167475 0.83839625
-0.21995836 0.6159578 0.89007419
-0.098634824 0.62409848 0.74490082
-0.13281338 0.61641127 0.79041708
-0.16680683 0.61757779 0.84409279
-0.20082685 0.61676282 0.89673287
-0.083686799 0.62108135 0.74256551
-0.11764672 0.62121189 0.79822254
-0.14977643 0.61648077 0.84575462
-0.18180466 0.61365896 0.89832109
-0.069580033 0.62493998 0.74737287
-0.10163485 0.62013662 0.79890358
-0.13265935 0.61831093 0.85146928
-0.16269189 0.61448205 0.90398008
-0.055677123 0.61996293 0.74302107
-0.085668281 0.61709768 0.79754919
-0.11460647 0.61819202 0.85412997
-0.14362046 0.6143415 0.90762168
-0.041634385 0.62187618 0.74479336
-0.069607191 0.61898571 0.80028355
-0.097617432 0.61613137 0.85377449
-0.12361718 0.61125219 0.9081915
-0.027614295 0.62280768 0.74554789
-0.054568566 0.61989558 0.80201906
-0.079541914 0.61699426 0.85745293
-0.1045192 0.61309326 0.9128688
-0.012662341 0.62079036 0.74323076
-0.038643364 0.61589301 0.7986474
-0.062462278 0.61886054 0.86116815
-0.085466497 0.61297077 0.91551077
0.00028997939 0.61878026 0.74095106
-0.022668943 0.61485392 0.79732901
-0.044492148 0.61681443 0.85979426
-0.065481938 0.60989946 0.9150809
0.014272624 0.61974788 0.7397064
-0.0076716878 0.6148001 0.7970472
-0.026480645 0.61573184 0.86043763
-0.045402847 0.61175495 0.91873974
0.02831929 0.62266093 0.74149668
0.0084612863 0.62063307 0.80285257
-0.0084386375 0.61763072 0.86213481
-0.026346233 0.61263239 0.92139971
0.042226128 0.61868376 0.73716295
0.02443571 0.61959392 0.8015343
0.008467651 0.61364275 0.85774469
-0.0074590351 0.60865533 0.91597235
0.055118352 0.61572808 0.73186624
0.040323459 0.61562759 0.79616326
0.026554959 0.61750513 0.86147714
0.012601327 0.61052895 0.91863155
0.06916894 0.61964095 0.73367459
0.056392405 0.61951524 0.79893363
0.043533124 0.61746222 0.86015803
0.032639042 0.61142081 0.92027307
0.082038522 0.61570352 0.72736031
0.071261622 0.6155706 0.7925818
0.061465807 0.61545217 0.85678482
0.051526241 0.60744369 0.91484571
0.097085007 0.618613 0.72913182
0.087239973 0.61553127 0.79128146
0.079375841 0.61246043 0.85239387
0.071549162 0.60935354 0.91550553
0.11111688 0.62254393 0.72994047
0.10320352 0.61650985 0.7889995
0.097361684 0.61441368 0.85109204
0.091508053 0.60931796 0.91313046
0.12394508 0.61764282 0.72160888
0.11814068 0.61551046 0.78570068
0.11429848 0.61340708 0.84775555
0.11144429 0.60830063 0.90973765
0.13792773 0.61861056 0.72036409
0.13410424 0.61648899 0.78341866
0.13223509 0.6123969 0.84440029
0.13249362 0.61218834 0.91141444
0.1519143 0.62057805 0.71913737
0.14902267 0.61550772 0.77912015
0.14915709 0.61240822 0.84008223
0.15138866 0.61021096 0.90602309
0.16379191 0.61864388 0.71287793
0.16389972 0.61356276 0.77280432
0.16714291 0.61436141 0.8387804
0.17135149 0.61117518 0.9036659
0.17773317 0.61864787 0.70961583
0.17988594 0.6155231 0.77154005
0.18399698 0.61142749 0.83140928
0.19021304 0.61023378 0.89629328
0.19170102 0.62063348 0.70738947
0.19369525 0.61063659 0.76218992
0.20090024 0.61145693 0.82609153
0.21013054 0.60923457 0.89190084
0.20460111 0.61967742 0.70212895
0.20966272 0.61261493 0.75992596
0.2188447 0.61244643 0.82277232
0.2289921 0.60829318 0.8845281
0.21750119 0.61872137 0.6968683
0.22561148 0.61461145 0.75666237
0.23570268 0.61051244 0.81541926
0.24898541 0.61223882 0.88322473
0.22935615 0.61580551 0.68959111
0.23942862 0.61172456 0.74734831
0.25160614 0.61054546 0.81012022
0.26778293 0.60935199 0.87281704
0.24337322 0.62075442 0.68941814
0.25433224 0.61176115 0.74206817
0.26949444 0.61158919 0.80380207
0.28671241 0.61135572 0.86849743
0.25623193 0.61883467 0.68214023
0.26928121 0.61376119 0.73882335
0.28433406 0.60968047 0.79548693
0.30557787 0.61141419 0.86114275
0.26916251 0.62086004 0.67793339
0.28309837 0.61087435 0.72950923
0.30226371 0.61168784 0.79118609
0.32337952 0.60953093 0.8507719
0.28102142 0.61894393 0.67067415
0.29907373 0.61485237 0.72728139
0.31811103 0.6117751 0.78288817
0.34123033 0.61061084 0.84245443
0.29394805 0.61996943 0.66644931
0.31189108 0.61196905 0.71798611
0.33495814 0.61185879 0.77457136
0.36109957 0.61166549 0.83509898
0.30683333 0.6200313 0.66020703
0.32467091 0.6091218 0.70669144
0.34980172 0.61094987 0.76627421
0.37788656 0.6108036 0.82376528
0.31974128 0.62107503 0.65498251
0.34165001 0.61409611 0.70446277
0.3645812 0.60809547 0.754942
0.39469233 0.60992366 0.8134312
0.33054024 0.61821681 0.64472514
0.35656151 0.61613244 0.69921869
0.37940991 0.60820442 0.74566329
0.411502 0.61004359 0.80311519
0.3403542 0.61434448 0.63546818
0.36629272 0.61033273 0.68592709
0.39630631 0.61125153 0.73939991
0.428289 0.6091817 0.79178137
0.35324344 0.61540616 0.62924397
0.38116679 0.61240518 0.6786837
0.4111124 0.6103788 0.72910345
0.44610241 0.6102978 0.78146458
0.35787711 0.60369778 0.61193955
0.39605954 0.61445951 0.67243981
0.42796737 0.6124621 0.72082269
0.46391973 0.61241376 0.77116579
0.37181142 0.60671937 0.60773188
0.40784353 0.61261582 0.66118205
0.44173622 0.61162907 0.70854568
0.47866964 0.61159521 0.75787032
0.3878212 0.61467868 0.60657573
0.42069137 0.61271387 0.65294051
0.45552772 0.61177784 0.69728637
0.49339697 0.60979503 0.74355716
0.39245486 0.60297036 0.58927131
0.43350181 0.61284804 0.6426996
0.47033772 0.61190492 0.6870079
0.51124084 0.6138925 0.73429406
0.41360745 0.61880171 0.5941633
0.4463309 0.61296427 0.63345838
0.48312941 0.61205721 0.6757673
0.52288204 0.60917592 0.71598458
0.42547816 0.61988521 0.58695823
0.45914131 0.6130985 0.62321752
0.49690214 0.61222404 0.66350842
0.53559095 0.60740089 0.70070934
0.4363037 0.61900866 0.57773656
0.47197434 0.61421442 0.6139943
0.51067489 0.61239088 0.65124935
0.55237496 0.61055648 0.68844801
0.44713315 0.61913192 0.56853288
0.48173606 0.61139613 0.60175633
0.52447033 0.6135394 0.64000803
0.56508392 0.60878146 0.67317277
0.45693627 0.61727732 0.55831236
0.49555412 0.61352646 0.59153271
0.53622085 0.6127317 0.62676889
0.57575178 0.60605007 0.65591782
0.46469444 0.61346638 0.54609406
0.50634617 0.61368597 0.58032978
0.54794866 0.61094218 0.61251217
0.59356225 0.61118364 0.64467341
0.46632865 0.60176873 0.52884597
0.50689787 0.60006464 0.55906582
0.55970305 0.61113429 0.59929109
0.6052565 0.61043012 0.62843531
0.47918826 0.60486627 0.52065849
0.51971608 0.60219848 0.54886097
0.57350636 0.61428255 0.58808577
0.61592835 0.60869849 0.61119837
0.48799157 0.60301518 0.51045668
0.5305081 0.60235792 0.53765804
0.58014834 0.6095838 0.56987029
0.62764919 0.60992652 0.59599596
0.50190026 0.60907251 0.50430381
0.54435277 0.60646987 0.5284701
0.59392899 0.6117503 0.55764729
0.63935137 0.6111728 0.57979387
0.5219062 0.62103486 0.50214487
0.55309987 0.60467309 0.51526934
0.60364634 0.61198574 0.54246444
0.65104961 0.61141914 0.56357384
0.53169847 0.62119794 0.49096069
0.56185091 0.60387611 0.50208658
0.6154086 0.61417753 0.52927941
0.6617294 0.61168718 0.54637289
0.53743428 0.6164124 0.47776228
0.57262814 0.60505348 0.48990199
0.62612575 0.61440939 0.51407784
0.67345423 0.61391509 0.53118855
0.54824907 0.61755359 0.46757698
0.58340931 0.60723078 0.4777354
0.63688427 0.61560488 0.50089353
0.6810891 0.61223036 0.51200867
0.55806386 0.61869848 0.45741048
0.592179 0.60641569 0.46555233
0.63948172 0.60895711 0.48071781
0.69179547 0.61448002 0.49584341
0.56885982 0.61985779 0.44622552
0.60091138 0.60563678 0.45136994
0.65427798 0.61511934 0.46854818
0.69843447 0.6137988 0.47670025
0.57663369 0.62004614 0.43407929
0.60864776 0.60586137 0.43722436
0.66197693 0.61537999 0.45240325
0.70406592 0.61112142 0.45753992
0.58236957 0.61526066 0.42088085
0.61740673 0.60706401 0.42407766
0.67067569 0.61563712 0.43623954
0.71072358 0.61042207 0.43939647
0.59317344 0.61841965 0.40973195
0.62514311 0.60728854 0.40993208
0.68040091 0.61787218 0.42109275
0.72041136 0.61269331 0.42225036
0.60094333 0.61760819 0.39756763
0.63490176 0.60848773 0.3967666
0.68506992 0.61516237 0.40395051
0.72807682 0.61399007 0.40412414
0.60972095 0.61879271 0.38542062
0.64263827 0.6087122 0.38262099
0.691773 0.61642647 0.38784242
0.73374259 0.61529404 0.38603556
0.61546868 0.61700678 0.37227628
0.65645725 0.61585981 0.37148786
0.69542342 0.61373818 0.3697193
0.74543786 0.61955774 0.36888787
0.62930238 0.62313634 0.36212468
0.66622376 0.61905849 0.35835835
0.70717883 0.61894751 0.35558864
0.74199903 0.61296767 0.3468256
0.63097894 0.6174196 0.3459844
0.66888916 0.61535591 0.34123573
0.70982945 0.61626297 0.3374843
0.74866861 0.61526775 0.32873619
0.63673043 0.61663347 0.33285806
0.6786558 0.61855465 0.32810625
0.71651387 0.61754513 0.32037657
0.75534213 0.61856776 0.3106648
0.64548939 0.61783612 0.31971139
0.68638128 0.62079704 0.31299704
0.72119462 0.61783469 0.3032884
0.75697821 0.61690462 0.29159763
0.65224862 0.61904597 0.3066023
0.68806571 0.61707991 0.29689282
0.7248717 0.61712801 0.28620097
0.75861818 0.61624134 0.27254847
0.65898526 0.61927408 0.29247546
0.68973517 0.61438078 0.27980694
0.72955644 0.61841744 0.26913077
0.76125789 0.61557436 0.25348049
0.66371435 0.61750978 0.27835023
0.69948703 0.61859745 0.26569587
0.73323739 0.61871058 0.25206137
0.76390553 0.61690718 0.23444861
0.6734848 0.62170833 0.26523882
0.70621276 0.62084329 0.25060543
0.73892975 0.62199605 0.23500848
0.58223206 0.46062919 0.17700365
0.67922157 0.62194008 0.25113082
0.70890868 0.62012208 0.23453647
0.73051751 0.61238825 0.21498537
0.53765237 0.42121002 0.15411747
0.68293613 0.62119716 0.23604271
0.7126084 0.62039721 0.21846673
0.5569548 0.45597303 0.16338804
0.54645747 0.42939341 0.14209658
0.68765038 0.62045074 0.22093582
0.6115343 0.52446002 0.18061088
0.54763633 0.44627836 0.14838207
0.54719907 0.43064287 0.12810054
0.6923874 0.62068605 0.20684662
0.55486047 0.47012249 0.1556806
0.54135185 0.4405542 0.13439144
0.55499655 0.43683022 0.1160624
0.56312561 0.49492681 0.1649777
0.54756814 0.46240228 0.14167273
0.55416799 0.45172271 0.12234943
0.57383907 0.45497605 0.10403378
0.54978436 0.47924748 0.14993876
0.55032426 0.4626267 0.12862077
0.57402509 0.46884704 0.11128366
0.60872585 0.48506239 0.091920733
0.5344395 0.46257558 0.13491939
0.5661664 0.47576597 0.11755809
0.58783025 0.48202977 0.09825924
0.64157546 0.51519209 0.077845946
0.54325539 0.46874121 0.12386211
0.57900125 0.48691651 0.10651574
0.61067986 0.50216085 0.086191498
0.6262542 0.50451905 0.062934682
0.56816095 0.48881087 0.11475576
0.59480602 0.50009203 0.093453735
0.62947714 0.51834315 0.072127521
0.62798476 0.50778276 0.047956243
0.58097315 0.4989796 0.10269573
0.60760736 0.51227844 0.08043009
0.62117416 0.51264423 0.057174817
0.62670803 0.50905752 0.032998133
0.59378541 0.5091483 0.090635717
0.61940104 0.52246881 0.06738919
0.62693846 0.51987481 0.043192949
0.63545007 0.52031279 0.017032642
0.60557514 0.5183388 0.077576801
0.62515354 0.52669984 0.053353269
0.61163193 0.5081839 0.029263327
0.63016224 0.51860237 0.0020956472
0.61435759 0.52554053 0.064538218
0.63090992 0.53193069 0.039335363
0.63039958 0.526402 0.013236068
0.61988229 0.51389241 -0.011801798
0.61609507 0.52578658 0.050505385
0.61961448 0.52322495 0.025384637
0.62412679 0.52367729 -0.00070050359
0.60058743 0.50019807 -0.024692632
0.6278888 0.53597701 0.037464485
0.6253562 0.52947378 0.010385089
0.61584258 0.51796031 -0.014653552
0.62834042 0.52943635 -0.043689795
0.62160426 0.53025281 0.023473864
0.62007922 0.52574563 -0.0035882853
0.60356605 0.50924009 -0.027585816
0.59405738 0.50374377 -0.053516008
0.61834568 0.52649939 0.010462567
0.6088025 0.51702183 -0.01653935
0.6043008 0.51350713 -0.042527452
0.58379614 0.49901563 -0.066413775
0.61406851 0.52276772 -0.0035296008
0.60754454 0.51827848 -0.030497797
0.58602828 0.50079101 -0.054419395
0.58053851 0.50027943 -0.080334641
0.61079514 0.52003211 -0.017522536
0.59327924 0.50754768 -0.042428866
0.58377445 0.50305116 -0.068341032
0.69916725 0.61661047 -0.123466
0.61053699 0.5212853 -0.031499773
0.58900994 0.50581557 -0.056384996
0.57153922 0.49529457 -0.079255961
0.70185024 0.62694168 -0.14233576
0.59626377 0.50855482 -0.043466888
0.59176689 0.5110572 -0.070346527
0.70114511 0.62063885 -0.12543084
0.69754446 0.63026303 -0.15920079
0.5920133 0.50680459 -0.056423351
0.58051682 0.50431496 -0.082261905
0.703839 0.62895226 -0.14333695
0.68426514 0.62556386 -0.17304185
0.58474761 0.50106591 -0.069395527
0.70812613 0.62564903 -0.1274716
0.69553697 0.62827057 -0.15919925
0.20026495 0.16074236 -0.026338488
0.5784936 0.4983232 -0.082332432
0.7058199 0.62896323 -0.14437421
0.68624598 0.62557477 -0.17407909
0.18522057 0.14879823 -0.026272852
0.7170949 0.62765253 -0.12960401
0.70350987 0.6312775 -0.16129482
0.20624605 0.16575614 -0.028360464
-0.02611593 -0.059798401 0.050936799
0.71179229 0.62696004 -0.14552264
0.69720745 0.63058865 -0.17719467
0.19718669 0.15982565 -0.030298781
0.1661129 0.13492307 -0.029167075
0.71546328 0.63428825 -0.16446525
0.21023446 0.16775954 -0.029399246
-0.02611593 -0.059798401 0.050936799
-0.02611593 -0.059798401 0.050936799
0.7051568 0.62759668 -0.17939839
0.19219363 0.15180877 -0.028349653
0.16610898 0.13392323 -0.029185094
0.13905407 0.11400545 -0.028038461
0.20025617 0.15372546 -0.025464959
-0.02611593 -0.059798401 0.050936799
-0.02611593 -0.059798401 0.050936799
-0.02611593 -0.059798401 0.050936799
0.19018914 0.14579889 -0.027420525
0.16908969 0.13393056 -0.030241124
0.14104979 0.11299845 -0.028094057
0.12101719 0.099054523 -0.026970848
-0.02611593 -0.059798401 0.050936799
-0.02611593 -0.059798401 0.050936799
-0.02611593 -0.059798401 0.050936799
-0.02611593 -0.059798401 0.050936799
0.16011126 0.11989289 -0.026325624
0.14601928 0.11501633 -0.030151293
0.12994942 0.10611147 -0.032012131
0.10398795 0.08609964 -0.025885981
-0.02611593 -0.059798401 0.050936799
