# .PCD v0.7 - Point Cloud Data file format
VERSION 0.7
FIELDS x y z
SIZE 4 4 4
TYPE F F F
COUNT 1 1 1
WIDTH 1394
HEIGHT 1
VIEWPOINT 0 0 0 1 0 0 0
POINTS 1394
DATA ascii
-0.02611593 -0.059798401 0.050936799
-0.02611593 -0.059798401 0.050936799
-0.02611593 -0.059798401 0.050936799
-0.02611593 -0.059798401 0.050936799
-0.088476904 -0.026137793 -0.02731327
-0.089595988 -0.023008093 -0.034238055
-0.02611593 -0.059798401 0.050936799
-0.096494153 -0.026090994 -0.028162606
-0.02611593 -0.059798401 0.050936799
-0.02611593 -0.059798401 0.050936799
-0.084492423 -0.025134228 -0.028370075
-0.02611593 -0.059798401 0.050936799
-0.091424108 -0.027181124 -0.024275932
-0.094557628 -0.023026325 -0.032144785
-0.02611593 -0.059798401 0.050936799
-0.099437438 -0.026134495 -0.025107257
-0.02611593 -0.059798401 0.050936799
-0.02611593 -0.059798401 0.050936799
-0.088469043 -0.024138132 -0.027277235
-0.02611593 -0.059798401 0.050936799
-0.10148147 -0.023073561 -0.028014597
-0.1005526 -0.022004962 -0.03201402
-0.02611593 -0.059798401 0.050936799
-0.1064283 -0.02410971 -0.024939686
-0.02611593 -0.059798401 0.050936799
-0.02611593 -0.059798401 0.050936799
-0.09241607 -0.025177874 -0.024221107
-0.02611593 -0.059798401 0.050936799
-0.10542848 -0.024113299 -0.024958476
-0.10652886 -0.021001687 -0.030883592
-0.02611593 -0.059798401 0.050936799
-0.11847049 -0.021012887 -0.027659122
-0.02611593 -0.059798401 0.050936799
-0.02611593 -0.059798401 0.050936799
-0.10045899 -0.022095408 -0.027015708
-0.02611593 -0.059798401 0.050936799
-0.11748548 -0.01999856 -0.028659564
-0.11451954 -0.018973315 -0.030697234
-0.02611593 -0.059798401 0.050936799
-0.12949415 -0.017937742 -0.029397689
-0.02611593 -0.059798401 0.050936799
-0.02611593 -0.059798401 0.050936799
-0.10743506 -0.021088542 -0.025866497
-0.02611593 -0.059798401 0.050936799
-0.12445762 -0.017991867 -0.027492322
-0.1245473 -0.01690159 -0.032472614
-0.02611593 -0.059798401 0.050936799
-0.1344144 -0.016992323 -0.025287081
-0.02611593 -0.059798401 0.050936799
-0.02611593 -0.059798401 0.050936799
-0.11038227 -0.022131875 -0.02282916
-0.02611593 -0.059798401 0.050936799
-0.1374809 -0.01490954 -0.029193312
-0.1335378 -0.014869628 -0.032267466
-0.02611593 -0.059798401 0.050936799
-0.14944819 -0.011885074 -0.027914114
-0.02611593 -0.059798401 0.050936799
-0.02611593 -0.059798401 0.050936799
-0.12749058 -0.01694509 -0.02941725
-0.02611593 -0.059798401 0.050936799
-0.14744855 -0.011892252 -0.027951695
-0.13845806 -0.013924213 -0.02815685
-0.02611593 -0.059798401 0.050936799
-0.16041961 -0.009864023 -0.026671719
-0.02611593 -0.059798401 0.050936799
-0.02611593 -0.059798401 0.050936799
-0.13242956 -0.015981583 -0.026306301
-0.02611593 -0.059798401 0.050936799
-0.15742016 -0.00987479 -0.02672809
-0.15652874 -0.0087700179 -0.032726832
-0.02611593 -0.059798401 0.050936799
-0.16833541 -0.0079080071 -0.022486709
-0.02611593 -0.059798401 0.050936799
-0.02611593 -0.059798401 0.050936799
-0.14036801 -0.015007307 -0.023138978
-0.02611593 -0.059798401 0.050936799
-0.16836892 -0.006872002 -0.024468016
-0.15738271 -0.0099109681 -0.024728771
-0.02611593 -0.059798401 0.050936799
-0.19036004 -0.00077597657 -0.024946172
-0.02611593 -0.059798401 0.050936799
-0.02611593 -0.059798401 0.050936799
-0.1493398 -0.012993435 -0.021934163
-0.02611593 -0.059798401 0.050936799
-0.19039749 -0.0007397983 -0.026945498
-0.17639704 -0.0048074513 -0.026280977
-0.02611593 -0.059798401 0.050936799
-0.2163613 0.0073521477 -0.026312798
-0.02611593 -0.059798401 0.050936799
-0.02611593 -0.059798401 0.050936799
-0.1451838 -0.016170083 -0.01306643
-0.02611593 -0.059798401 0.050936799
-0.20935565 0.0043094517 -0.025498718
-0.20143986 0.0023534351 -0.029683735
-0.02611593 -0.059798401 0.050936799
-0.24332495 0.015447694 -0.025661308
-0.02611593 -0.059798401 0.050936799
-0.02611593 -0.059798401 0.050936799
-0.17932551 -0.0058688712 -0.022243977
-0.02611593 -0.059798401 0.050936799
-0.23935226 0.013451765 -0.026772156
-0.22341226 0.008431375 -0.029162232
-0.02611593 -0.059798401 0.050936799
-0.02611593 -0.059798401 0.050936799
-0.02611593 -0.059798401 0.050936799
-0.02611593 -0.059798401 0.050936799
-0.21038204 0.0023314683 -0.026515633
-0.9741208 0.26276389 -0.21456917
-0.267297 0.021532811 -0.02510222
-0.25137964 0.015530672 -0.028509967
-0.02611593 -0.059798401 0.050936799
-0.97771209 0.26138043 -0.19251949
-0.02611593 -0.059798401 0.050936799
-0.02611593 -0.059798401 0.050936799
-0.23836422 0.010448692 -0.026845004
-0.9903422 0.26408291 -0.17322758
-0.97190911 0.25452289 -0.2017553
-0.9675436 0.25110257 -0.23491015
-0.02611593 -0.059798401 0.050936799
-1.0019389 0.26574576 -0.15197319
-0.98855722 0.25725779 -0.18338791
-0.97012031 0.24869764 -0.21189764
-0.26028439 0.015472527 -0.023342542
-1.0075407 0.26638725 -0.13084956
-0.99917299 0.25893512 -0.16315198
-0.98176235 0.24839701 -0.19267857
-0.02611593 -0.059798401 0.050936799
-1.0161381 0.26803935 -0.10965151
-1.0127881 0.26062328 -0.14285964
-0.98934901 0.24802776 -0.17053571
-0.97599393 0.23755823 -0.20298614
-1.0307451 0.27173072 -0.089304358
-1.0113467 0.25818589 -0.11892261
-1.0009685 0.24870886 -0.15029898
-0.9916274 0.23927164 -0.18365586
-1.0343138 0.27132902 -0.066236988
-1.028972 0.26190612 -0.099518731
-1.0115694 0.24936831 -0.12908137
-0.99520391 0.23687027 -0.16062455
-1.0579075 0.27805218 -0.045666665
-1.0365547 0.26253673 -0.077357844
-1.0261842 0.25106001 -0.10877026
-1.0027945 0.23550119 -0.13849971
-1.0664822 0.28068602 -0.023450956
-1.053124 0.26619908 -0.054973796
-1.0367663 0.25170138 -0.086552992
-1.0174134 0.23619309 -0.1182066
-1.0810517 0.28434122 -0.0011044815
-1.0597068 0.26682609 -0.032831691
-1.0513588 0.25437483 -0.065224208
-1.0209899 0.23379171 -0.095175281
-1.0865934 0.28592825 0.023036174
-1.0672709 0.26743856 -0.0096711442
-1.0509174 0.25194103 -0.041268371
-1.0385816 0.23647591 -0.073790103
-1.0921539 0.2875334 0.046177156
-1.0888314 0.27311856 0.012842894
-1.059481 0.2525571 -0.018089034
-1.0461496 0.23608859 -0.050647572
-1.1246779 0.29723409 0.069969632
-1.1063778 0.27776626 0.036263421
-1.0960459 0.26130855 0.0037612692
-1.0597311 0.23674074 -0.028373942
-1.1382064 0.30184937 0.094314665
-1.1239055 0.28239584 0.060683616
-1.0995957 0.26088873 0.027828295
-1.0762856 0.23938516 -0.005008243
-0.02611593 -0.059798401 0.050936799
-1.1424332 0.28702906 0.0851226
-1.1211226 0.2655327 0.052323639
-1.1018305 0.24406157 0.018562611
-1.1911522 0.31909946 0.14763606
-1.174901 0.29667547 0.11191405
-1.1446307 0.27016577 0.077856235
-1.1053658 0.24262391 0.043611281
-0.02611593 -0.059798401 0.050936799
-1.1873814 0.29923326 0.13920324
-1.1561486 0.2727561 0.1031273
-1.1438551 0.25131011 0.069497801
-1.2320373 0.33323467 0.20467655
-0.02611593 -0.059798401 0.050936799
-1.173624 0.27633163 0.13052845
-0.02611593 -0.059798401 0.050936799
-1.2375 0.33574921 0.23283386
-1.2073202 0.30531251 0.19470534
-1.1990675 0.28291726 0.15913364
-1.1808283 0.25748658 0.12332001
-1.2738245 0.34828284 0.26675218
-1.2367178 0.31387597 0.22542104
-1.205538 0.28343567 0.18727371
-0.02611593 -0.059798401 0.050936799
-1.2902135 0.3547819 0.29818726
-1.2531294 0.31939328 0.25583842
-0.02611593 -0.059798401 0.050936799
-1.2227032 0.26459038 0.1822525
-1.3025885 0.36024866 0.33052877
-1.2854475 0.328895 0.29062718
-1.2443455 0.29347393 0.24920286
-0.02611593 -0.059798401 0.050936799
-1.2950841 0.35973513 0.35738811
-1.2978263 0.33336198 0.32295069
-1.2617422 0.29797691 0.28062069
-0.02611593 -0.059798401 0.050936799
-1.3153896 0.36817586 0.39293301
-1.3271036 0.34381658 0.35970044
-1.299999 0.30844575 0.31853917
-0.02611593 -0.059798401 0.050936799
-1.3525749 0.38258615 0.43390375
-1.3344725 0.34624782 0.39289361
-1.2745631 0.30090496 0.34293482
-0.02611593 -0.059798401 0.050936799
-2.1415277 0.6487087 0.71258342
-1.3299117 0.34569079 0.42280829
-0.02611593 -0.059798401 0.050936799
-0.02611593 -0.059798401 0.050936799
-2.124692 0.64683741 0.75724947
-2.3066952 0.65254402 0.75776047
-1.3310589 0.31773531 0.42032322
-1.2970273 0.27839431 0.3759594
-2.1068377 0.64494443 0.80289644
-2.2987003 0.65255994 0.81062901
-2.4897363 0.65431768 0.81023741
-1.3302183 0.28677315 0.41774654
-2.093956 0.64505106 0.84967303
-2.2817333 0.65056211 0.86229265
-2.4796185 0.65220016 0.87002993
-2.7562585 0.66493899 0.88944638
-2.0771203 0.64317977 0.89433914
-2.2687433 0.64956027 0.91504931
-2.4754691 0.65308565 0.93098891
-2.749949 0.66365486 0.95932865
-2.0592623 0.6422866 0.94000411
-2.2498183 0.6465916 0.96465808
-2.4653475 0.651968 0.99079943
-2.7357049 0.66039658 1.0260257
-2.0394421 0.64142251 0.98363221
-2.225913 0.64362311 1.0131732
-2.459161 0.6528101 1.0537201
-2.7035956 0.65218312 1.0862963
-2.0225837 0.64053303 1.0293159
-2.2139006 0.64360654 1.0669663
-2.4440439 0.6506747 1.1134188
-2.6873519 0.64891762 1.1529558
-2.0027633 0.63966894 1.072944
-2.1949525 0.64161962 1.1175927
-2.4318814 0.65051353 1.175209
-2.6800013 0.64859349 1.2248365
-1.9789664 0.63780874 1.1154792
-2.177978 0.64162141 1.1692924
-2.4018915 0.64543331 1.2285738
-2.6686735 0.6472733 1.2956247
-1.9551883 0.6359666 1.1570148
-2.1580079 0.64061254 1.2209177
-2.3788321 0.64332342 1.2851231
-2.649389 0.64496076 1.3642451
-1.9333909 0.63411361 1.1995877
-2.1390336 0.64060712 1.27258
-2.3606932 0.64215904 1.3457829
-2.6330812 0.6436407 1.4339393
-1.90959 0.63325322 1.2421408
-2.1081896 0.63666797 1.3179467
-2.3514657 0.64395398 1.4106647
-2.6117969 0.64132082 1.5025222
-1.8848119 0.63140744 1.2836576
-2.0872383 0.63567364 1.3685536
-2.3253884 0.6418153 1.4681572
-2.5835743 0.63803041 1.5679564
-1.8649651 0.63252497 1.3283215
-2.0603297 0.63369405 1.4170303
-2.297349 0.63970554 1.5236129
-2.5671833 0.63863766 1.6416855
-1.8431411 0.63265347 1.3719299
-2.0314586 0.63174355 1.4634702
-2.2584393 0.63366562 1.5727917
-2.538919 0.63631094 1.7091372
-1.8084852 0.6288808 1.4072248
-2.0065081 0.63073486 1.514002
-2.2441714 0.6364063 1.6395969
-2.5106552 0.63398409 1.7765888
-1.7777871 0.62608606 1.4446123
-1.9795958 0.6297552 1.5624969
-2.2012999 0.63038814 1.6867013
-2.4833493 0.63262457 1.8460765
-1.7539823 0.62622553 1.4871833
-1.9418653 0.62589937 1.601734
-2.1742148 0.63024551 1.7442111
-2.4570014 0.63223225 1.9176003
-1.7291738 0.62736124 1.5297539
-1.9139529 0.62491608 1.6502101
-2.1372371 0.62715787 1.7964807
-2.4119396 0.6270259 1.9746819
-1.6974758 0.62456298 1.5671225
-1.8791393 0.62299836 1.6935382
-2.0924037 0.62116873 1.8415482
-2.3757138 0.62470657 2.0399837
-1.690333 0.63347244 1.6261699
-1.8629764 0.62784016 1.7543439
-1.9012278 0.56700492 1.752959
-2.3315916 0.62044924 2.100101
-1.6439008 0.62585634 1.6501709
-1.8202882 0.62300265 1.7914697
-1.8457074 0.55826616 1.7817713
-1.8632711 0.49062818 1.7648709
-1.5984646 0.61924362 1.6742088
-1.7854559 0.62106675 1.8357974
-1.8627985 0.57455862 1.8804194
-1.8175499 0.48474401 1.8039216
-1.5657815 0.6174596 1.710577
-1.7359267 0.61434925 1.8647586
-1.9493515 0.61572659 2.0568445
-1.9835265 0.54577005 2.0612204
-1.5291969 0.61475194 1.7418536
-1.7040297 0.61436957 1.9121777
-1.9103473 0.61461341 2.110112
-2.1549995 0.61034673 2.3446949
-1.4994307 0.61490607 1.7823128
-1.6593943 0.61057907 1.946285
-1.8654609 0.61258739 2.1572509
-2.109828 0.60904926 2.4068468
-1.4618461 0.61219478 1.8135707
-1.6196564 0.60871565 1.9855206
-1.8235173 0.61051792 2.2074451
-2.0558197 0.6048646 2.4607782
-1.4271784 0.61142159 1.8489195
-1.5808623 0.60680163 2.0277739
-1.7795891 0.60945916 2.2566204
-2.0028036 0.60268331 2.5147643
-1.3925105 0.61064827 1.8842685
-1.5420829 0.60590547 2.0690458
-1.7327026 0.60742587 2.3037214
-1.9556097 0.60236037 2.5778964
-1.3558806 0.60990411 1.9175805
-1.498402 0.60408205 2.105207
-1.6877558 0.60634547 2.3538778
-1.903477 0.60107386 2.6379175
-1.3182921 0.60819256 1.9488564
-1.4644413 0.6060406 2.1556239
-1.6398845 0.60532659 2.3999786
-1.8445632 0.59696174 2.6867566
-1.2777643 0.60552472 1.9770589
-1.4207417 0.60419905 2.192785
-1.5861382 0.60139531 2.4399147
-1.7895058 0.59573686 2.7427225
-1.2420554 0.60571158 2.0144064
-1.3750798 0.60238647 2.2279091
-1.5372633 0.60137266 2.4860148
-1.7266452 0.59266454 2.7885056
-1.2005427 0.60405809 2.0416083
-1.3294179 0.60057396 2.2630334
-1.4777133 0.59560096 2.5158055
-1.6647241 0.5905413 2.8373244
-1.1609545 0.60233951 2.0728469
-1.2789147 0.59688854 2.2900302
-1.4258801 0.5946039 2.5598321
-1.6008449 0.58744729 2.8840883
-1.1204002 0.60165328 2.1020846
-1.2332301 0.59605771 2.3261724
-1.3672847 0.59079939 2.591677
-1.5340785 0.58445102 2.9247978
-1.0836687 0.60281819 2.1404312
-1.1874856 0.59617257 2.3653312
-1.3192477 0.59363508 2.6458473
-1.4672934 0.58143669 2.966507
-1.0382581 0.5992412 2.1625237
-1.1350201 0.59251606 2.3902912
-1.2577318 0.58889228 2.673619
-1.4033647 0.58130592 3.0153246
-0.99572289 0.59856594 2.1907248
-1.0863924 0.59172875 2.4233775
-1.2010118 0.58798581 2.7115536
-1.3355572 0.57926977 3.0580325
-0.9512707 0.59595609 2.2148538
-1.0367647 0.59093785 2.4564455
-1.1423336 0.58610851 2.7474334
-1.0415814 0.46135321 2.5442212
-0.91153193 0.59910995 2.2531798
-0.9871558 0.59016508 2.4885135
-0.97131437 0.51699352 2.4938951
-0.9468835 0.44017011 2.4780426
-0.86417788 0.59558004 2.2722359
-0.91562104 0.57528913 2.4658973
-0.8854692 0.49469808 2.4358649
-0.8571474 0.4189688 2.4139576
-0.821545 0.59581411 2.3054528
-0.83480144 0.55103016 2.4069252
-0.80361527 0.47441679 2.3779459
-0.77337968 0.40077043 2.3510382
-0.77602512 0.59614599 2.3326161
-0.75887555 0.52969819 2.3530996
-0.72671914 0.45511708 2.3221378
-0.69829893 0.38531438 2.3043373
-0.72108924 0.58696818 2.3304205
-0.68786597 0.51031142 2.3034027
-0.65570164 0.43773007 2.2724771
-0.62154865 0.36715916 2.2405503
-0.65692472 0.56846166 2.2888703
-0.61793506 0.49000087 2.2497077
-0.58575892 0.42041895 2.2188363
-0.55347747 0.353746 2.1930172
-0.59097815 0.54714751 2.2362323
-0.55485994 0.47258824 2.203196
-0.52165747 0.4049843 2.1733415
-0.49027047 0.34122401 2.1525934
-0.52897096 0.5267933 2.1866865
-0.49280339 0.4551973 2.1557035
-0.46047664 0.39048788 2.1319196
-0.42904034 0.32969093 2.113225
-0.47178242 0.50929362 2.1462853
-0.43462598 0.43971187 2.1143203
-0.40317097 0.3788968 2.0966251
-0.36994493 0.3172918 2.0668788
-0.41661227 0.49181923 2.1049223
-0.38030493 0.42711362 2.0800638
-0.34796244 0.36640352 2.0563521
-0.31459355 0.3076714 2.0336571
-0.36619687 0.47914493 2.0757394
-0.32896462 0.41450804 2.0468631
-0.29561448 0.35579401 2.0231688
-0.2675125 0.30641243 2.0377543
-0.31598052 0.46365204 2.0365055
-0.27952248 0.40381885 2.0187347
-0.25384951 0.36092228 2.0624928
-0.22439893 0.31421101 2.0951076
-0.27112463 0.45760006 2.0295539
-0.24053925 0.41175848 2.0691657
-0.21082953 0.36881131 2.1148479
-0.17903054 0.3247667 2.165473
-0.23309982 0.46650684 2.0820208
-0.20025963 0.42342231 2.1346445
-0.16741942 0.38033786 2.187268
-0.13164377 0.33529717 2.2368004
-0.19299266 0.47733372 2.138485
-0.15593939 0.43603557 2.2020655
-0.15415816 0.55938256 3.0715585
-0.10667372 0.54694146 3.4185619
-0.15073211 0.48900861 2.2029266
-0.1294543 0.56639373 2.7881265
-0.083950207 0.55791444 3.0822208
-0.025463879 0.54643369 3.4290357
-0.11674398 0.57549238 2.5579751
-0.068421066 0.56312108 2.7899253
-0.012701083 0.55740643 3.094882
0.054202277 0.54143685 3.4114478
-0.062672034 0.57220864 2.5619047
-0.0072075613 0.56268507 2.8007748
0.056319803 0.55612278 3.0955667
0.1353786 0.54196507 3.4199405
-0.0083823465 0.57172543 2.5768845
0.055279665 0.56499171 2.8256552
0.12720141 0.55295885 3.0891802
0.21741584 0.54061663 3.4213803
0.045809798 0.57033277 2.5868483
0.11825636 0.56176615 2.8244174
0.19943556 0.55346519 3.100841
0.29826605 0.53945279 3.4128428
0.10214441 0.57180583 2.6038258
0.18137196 0.56041366 2.8302131
0.2713958 0.55122519 3.0984521
0.38126957 0.53913677 3.4122829
0.15923846 0.56949306 2.6087167
0.24545385 0.56009346 2.8340089
0.34455484 0.55180019 3.1060956
-0.02611593 -0.059798401 0.050936799
0.21647142 0.56905335 2.6206412
0.30943036 0.5568642 2.8327522
-0.02611593 -0.059798401 0.050936799
-0.02611593 -0.059798401 0.050936799
0.27350929 0.56679487 2.6225331
-0.02611593 -0.059798401 0.050936799
0.48735234 0.54945016 3.0943754
-0.02611593 -0.059798401 0.050936799
-0.02611593 -0.059798401 0.050936799
0.44089016 0.55994123 2.8553543
0.55806541 0.54644907 3.0789921
0.27778426 0.18816179 1.4322004
0.15620747 0.21410039 1.1848621
0.50140613 0.5541575 2.8301079
0.27276015 0.21530175 1.4257834
0.78419161 0.53564614 3.3516552
0.44998655 0.56667471 2.6462348
0.26902848 0.2451663 1.4343964
0.70177305 0.54518569 3.062273
0.86277604 0.53374279 3.3291421
0.26141381 0.27593651 1.4491004
0.63561416 0.55545908 2.839622
0.77354997 0.54412645 3.049906
0.940346 0.53286099 3.3056657
0.56895304 0.56324816 2.6439445
0.69942605 0.55339265 2.8293865
0.84846139 0.54392964 3.0444977
1.0210356 0.53385949 3.288167
0.62683696 0.56013089 2.6378026
0.76633489 0.5522247 2.824111
0.91810763 0.54300421 3.0251706
1.095396 0.53218758 3.2537329
0.68888181 0.55985409 2.6396363
0.83011335 0.55119413 2.8118942
0.98769379 0.54113317 3.0028265
-0.02611593 -0.059798401 0.050936799
0.75094926 0.56055903 2.6424882
0.89589137 0.55015635 2.7996395
1.0615571 0.5429939 2.9944742
0.3825998 0.12944576 1.0600498
0.80870217 0.55756849 2.6293483
0.96272546 0.54906082 2.7903655
-0.02611593 -0.059798401 0.050936799
0.51531547 0.1775998 1.3005176
0.8726905 0.55733877 2.6281457
-0.02611593 -0.059798401 0.050936799
0.50022823 0.19781305 1.292163
-0.02611593 -0.059798401 0.050936799
0.93772 0.55806911 2.6289418
0.39074367 0.16641076 1.0605662
1.2754279 0.54227155 2.932436
1.4695109 0.53154838 3.0966637
-0.02611593 -0.059798401 0.050936799
0.52556527 0.22248392 1.3051392
1.3397676 0.53965384 2.897172
1.542842 0.5319159 3.0602851
0.49401498 0.23417214 1.2739308
1.2286992 0.54804337 2.7333477
1.4092869 0.53985482 2.8708651
1.6120764 0.5313884 3.0189655
0.53542417 0.23964411 1.2942613
1.2943274 0.54715037 2.7130959
1.4808242 0.54003054 2.8455205
1.6812732 0.53089708 2.9756463
1.1932012 0.55660278 2.5991216
1.3651124 0.54809439 2.7007837
1.5420749 0.53851384 2.8053327
1.7546271 0.53224641 2.9402854
1.2548822 0.5546701 2.5819261
1.429666 0.54727733 2.6765521
1.6104778 0.53782713 2.7730286
1.8218095 0.53278017 2.8960221
1.3196232 0.55367208 2.5676911
1.4942194 0.54646027 2.6523206
1.6810048 0.54002416 2.7467389
1.8848765 0.53243703 2.8458183
1.3843678 0.55367398 2.5534739
1.5618365 0.54757786 2.6310675
1.7453148 0.53944236 2.7095118
1.9469062 0.53213352 2.7936335
1.4511348 0.55465049 2.5402374
1.6221957 0.54495633 2.5968785
1.8095877 0.53889662 2.670285
2.0058615 0.53191328 2.7375069
1.5095841 0.55094588 2.511066
1.6887567 0.54613179 2.5726454
1.8769799 0.54023123 2.6370361
2.071007 0.53249043 2.6912818
1.5793694 0.55189341 2.4987726
1.7542164 0.54540157 2.5433962
1.9361411 0.53981203 2.5919056
2.1300037 0.53323382 2.6371725
1.6429605 0.55104381 2.4765587
1.8155459 0.54481232 2.5072253
2.0003991 0.54028422 2.5516975
2.1900191 0.53395557 2.584044
1.7074766 0.55026299 2.4503281
1.8840692 0.54601675 2.4809554
2.0595231 0.53990114 2.5045676
2.2469785 0.5347423 2.5279725
1.7761496 0.55132264 2.4320552
1.947421 0.54640216 2.4457643
2.1145689 0.53860492 2.4534962
2.3121169 0.53833705 2.4808018
1.8426841 0.55051655 2.4067862
2.0046349 0.54493588 2.4036522
2.1808531 0.54105157 2.4142861
2.3741772 0.54101503 2.429671
1.907144 0.54978985 2.3775566
2.0638669 0.54344451 2.3625023
2.2369022 0.54075164 2.363214
2.4199064 0.54005867 2.3617749
1.9685256 0.54814661 2.3443663
2.1312821 0.54576081 2.330271
2.2980714 0.54232484 2.3180821
2.4687514 0.53998286 2.2998378
2.0360117 0.54939073 2.3161156
2.1955588 0.54621488 2.2910626
2.3531063 0.54304641 2.2660468
2.5348785 0.54559159 2.2516849
2.0993969 0.54874009 2.2829058
2.2557797 0.54673767 2.2489302
2.4213564 0.54652172 2.224818
2.5705121 0.54376185 2.1789598
2.1657813 0.54807866 2.2496397
2.3190417 0.5482133 2.2087591
2.468235 0.54541713 2.1649001
2.6030862 0.54099709 2.1032743
2.2351923 0.54938805 2.2173529
2.3761437 0.54685569 2.1606488
2.5160987 0.54532683 2.1039815
2.6468832 0.54299313 2.0384686
2.3035843 0.55071902 2.1840851
2.4362938 0.54845059 2.114536
2.5630002 0.54520392 2.0450814
2.6977582 0.54589158 1.9775479
2.3566604 0.54739416 2.135015
2.4964213 0.54906374 2.0674055
2.6180017 0.54696149 1.9910653
2.7405374 0.54790926 1.9117612
2.433115 0.55064189 2.1046319
2.5504339 0.54880714 2.0143714
2.6709657 0.54876232 1.9350871
2.7863529 0.54987997 1.8479176
2.4932721 0.54921919 2.0594642
2.6105466 0.55043823 1.9662591
2.7269523 0.55153418 1.8800702
2.8149769 0.55009305 1.7743604
2.5584552 0.54976016 2.0152388
2.6736627 0.55305851 1.9181086
2.7859647 0.55627692 1.826033
2.8436005 0.55030608 1.7008035
2.6337786 0.55313814 1.9778771
2.7438376 0.55659908 1.8728434
2.8004179 0.55068594 1.7446336
2.8874021 0.55330187 1.6360157
2.6958647 0.55278051 1.9286915
2.7927201 0.55648696 1.8129058
2.8462484 0.55163878 1.6817715
2.912008 0.55354738 1.561534
2.7599728 0.55339742 1.880486
2.8324838 0.55451614 1.7471035
2.8941052 0.55456603 1.6199075
2.9467134 0.55566609 1.491899
2.8240247 0.55406857 1.8292816
2.8783107 0.55446911 1.6842232
2.9328623 0.55561632 1.5531783
2.97436 0.55686444 1.4193785
2.8738804 0.55197138 1.7682894
2.9281776 0.55537146 1.6232853
2.968601 0.55669546 1.4855056
3.0030482 0.55902284 1.3488566
2.9419541 0.55360991 1.7180276
2.9820669 0.55724114 1.5632898
3.0164201 0.55965894 1.4216423
3.0337391 0.5621739 1.2783149
3.0109756 0.55629903 1.6647658
3.0349414 0.56013232 1.5023315
3.0450628 0.55985379 1.349085
3.0614123 0.56535381 1.2068303
3.0648196 0.55620521 1.6027352
3.0766714 0.55919033 1.4345101
3.0838277 0.56290382 1.2823918
3.0810232 0.56661701 1.1324606
3.1206629 0.55610418 1.5406666
3.1295085 0.56211776 1.3715526
3.1205328 0.56501544 1.2127192
3.0885718 0.56597787 1.0552816
3.1885912 0.55888742 1.4824255
3.17225 0.56417161 1.3037664
3.1461608 0.566239 1.1392366
3.1182675 0.57013237 0.98477685
3.2322607 0.55699259 1.4115494
3.2179685 0.56523299 1.2349064
3.1758261 0.56741214 1.0676781
3.1338828 0.57240981 0.91050053
3.2900555 0.55893838 1.3464806
3.2667127 0.5682652 1.1670256
3.2024355 0.56865019 0.99317706
3.1464763 0.57371622 0.83526289
3.3518307 0.56088787 1.2803369
3.2993169 0.56848192 1.0923938
3.2250497 0.57090247 0.91876918
3.1610918 0.57599723 0.76100534
3.405529 0.56193864 1.2103268
3.3238626 0.56778181 1.0148952
3.2516816 0.57312238 0.84528577
3.1656866 0.57733232 0.68591797
3.4450908 0.56116658 1.1335461
3.3715549 0.5718717 0.94405228
3.2682517 0.57343262 0.76895529
3.1783023 0.57962054 0.61169803
3.5138352 0.5651269 1.0653075
3.4041257 0.57312441 0.86743921
3.2988906 0.57763779 0.69543278
3.1808972 0.5809629 0.53664827
3.5473194 0.56344885 0.98462296
3.4296565 0.57343864 0.78894025
3.3084245 0.57800943 0.61723453
3.1925173 0.58425444 0.46246511
3.6059117 0.56658989 0.90855688
3.4662306 0.57567686 0.71226996
3.3300197 0.5802834 0.54184574
3.1840918 0.58465445 0.38660437
3.6604676 0.56978142 0.83056682
3.4937463 0.57700181 0.63275182
3.3486011 0.58358604 0.46553177
3.1917312 0.58794236 0.31349602
3.6969178 0.56912869 0.74784452
3.5262687 0.58030844 0.55317575
3.3520985 0.58401537 0.38544691
3.1913457 0.58927739 0.23950234
3.7473772 0.5714252 0.66491318
3.5457447 0.58069849 0.47179061
3.3646581 0.58635783 0.30822793
3.1849611 0.59063393 0.16562137
3.8018432 0.57570702 0.5819428
3.5862322 0.5850125 0.3900829
3.3731959 0.58773291 0.23006648
3.201592 0.59690708 0.091398314
3.8251605 0.57422775 0.4924491
3.5876467 0.58352166 0.30600092
3.3827415 0.59110403 0.15192224
3.1862237 0.59727794 0.0186681
3.8645093 0.57667226 0.40372658
3.6210985 0.587897 0.22242546
3.3962674 0.59447885 0.072703205
2.9347961 0.54841387 -0.045530163
3.9048355 0.57813144 0.3139675
3.5654097 0.57668483 0.13523573
2.9815834 0.51636773 0.0020302965
2.9625304 0.55755663 -0.11490756
-0.02611593 -0.059798401 0.050936799
3.5458207 0.57326972 0.051512327
2.9572761 0.51269937 -0.066604227
2.7103877 0.50942469 -0.16407409
3.5248544 0.51012915 0.11878553
2.9580433 0.46880212 -0.017395971
2.8140168 0.48735318 -0.12740114
2.7371969 0.51849866 -0.22943404
-0.02611593 -0.059798401 0.050936799
2.9887426 0.47395289 -0.087901473
2.7288682 0.47372442 -0.185073
2.4913564 0.4710556 -0.26270071
2.9895868 0.42094874 -0.032857411
2.7385216 0.42990351 -0.14203182
2.6247787 0.45509234 -0.2384793
2.5262322 0.483046 -0.32515797
2.9292359 0.40942895 -0.10195929
2.7612784 0.43502867 -0.20938802
2.5128033 0.43638051 -0.28573731
2.4483118 0.47017491 -0.37094742
2.7660096 0.3821187 -0.16041708
2.5123982 0.39164993 -0.24552521
2.5446303 0.44541845 -0.35019153
2.269701 0.43630812 -0.39522421
2.7208025 0.37441775 -0.22273111
2.5272276 0.3957316 -0.30875048
2.2751794 0.39568192 -0.36205041
2.3035955 0.44828409 -0.45666298
2.5208673 0.34295157 -0.26457116
2.4402819 0.38091123 -0.35540652
2.3050597 0.4036729 -0.42348614
2.3354721 0.46028525 -0.51906389
2.3041289 0.30834791 -0.29514951
2.3015575 0.3580437 -0.38823399
2.330925 0.41269618 -0.48582828
2.4668965 0.49543014 -0.61091989
2.3080606 0.30936104 -0.35222417
2.3363614 0.36608911 -0.45376229
2.381675 0.42675552 -0.55554777
2.4349165 0.49348259 -0.66237384
2.3348916 0.31439948 -0.41565686
2.3612003 0.3731344 -0.51712143
2.5070388 0.45595911 -0.64939851
2.4825702 0.5116604 -0.73796278
2.3716497 0.32047424 -0.4832581
2.5891557 0.41739997 -0.6366291
2.4959066 0.45909813 -0.71015388
2.4167755 0.50263715 -0.77790773
2.5119731 0.34464297 -0.57848042
2.4764276 0.39945635 -0.67085469
2.4499741 0.45414701 -0.75839978
2.3172214 0.48648375 -0.80334461
2.5655191 0.35487309 -0.65832496
2.5001211 0.40764976 -0.74217433
2.397095 0.44816691 -0.80353326
-0.02611593 -0.059798401 0.050936799
2.4597788 0.33892211 -0.69364572
2.4352734 0.39967689 -0.78511894
-0.02611593 -0.059798401 0.050936799
0.17849964 -0.011062576 -0.034041379
2.4704967 0.34312668 -0.76279378
2.3784096 0.39269325 -0.82919562
0.18746749 -0.014076276 -0.035264198
-0.02611593 -0.059798401 0.050936799
2.4195423 0.33721179 -0.81196344
-0.02611593 -0.059798401 0.050936799
-0.02611593 -0.059798401 0.050936799
0.15646923 -0.014964853 -0.034699712
-0.02611593 -0.059798401 0.050936799
0.18044129 -0.021049969 -0.035258796
0.16541836 -0.017960463 -0.036922213
-0.02611593 -0.059798401 0.050936799
0.18343982 -0.026077969 -0.034405608
-0.02611593 -0.059798401 0.050936799
-0.02611593 -0.059798401 0.050936799
0.13349125 -0.019917633 -0.032358304
-0.02611593 -0.059798401 0.050936799
0.15443031 -0.024955973 -0.034842316
0.14538759 -0.021869916 -0.037618134
-0.02611593 -0.059798401 0.050936799
0.1534483 -0.029987715 -0.0329143
-0.02611593 -0.059798401 0.050936799
-0.02611593 -0.059798401 0.050936799
0.11153574 -0.023892267 -0.029018007
-0.02611593 -0.059798401 0.050936799
0.1344035 -0.027865596 -0.035520226
0.12441707 -0.024830215 -0.035278264
-0.02611593 -0.059798401 0.050936799
0.13045949 -0.032922745 -0.031536512
-0.02611593 -0.059798401 0.050936799
-0.02611593 -0.059798401 0.050936799
0.10247728 -0.024805527 -0.031865887
-0.02611593 -0.059798401 0.050936799
0.11543263 -0.030833073 -0.033217944
0.10742714 -0.027786784 -0.034013212
-0.02611593 -0.059798401 0.050936799
0.11741653 -0.034839574 -0.033327598
-0.02611593 -0.059798401 0.050936799
-0.02611593 -0.059798401 0.050936799
0.090467699 -0.027761951 -0.031694457
-0.02611593 -0.059798401 0.050936799
0.098442674 -0.033789642 -0.031952891
0.098368704 -0.028700048 -0.03686111
-0.02611593 -0.059798401 0.050936799
0.1014116 -0.036781814 -0.033062983
-0.02611593 -0.059798401 0.050936799
-0.02611593 -0.059798401 0.050936799
0.077480942 -0.029733045 -0.030486558
-0.02611593 -0.059798401 0.050936799
0.087422036 -0.034731906 -0.032763883
0.084396914 -0.031685472 -0.03465277
-0.02611593 -0.059798401 0.050936799
0.083478019 -0.039789058 -0.028780166
-0.02611593 -0.059798401 0.050936799
-0.02611593 -0.059798401 0.050936799
0.06651254 -0.031729404 -0.02831658
-0.02611593 -0.059798401 0.050936799
0.078401029 -0.035681348 -0.033612438
0.077342026 -0.031606078 -0.037520222
-0.02611593 -0.059798401 0.050936799
0.078404039 -0.039698757 -0.032684859
-0.02611593 -0.059798401 0.050936799
-0.02611593 -0.059798401 0.050936799
0.058524884 -0.033718444 -0.027202625
-0.02611593 -0.059798401 0.050936799
0.065447792 -0.038688444 -0.030423235
0.066373624 -0.033602443 -0.035350248
-0.02611593 -0.059798401 0.050936799
0.063473821 -0.041716937 -0.02844039
-0.02611593 -0.059798401 0.050936799
-0.02611593 -0.059798401 0.050936799
0.051503517 -0.034675062 -0.028088778
-0.02611593 -0.059798401 0.050936799
0.061373632 -0.038601734 -0.034346718
0.059333537 -0.03454097 -0.03723605
-0.02611593 -0.059798401 0.050936799
0.059380937 -0.041612133 -0.033363525
-0.02611593 -0.059798401 0.050936799
-0.02611593 -0.059798401 0.050936799
0.047452003 -0.033606607 -0.030994575
-0.02611593 -0.059798401 0.050936799
0.056318376 -0.038529523 -0.037251752
0.051349808 -0.03553018 -0.036104087
-0.02611593 -0.059798401 0.050936799
0.050412174 -0.043615676 -0.031231131
-0.02611593 -0.059798401 0.050936799
-0.02611593 -0.059798401 0.050936799
0.040464155 -0.035599239 -0.029899418
-0.02611593 -0.059798401 0.050936799
0.04342524 -0.040591061 -0.031045541
0.045328245 -0.036490388 -0.037009016
-0.02611593 -0.059798401 0.050936799
0.042413641 -0.043586962 -0.031080805
-0.02611593 -0.059798401 0.050936799
-0.02611593 -0.059798401 0.050936799
0.032499131 -0.036606535 -0.027767792
-0.02611593 -0.059798401 0.050936799
0.035441503 -0.041580267 -0.029913574
0.037363231 -0.037497681 -0.034877393
-0.02611593 -0.059798401 0.050936799
0.036410812 -0.04456526 -0.030986082
-0.02611593 -0.059798401 0.050936799
-0.02611593 -0.059798401 0.050936799
0.02944351 -0.036541499 -0.030710399
-0.02611593 -0.059798401 0.050936799
0.031404786 -0.041529734 -0.031837739
0.033307798 -0.037429061 -0.03780121
-0.02611593 -0.059798401 0.050936799
0.031374283 -0.044511136 -0.032891449
-0.02611593 -0.059798401 0.050936799
-0.02611593 -0.059798401 0.050936799
-0.02611593 -0.059798401 0.050936799
-0.02611593 -0.059798401 0.050936799
-0.02611593 -0.059798401 0.050936799
0.029271081 -0.037378523 -0.039725374
-0.02611593 -0.059798401 0.050936799
0.025356658 -0.044471517 -0.033778373
-0.02611593 -0.059798401 0.050936799
-0.02611593 -0.059798401 0.050936799
0.021388806 -0.036458522 -0.033559058
-0.02611593 -0.059798401 0.050936799
-0.02611593 -0.059798401 0.050936799
0.023268251 -0.038356822 -0.039630648
-0.02611593 -0.059798401 0.050936799
-0.02611593 -0.059798401 0.050936799
-0.02611593 -0.059798401 0.050936799
-0.02611593 -0.059798401 0.050936799
0.017352097 -0.036407989 -0.035483222
-0.02611593 -0.059798401 0.050936799
-0.02611593 -0.059798401 0.050936799
-0.02611593 -0.059798401 0.050936799
-0.02611593 -0.059798401 0.050936799
-0.02611593 -0.059798401 0.050936799
-0.02611593 -0.059798401 0.050936799
-0.02611593 -0.059798401 0.050936799
-0.02611593 -0.059798401 0.050936799
-0.02611593 -0.059798401 0.050936799
-0.02611593 -0.059798401 0.050936799
0.013247432 -0.039302673 -0.040460423
-0.02611593 -0.059798401 0.050936799
-0.02611593 -0.059798401 0.050936799
-0.02611593 -0.059798401 0.050936799
-0.02611593 -0.059798401 0.050936799
-0.02611593 -0.059798401 0.050936799
-0.02611593 -0.059798401 0.050936799
-0.02611593 -0.059798401 0.050936799
0.010177013 -0.03821972 -0.044384677
-0.02611593 -0.059798401 0.050936799
-0.02611593 -0.059798401 0.050936799
-0.02611593 -0.059798401 0.050936799
-0.02611593 -0.059798401 0.050936799
-0.02611593 -0.059798401 0.050936799
-0.02611593 -0.059798401 0.050936799
-0.02611593 -0.059798401 0.050936799
0.0042116339 -0.039234199 -0.042290635
-0.02611593 -0.059798401 0.050936799
-0.02611593 -0.059798401 0.050936799
-0.02611593 -0.059798401 0.050936799
-0.02611593 -0.059798401 0.050936799
-0.02611593 -0.059798401 0.050936799
-0.02611593 -0.059798401 0.050936799
-0.02611593 -0.059798401 0.050936799
-0.02611593 -0.059798401 0.050936799
-0.02611593 -0.059798401 0.050936799
-0.02611593 -0.059798401 0.050936799
-0.02611593 -0.059798401 0.050936799
-0.02611593 -0.059798401 0.050936799
-0.02611593 -0.059798401 0.050936799
-0.02611593 -0.059798401 0.050936799
-0.02611593 -0.059798401 0.050936799
-0.02611593 -0.059798401 0.050936799
-0.02611593 -0.059798401 0.050936799
-0.02611593 -0.059798401 0.050936799
-0.02611593 -0.059798401 0.050936799
-0.02611593 -0.059798401 0.050936799
-0.02611593 -0.059798401 0.050936799
-0.02611593 -0.059798401 0.050936799
-0.02611593 -0.059798401 0.050936799
-0.02611593 -0.059798401 0.050936799
-0.02611593 -0.059798401 0.050936799
-0.02611593 -0.059798401 0.050936799
-0.02611593 -0.059798401 0.050936799
-0.02611593 -0.059798401 0.050936799
-0.02611593 -0.059798401 0.050936799
-0.02611593 -0.059798401 0.050936799
-0.02611593 -0.059798401 0.050936799
-0.02611593 -0.059798401 0.050936799
-0.02611593 -0.059798401 0.050936799
-0.02611593 -0.059798401 0.050936799
-0.02611593 -0.059798401 0.050936799
-0.02611593 -0.059798401 0.050936799
-0.02611593 -0.059798401 0.050936799
-0.02611593 -0.059798401 0.050936799
-0.02611593 -0.059798401 0.050936799
-0.02611593 -0.059798401 0.050936799
-0.02611593 -0.059798401 0.050936799
-0.02611593 -0.059798401 0.050936799
-0.02611593 -0.059798401 0.050936799
-0.02611593 -0.059798401 0.050936799
-0.02611593 -0.059798401 0.050936799
-0.02611593 -0.059798401 0.050936799
-0.02611593 -0.059798401 0.050936799
-0.02611593 -0.059798401 0.050936799
-0.02611593 -0.059798401 0.050936799
-0.02611593 -0.059798401 0.050936799
-0.02611593 -0.059798401 0.050936799
-0.02611593 -0.059798401 0.050936799
-0.02611593 -0.059798401 0.050936799
-0.02611593 -0.059798401 0.050936799
-0.02611593 -0.059798401 0.050936799
-0.02611593 -0.059798401 0.050936799
-0.02611593 -0.059798401 0.050936799
-0.02611593 -0.059798401 0.050936799
-0.02611593 -0.059798401 0.050936799
-0.02611593 -0.059798401 0.050936799
-0.02611593 -0.059798401 0.050936799
-0.02611593 -0.059798401 0.050936799
-0.02611593 -0.059798401 0.050936799
-0.02611593 -0.059798401 0.050936799
-0.02611593 -0.059798401 0.050936799
-0.02611593 -0.059798401 0.050936799
-0.02611593 -0.059798401 0.050936799
-0.02611593 -0.059798401 0.050936799
-0.02611593 -0.059798401 0.050936799
-0.02611593 -0.059798401 0.050936799
-0.02611593 -0.059798401 0.050936799
-0.02611593 -0.059798401 0.050936799
-0.02611593 -0.059798401 0.050936799
-0.02611593 -0.059798401 0.050936799
-0.02611593 -0.059798401 0.050936799
-0.02611593 -0.059798401 0.050936799
-0.02611593 -0.059798401 0.050936799
-0.02611593 -0.059798401 0.050936799
-0.02611593 -0.059798401 0.050936799
-0.02611593 -0.059798401 0.050936799
-0.02611593 -0.059798401 0.050936799
-0.02611593 -0.059798401 0.050936799
-0.02611593 -0.059798401 0.050936799
-0.02611593 -0.059798401 0.050936799
-0.02611593 -0.059798401 0.050936799
-0.02611593 -0.059798401 0.050936799
-0.02611593 -0.059798401 0.050936799
-0.02611593 -0.059798401 0.050936799
-0.02611593 -0.059798401 0.050936799
-0.02611593 -0.059798401 0.050936799
-0.02611593 -0.059798401 0.050936799
-0.02611593 -0.059798401 0.050936799
-0.02611593 -0.059798401 0.050936799
-0.02611593 -0.059798401 0.050936799
-0.02611593 -0.059798401 0.050936799
-0.02611593 -0.059798401 0.050936799
-0.02611593 -0.059798401 0.050936799
-0.02611593 -0.059798401 0.050936799
-0.02611593 -0.059798401 0.050936799
-0.02611593 -0.059798401 0.050936799
-0.02611593 -0.059798401 0.050936799
-0.02611593 -0.059798401 0.050936799
-0.02611593 -0.059798401 0.050936799
-0.02611593 -0.059798401 0.050936799
-0.02611593 -0.059798401 0.050936799
-0.02611593 -0.059798401 0.050936799
-0.02611593 -0.059798401 0.050936799
-0.02611593 -0.059798401 0.050936799
-0.02611593 -0.059798401 0.050936799
-0.02611593 -0.059798401 0.050936799
-0.02611593 -0.059798401 0.050936799
-0.02611593 -0.059798401 0.050936799
-0.02611593 -0.059798401 0.050936799
-0.02611593 -0.059798401 0.050936799
-0.02611593 -0.059798401 0.050936799
-0.02611593 -0.059798401 0.050936799
-0.02611593 -0.059798401 0.050936799
-0.02611593 -0.059798401 0.050936799
-0.02611593 -0.059798401 0.050936799
-0.02611593 -0.059798401 0.050936799
-0.02611593 -0.059798401 0.050936799
-0.02611593 -0.059798401 0.050936799
-0.02611593 -0.059798401 0.050936799
-0.02611593 -0.059798401 0.050936799
-0.02611593 -0.059798401 0.050936799
-0.02611593 -0.059798401 0.050936799
-0.02611593 -0.059798401 0.050936799
-0.06474223 -0.040022563 -0.039012779
-0.02611593 -0.059798401 0.050936799
-0.02611593 -0.059798401 0.050936799
-0.02611593 -0.059798401 0.050936799
-0.02611593 -0.059798401 0.050936799
-0.02611593 -0.059798401 0.050936799
-0.02611593 -0.059798401 0.050936799
-0.02611593 -0.059798401 0.050936799
-0.02611593 -0.059798401 0.050936799
-0.02611593 -0.059798401 0.050936799
-0.02611593 -0.059798401 0.050936799
-0.02611593 -0.059798401 0.050936799
-0.02611593 -0.059798401 0.050936799
-0.02611593 -0.059798401 0.050936799
-0.02611593 -0.059798401 0.050936799
-0.073650889 -0.041080542 -0.033863377
-0.073717922 -0.039008528 -0.037825987
-0.02611593 -0.059798401 0.050936799
-0.02611593 -0.059798401 0.050936799
-0.02611593 -0.059798401 0.050936799
-0.02611593 -0.059798401 0.050936799
-0.02611593 -0.059798401 0.050936799
-0.02611593 -0.059798401 0.050936799
-0.02611593 -0.059798401 0.050936799
-0.077679746 -0.039030351 -0.035751499
-0.02611593 -0.059798401 0.050936799
-0.02611593 -0.059798401 0.050936799
-0.02611593 -0.059798401 0.050936799
-0.02611593 -0.059798401 0.050936799
-0.02611593 -0.059798401 0.050936799
-0.02611593 -0.059798401 0.050936799
-0.083611622 -0.041080832 -0.031676143
-0.083697371 -0.038990729 -0.03663842
-0.02611593 -0.059798401 0.050936799
-0.085540287 -0.042145841 -0.027657937
-0.02611593 -0.059798401 0.050936799
-0.02611593 -0.059798401 0.050936799
-0.02611593 -0.059798401 0.050936799
-0.02611593 -0.059798401 0.050936799
-0.0865549 -0.041124333 -0.028620787
-0.088659011 -0.03900896 -0.034545142
-0.02611593 -0.059798401 0.050936799
-0.092539005 -0.042120717 -0.027526405
-0.02611593 -0.059798401 0.050936799
-0.02611593 -0.059798401 0.050936799
-0.083528869 -0.039153531 -0.027641464
-0.02611593 -0.059798401 0.050936799
-0.091516539 -0.041142564 -0.026527517
-0.094653986 -0.037987597 -0.034414381
-0.02611593 -0.059798401 0.050936799
-0.09955252 -0.041077677 -0.028376512
-0.02611593 -0.059798401 0.050936799
-0.02611593 -0.059798401 0.050936799
-0.089546494 -0.039113909 -0.028528381
-0.02611593 -0.059798401 0.050936799
-0.10160048 -0.039016575 -0.031301878
-0.098597094 -0.03802751 -0.031340234
-0.02611593 -0.059798401 0.050936799
-0.10654732 -0.040052723 -0.02822696
-0.02611593 -0.059798401 0.050936799
-0.02611593 -0.059798401 0.050936799
-0.093508318 -0.039135728 -0.026453901
-0.02611593 -0.059798401 0.050936799
-0.10554357 -0.039056484 -0.028227732
-0.10561061 -0.036984466 -0.032190345
-0.02611593 -0.059798401 0.050936799
-0.11657508 -0.037980996 -0.030002337
-0.02611593 -0.059798401 0.050936799
-0.02611593 -0.059798401 0.050936799
-0.10459206 -0.037006147 -0.031209469
-0.02611593 -0.059798401 0.050936799
-0.11048649 -0.039092805 -0.025134802
-0.11360522 -0.035955928 -0.032022003
-0.02611593 -0.059798401 0.050936799
-0.12353241 -0.036992222 -0.027853463
-0.02611593 -0.059798401 0.050936799
-0.02611593 -0.059798401 0.050936799
-0.11260539 -0.035959519 -0.032040793
-0.02611593 -0.059798401 0.050936799
-0.12151406 -0.037017487 -0.026891388
-0.12463672 -0.034880441 -0.033796608
-0.02611593 -0.059798401 0.050936799
-0.13354538 -0.035938416 -0.028647207
-0.02611593 -0.059798401 0.050936799
-0.02611593 -0.059798401 0.050936799
-0.11247826 -0.037085969 -0.025061183
-0.02611593 -0.059798401 0.050936799
-0.13356018 -0.034920495 -0.029628843
-0.13159408 -0.033891667 -0.031647738
-0.02611593 -0.059798401 0.050936799
-0.14048401 -0.034967732 -0.025498673
-0.02611593 -0.059798401 0.050936799
-0.02611593 -0.059798401 0.050936799
-0.12959836 -0.034898676 -0.031703338
-0.02611593 -0.059798401 0.050936799
-0.14353569 -0.033902869 -0.028423265
-0.14158832 -0.032855947 -0.031441815
-0.02611593 -0.059798401 0.050936799
-0.15550692 -0.031878229 -0.027162075
-0.02611593 -0.059798401 0.050936799
-0.02611593 -0.059798401 0.050936799
-0.13250418 -0.034978352 -0.026648656
-0.02611593 -0.059798401 0.050936799
-0.14945579 -0.032953858 -0.024293859
-0.150564 -0.031841904 -0.030255012
-0.02611593 -0.059798401 0.050936799
-0.16344538 -0.030903954 -0.023994751
-0.02611593 -0.059798401 0.050936799
-0.02611593 -0.059798401 0.050936799
-0.13944675 -0.035007499 -0.023518138
-0.02611593 -0.059798401 0.050936799
-0.17051505 -0.029806644 -0.027843848
-0.16052081 -0.030842364 -0.028049771
-0.02611593 -0.059798401 0.050936799
-0.17841604 -0.02886855 -0.022677194
-0.02611593 -0.059798401 0.050936799
-0.02611593 -0.059798401 0.050936799
-0.15347378 -0.032921415 -0.025218356
-0.02611593 -0.059798401 0.050936799
-0.18650033 -0.026749732 -0.027489141
-0.17652875 -0.028767195 -0.028712738
-0.02611593 -0.059798401 0.050936799
-0.20646618 -0.023696553 -0.026059609
-0.02611593 -0.059798401 0.050936799
-0.02611593 -0.059798401 0.050936799
-0.16443038 -0.031918284 -0.022994313
-0.02611593 -0.059798401 0.050936799
-0.20750345 -0.023656785 -0.028040137
-0.19855039 -0.025652569 -0.030244622
-0.02611593 -0.059798401 0.050936799
-0.23547868 -0.018557146 -0.027423911
-0.02611593 -0.059798401 0.050936799
-0.02611593 -0.059798401 0.050936799
-0.17740537 -0.030889886 -0.02173236
-0.02611593 -0.059798401 0.050936799
-0.23452024 -0.019524392 -0.029460054
-0.21751639 -0.022602979 -0.028833881
-0.02611593 -0.059798401 0.050936799
-0.26846778 -0.012421641 -0.02769538
-0.02611593 -0.059798401 0.050936799
-0.02611593 -0.059798401 0.050936799
-0.20647404 -0.025696214 -0.026095644
-0.02611593 -0.059798401 0.050936799
-0.26950899 -0.013381709 -0.029693931
-0.24651411 -0.018481489 -0.02921655
-0.02611593 -0.059798401 0.050936799
-0.97553545 0.12366448 -0.21005733
-0.02611593 -0.059798401 0.050936799
-0.02611593 -0.059798401 0.050936799
-0.2364942 -0.022552878 -0.027477194
-0.99216878 0.12538145 -0.19070829
-0.97870439 0.11882081 -0.21808833
-0.25434411 -0.018615579 -0.020069268
-0.02611593 -0.059798401 0.050936799
-0.99575216 0.12599769 -0.16862257
-0.98429137 0.11844438 -0.19598305
-0.02611593 -0.059798401 0.050936799
-0.26445466 -0.018471155 -0.025879335
-1.011367 0.12769298 -0.14829266
-1.0019432 0.12018304 -0.17761488
-0.97742164 0.10951123 -0.20127505
-0.02611593 -0.059798401 0.050936799
-1.0109402 0.1262771 -0.12531848
-1.004516 0.11877794 -0.15458432
-0.99305904 0.11022478 -0.18196285
-0.97761071 0.09965764 -0.20945251
-1.0175232 0.1269041 -0.10317638
-1.0091032 0.11839792 -0.13249782
-1.0056782 0.1109095 -0.16170731
-0.99125242 0.099364191 -0.19019592
-1.0341339 0.12960282 -0.082809664
-1.0246991 0.12007511 -0.11116827
-1.0052367 0.1084757 -0.13775147
-1.0048754 0.09905266 -0.16993961
-1.0477076 0.13225459 -0.060499996
-1.0372996 0.12074172 -0.089913093
-1.0258693 0.11020704 -0.11832729
-1.0024381 0.095611855 -0.14603938
-1.0642993 0.13493522 -0.039133616
-1.051896 0.12241536 -0.068602301
-1.0284421 0.10880192 -0.095296726
-1.0240744 0.096346967 -0.12661442
-1.0898671 0.13862988 -0.016580448
-1.0724871 0.12511034 -0.047160767
-1.0540737 0.1105512 -0.075778574
-1.035679 0.096010156 -0.10539605
-1.0994269 0.1402494 0.0066356957
-1.0910453 0.12676214 -0.023775496
-1.0676553 0.11120333 -0.053504959
-1.0442507 0.094626568 -0.082252748
-1.1039727 0.14083302 0.030739542
-1.1016086 0.12738541 -0.00055858493
-1.0962263 0.11390893 -0.03091342
-1.0578363 0.094278857 -0.059997134
-1.111514 0.14242727 0.05491776
-1.1181444 0.13001178 0.023806781
-1.0977806 0.11248213 -0.0069019869
-1.075417 0.094945334 -0.037648343
-1.1310452 0.14606424 0.07935752
-1.1236752 0.12958108 0.04891105
-1.1083252 0.11308731 0.017314587
-1.0929793 0.095593713 -0.014299884
-1.1485621 0.1486761 0.10474133
-1.1352158 0.13118967 0.073164433
-1.1308639 0.11473538 0.041774675
-1.0995326 0.094184875 0.0098054931
-1.1490899 0.14922728 0.12976967
-1.150737 0.13279451 0.098492652
-1.1363946 0.11430468 0.066878945
-1.1150802 0.093808159 0.034098011
-1.1815361 0.1548382 0.15848838
-1.1572636 0.13336726 0.12363373
-1.1419255 0.11387399 0.091983214
-1.1405996 0.095448889 0.059614133
-1.1890174 0.157378 0.18568361
-1.177724 0.13593562 0.15207289
-1.1684033 0.11648197 0.11953546
-1.1391395 0.092993423 0.084550828
-1.1945069 0.15791097 0.21280523
-1.1892083 0.13748994 0.17932528
-1.1749152 0.11603678 0.1456582
-1.1766154 0.095640875 0.11230978
-0.02611593 -0.059798401 0.050936799
-1.1996742 0.13902257 0.20755851
-1.1973563 0.11859423 0.1751346
-0.02611593 -0.059798401 0.050936799
-1.2313412 0.16596046 0.27366108
-1.2151165 0.14155492 0.23690338
-1.1918784 0.11610631 0.2009958
-1.1865876 0.093685627 0.16747981
-1.2696474 0.17346595 0.30952621
-0.02611593 -0.059798401 0.050936799
-1.2182772 0.11964178 0.23256472
-0.02611593 -0.059798401 0.050936799
-0.02611593 -0.059798401 0.050936799
-1.2748302 0.15057823 0.30420744
-1.2346859 0.12114169 0.2639097
-1.209516 0.092740685 0.22491147
-0.02611593 -0.059798401 0.050936799
-1.2941744 0.15403433 0.33864379
-0.02611593 -0.059798401 0.050936799
-0.02611593 -0.059798401 0.050936799
-1.3157152 0.18482712 0.4106285
-1.3214569 0.15846467 0.37624747
-1.2923555 0.1271041 0.33412108
-0.02611593 -0.059798401 0.050936799
-3.1249347 0.53157109 0.98897022
-1.32783 0.15989251 0.40940386
-1.2808414 0.12455846 0.36186886
-0.02611593 -0.059798401 0.050936799
-3.0887356 0.5272702 1.0532365
-3.127332 0.46371651 0.98078489
-1.3558482 0.13492489 0.4134782
-1.2820113 0.095621258 0.35836607
-3.1508601 0.54276049 1.1507128
-3.0851614 0.45741248 1.0439028
-3.1307001 0.39382958 0.97458166
-0.02611593 -0.059798401 0.050936799
-3.2228286 0.5591417 1.2563924
-3.1463013 0.46889985 1.1412882
-3.0845339 0.38651139 1.0376062
-3.1301341 0.31696573 0.96617788
-3.275846 0.57349133 1.3596796
-3.2232244 0.48224524 1.2500066
-3.1446524 0.39395967 1.1369003
-3.0759995 0.30663741 1.0279984
-3.3565538 0.593669 1.478596
-3.2801969 0.49355543 1.3563139
-3.2146113 0.40329877 1.2444155
-3.1499882 0.31300947 1.1345351
-3.4301958 0.61174959 1.6013434
-3.3598871 0.50869417 1.4771208
-3.2824812 0.41154042 1.3568733
-3.2149863 0.31734955 1.2408665
-3.5146518 0.63370615 1.7333666
-3.4474182 0.52571672 1.6061113
-3.3582063 0.42268363 1.4765333
-3.2798498 0.32256287 1.3542137
-3.5534508 0.6467886 1.8483688
-3.5100446 0.53872246 1.7305613
-3.4496777 0.43564874 1.6095254
-3.360534 0.3296704 1.4768944
-3.4951854 0.64133656 1.9162021
-4.1438289 0.65062636 2.1525946
-5.1310468 0.67892957 2.517714
-3.4440303 0.3366079 1.6096282
-3.4725482 0.6426869 2.0028319
-4.0802684 0.64386714 2.2363107
-5.0065036 0.6609171 2.6020849
-4.8252907 0.49322209 2.3775826
-3.4231794 0.63917643 2.0758691
-3.4717953 0.54155588 2.0089908
-4.7702231 0.62764144 2.6210654
-4.6929541 0.47537988 2.4508069
-3.382745 0.63764358 2.1521101
-4.0164375 0.64094329 2.4401319
-3.4659724 0.43933466 2.0190361
-4.5814571 0.45946801 2.532459
-3.2820508 0.62254542 2.1909649
-3.9726176 0.63702023 2.5372734
-4.6748672 0.61606514 2.8541498
-3.4423754 0.32823119 2.0185845
-3.292923 0.63258219 2.3023877
-3.1399691 0.49438918 2.1119597
-4.546639 0.59934568 2.9214692
-3.5402019 0.33758879 2.1866422
-2.6075952 0.49386662 1.9139158
-4.2431221 0.69710517 2.9805751
-3.1380026 0.39505512 2.1291318
-3.5360866 0.33553755 2.2995663
-3.2030931 0.62952042 2.4527013
-2.606596 0.40755203 1.9303412
-4.3348241 0.57375938 3.0740926
-4.4283457 0.4360719 3.0203347
-3.1419215 0.62414807 2.51548
-2.8157518 0.44984424 2.1821074
-2.6212864 0.32300514 1.9630979
-4.3110318 0.42131919 3.0918956
-3.0945444 0.62264436 2.5885909
-4.001462 0.67364496 3.230711
-2.7653527 0.34685963 2.1692967
-2.5974915 0.22877218 1.9699503
-3.0382705 0.61919916 2.656498
-3.8864625 0.66020679 3.2853332
-2.7279818 0.34339216 2.242559
-2.7454534 0.2455156 2.1830955
-1.9030426 0.36907837 1.7474109
-2.3555901 0.37962711 2.0931919
-2.675842 0.33908811 2.3035257
-3.9800801 0.38415337 3.3060994
-1.8476043 0.36342961 1.7712787
-1.8792479 0.29391456 1.7506068
-1.9216907 0.22725755 1.7401922
-2.3862679 0.20576435 2.0906203
-1.8186693 0.36342451 1.8207538
-1.8326168 0.28911701 1.7846584
-1.859295 0.22061999 1.7619112
