# .PCD v0.7 - Point Cloud Data file format
VERSION 0.7
FIELDS x y z
SIZE 4 4 4
TYPE F F F
COUNT 1 1 1
WIDTH 1408
HEIGHT 1
VIEWPOINT 0 0 0 1 0 0 0
POINTS 1408
DATA ascii
-0.02611593 -0.059798401 0.050936799
-0.18352354 -0.027742241 -0.028563187
-0.22659239 -0.03755004 -0.029934708
-0.22464801 -0.032485712 -0.033880845
-0.21059743 -0.028572816 -0.032072511
-0.02611593 -0.059798401 0.050936799
-0.02611593 -0.059798401 0.050936799
-0.02611593 -0.059798401 0.050936799
-0.02611593 -0.059798401 0.050936799
-0.20552644 -0.024645703 -0.029095404
-0.25757495 -0.034439296 -0.029298149
-0.24960901 -0.028414758 -0.032339338
-0.23258162 -0.025494367 -0.031605061
-0.02611593 -0.059798401 0.050936799
-0.02611593 -0.059798401 0.050936799
-0.02611593 -0.059798401 0.050936799
-0.02611593 -0.059798401 0.050936799
-0.2254923 -0.021592528 -0.027665868
-0.96716565 0.044953126 -0.22864415
-0.26347145 -0.027491305 -0.025060624
-0.26156059 -0.021390971 -0.030988064
-0.02611593 -0.059798401 0.050936799
-0.98479879 0.046673689 -0.20927632
-0.02611593 -0.059798401 0.050936799
-0.02611593 -0.059798401 0.050936799
-0.25548586 -0.01646762 -0.028011728
-0.98636383 0.04726465 -0.1862285
-0.97568357 0.071619056 -0.20799533
-0.96094084 0.092887245 -0.22589269
-0.02611593 -0.059798401 0.050936799
-0.99896044 0.048931107 -0.16495532
-0.99433523 0.073361307 -0.18960837
-0.98162949 0.094672851 -0.20946744
-0.96387261 0.11491236 -0.22643957
-1.0215887 0.051669441 -0.14547551
-1.001918 0.073991872 -0.16744745
-0.99123067 0.095328696 -0.18826863
-0.98356146 0.11669438 -0.21003313
-1.032167 0.053310622 -0.12324023
-1.0165328 0.075683594 -0.14713635
-1.0038459 0.097013243 -0.16799511
-0.98814869 0.11631437 -0.18794662
-1.0337133 0.053883493 -0.099192783
-1.031129 0.077357203 -0.12582557
-1.0064335 0.096626051 -0.1459462
-1.0037822 0.11802775 -0.16861638
-1.0553044 0.056582067 -0.077732444
-1.0296799 0.076919481 -0.10185249
-1.0200299 0.098296076 -0.1246542
-1.0023556 0.11660828 -0.145661
-1.0658599 0.059204988 -0.054479495
-1.0442722 0.079592936 -0.080523692
-1.0266167 0.097923242 -0.10253014
-1.0119793 0.11628239 -0.12547988
-1.0814146 0.061845843 -0.031132579
-1.0588496 0.081248477 -0.058213264
-1.0472267 0.10063632 -0.082088262
-1.0325892 0.11899547 -0.105038
-1.0999688 0.064497486 -0.0077292919
-1.0794222 0.083925366 -0.035772055
-1.0628188 0.10331336 -0.060740672
-1.0421904 0.11965132 -0.083839186
-1.1074914 0.066073626 0.017448593
-1.099972 0.087584011 -0.01231318
-1.0783961 0.10497247 -0.038411446
-1.0577865 0.12132853 -0.062509626
-1.121009 0.06867113 0.042757243
-1.115508 0.09020678 0.012033399
-1.0999683 0.10765296 -0.015951455
-1.0693685 0.12197345 -0.040273562
-1.1395255 0.071286589 0.068159848
-1.1350431 0.09284392 0.036455125
-1.105514 0.1082402 0.0081711709
-1.0939549 0.12568265 -0.018738851
-1.1610339 0.075912468 0.093654856
-1.1415473 0.094398387 0.062613882
-1.1250491 0.11087733 0.032592908
-1.0965091 0.12425944 0.00529138
-1.1665193 0.077445261 0.12079448
-1.1540875 0.096010558 0.086886071
-1.1355712 0.11246424 0.057827167
-1.1150444 0.12689297 0.029694311
-1.1829765 0.080999084 0.14917651
-1.1655684 0.098564714 0.11415645
-1.1391172 0.11304428 0.08191222
-1.1325799 0.12952295 0.054078467
-1.1884619 0.082531877 0.17631614
-1.1800482 0.10112964 0.14148322
-1.1546156 0.11563088 0.10825811
-1.1381296 0.12911034 0.078183077
-1.1989239 0.085064359 0.2045674
-1.1985234 0.10470874 0.16890317
-1.1820894 0.11924228 0.13584717
-1.1506512 0.13070443 0.10345493
-1.2023871 0.087571703 0.23268713
-1.2039902 0.10622343 0.19704245
-1.1915742 0.12078944 0.16306195
-1.1591588 0.13126622 0.12963325
-0.02611593 -0.059798401 0.050936799
-1.2004814 0.10672411 0.22399496
-1.2060354 0.12333625 0.19138838
-0.02611593 -0.059798401 0.050936799
-0.02611593 -0.059798401 0.050936799
-1.2467861 0.1142583 0.26001039
-1.2124834 0.12483646 0.22054613
-1.1891226 0.13539983 0.18428753
-0.02611593 -0.059798401 0.050936799
-0.02611593 -0.059798401 0.050936799
-1.2199497 0.12635835 0.248723
-1.2125407 0.13894261 0.21480042
-1.2887982 0.10648169 0.3676928
-1.2845267 0.12222095 0.32588336
-0.02611593 -0.059798401 0.050936799
-0.02611593 -0.059798401 0.050936799
-0.02611593 -0.059798401 0.050936799
-1.2829611 0.12267452 0.35587242
-1.2716652 0.13535297 0.31587672
-1.2613207 0.1459811 0.27886274
-3.1356189 0.36165398 0.98509532
-0.02611593 -0.059798401 0.050936799
-1.2601657 0.13382527 0.34264281
-1.282683 0.14946243 0.31233701
-3.0864444 0.36134195 1.04719
-1.3623295 0.13746111 0.44065464
-1.3471357 0.14821599 0.39554942
-0.02611593 -0.059798401 0.050936799
-3.1495347 0.37579975 1.1466666
-3.0858276 0.39783871 1.0198294
-1.333595 0.14764476 0.42429531
-1.2954892 0.15137255 0.37563279
-3.2244239 0.39311928 1.2564192
-3.1310453 0.40934101 1.1129156
-3.0930266 0.42816624 1.0035073
-1.3386635 0.15876935 0.41858947
-3.2873194 0.40939587 1.3659282
-3.1980414 0.42372277 1.2174655
-3.1193988 0.43472782 1.0891488
-3.1101687 0.45345819 0.99128157
-3.3610325 0.42854866 1.4846951
-3.2679358 0.44002447 1.3271061
-3.1824555 0.44814962 1.1906065
-3.1097231 0.4530687 1.0682923
-3.45051 0.44954142 1.6157945
-3.338717 0.45622125 1.4427637
-3.2483997 0.46147373 1.2981187
-3.1738064 0.46451259 1.1687332
-3.503175 0.46756476 1.7371476
-3.4252553 0.47625768 1.5707897
-3.3251612 0.47767398 1.4148885
-3.239773 0.47685489 1.2752275
-4.4428835 0.62182051 2.3177288
-3.4948273 0.49325171 1.6974425
-3.4038064 0.49477255 1.5377119
-3.3076084 0.48907769 1.3887572
-4.4077911 0.62971056 2.4272516
-4.2683191 0.62651825 2.1855006
-3.4813209 0.51174104 1.6675141
-3.3823032 0.5031988 1.509452
-3.463825 0.49137282 2.0169365
-4.1611123 0.61792701 2.2503598
-4.1618295 0.62957734 2.1035342
-3.4766984 0.52111959 1.6455897
-4.1329679 0.61286998 2.5248346
-3.4990571 0.51681972 2.0000508
-4.0913038 0.62382907 2.1851375
-4.1236339 0.63221496 2.0598521
-3.9981809 0.60357642 2.567157
-4.0111327 0.61248749 2.4085071
-4.0307307 0.62008005 2.2689641
-4.0571151 0.62448126 2.1414945
-3.1290133 0.4692997 2.1143017
-3.9446092 0.61077094 2.4892581
-3.4985185 0.53540903 2.0784032
-4.0202723 0.62156504 2.2397852
-3.8127618 0.60055006 2.694674
-3.3665707 0.52103555 2.2367268
-3.9362049 0.61733454 2.4562082
-3.4652634 0.52897555 2.0396512
-2.6064587 0.39939064 1.939194
-3.7759778 0.60358906 2.6290178
-3.5980589 0.56666052 2.363929
-3.9682248 0.62048507 2.454864
-2.8165455 0.44964889 2.1931224
-2.6148458 0.40581626 1.91746
-3.7962167 0.60891324 2.6154888
-3.677489 0.57443976 2.3935673
-4.0385408 0.69096428 3.2767339
-3.182739 0.51866293 2.4393106
-2.6299851 0.40801445 1.9097805
-4.4391847 0.71199572 3.029532
-3.3990901 0.58642614 2.8887396
-4.077795 0.69637465 3.262562
-3.2393637 0.52554065 2.4585016
-2.6302452 0.39923304 1.8976225
-2.3485284 0.39559931 2.0933485
-3.9637685 0.68993896 3.3173292
-3.6164408 0.60263652 2.8690953
-3.2328398 0.50991625 2.4360893
-1.8751365 0.31286076 1.7528733
-2.3706555 0.39580485 2.0867643
-3.976124 0.68029124 3.3003805
-2.7794802 0.43439204 2.1991546
-1.8295043 0.3130841 1.7860342
-1.8902954 0.31005985 1.7451037
-3.8787947 0.67362702 3.3714616
-3.9873359 0.6594609 3.2932112
-1.9044702 0.3405551 1.9429879
-1.8377285 0.30831259 1.7750981
-1.8973966 0.30315849 1.7411107
-3.8594778 0.64410305 3.3405557
-2.0645592 0.38761634 2.1969225
-1.869596 0.32344195 1.8860061
-1.8477995 0.29938623 1.7731246
-1.9034878 0.2892186 1.7389717
-2.247751 0.44193026 2.4974368
-2.0414994 0.36936554 2.1501448
-1.8364671 0.30408305 1.8430212
-1.8489556 0.283483 1.7678568
-2.7435374 0.57359511 3.1803324
-2.2355247 0.42255631 2.4598446
-2.0358894 0.35165459 2.1327136
-1.837635 0.28518036 1.8376993
-2.6499629 0.57068282 3.2105379
-3.2852955 0.67019683 3.7654212
-2.2250659 0.39995486 2.4352317
-2.0203691 0.32596332 2.1119511
-2.5554638 0.56783926 3.236726
-3.1852503 0.66781062 3.8205237
-3.2671034 0.63276827 3.7293916
-2.2359941 0.37483582 2.4439847
-2.4639225 0.56597018 3.2649879
-3.0930085 0.66727191 3.8858092
-3.1728551 0.62920475 3.7955847
-3.2603712 0.58884108 3.7234688
-2.3665552 0.5632425 3.2841222
-3.0106034 0.66962385 3.9593337
-3.0610943 0.62202954 3.8363762
-3.1710589 0.58222365 3.7937007
-2.2760472 0.56241304 3.3104215
-2.9174557 0.66917193 4.0196018
-2.9640415 0.61663663 3.8924809
-3.0787807 0.57663155 3.8618948
-2.1875989 0.56064522 3.3337417
-2.8204062 0.66779637 4.0747786
-2.8777277 0.61504722 3.9618597
-2.9884832 0.57102847 3.9311264
-2.102072 0.55981559 3.3611345
-2.726352 0.66743135 4.1300297
-2.7885306 0.61255574 4.0251656
-2.8923407 0.56454885 3.9922299
-2.0118153 0.55722153 3.374402
-2.6361582 0.66895372 4.1923904
-2.6885495 0.60822415 4.0772333
-2.8098469 0.56079316 4.0716448
-1.922461 0.5555405 3.392705
-2.5420628 0.66955245 4.2496586
-2.6012509 0.60764909 4.1456118
-2.70872 0.55531341 4.1316724
-1.8332003 0.55394989 3.4060094
-2.0581214 0.55388206 3.6252937
-2.5003033 0.60434985 4.1956792
-2.6145134 0.55078632 4.1958485
-1.7497624 0.5542177 3.4284596
-1.9608552 0.5492453 3.6393936
-2.3046331 0.57474291 4.075439
-2.5193102 0.54525578 4.2599874
-1.6606594 0.55077219 3.4337308
-1.8761365 0.54923815 3.6768198
-2.328469 0.60599303 4.344542
-2.4231 0.54172128 4.3241439
-1.5754167 0.54921407 3.4461112
-1.7895758 0.54736894 3.7061753
-2.2333024 0.6055159 4.4057727
-2.321142 0.53640079 4.3751564
-1.4941319 0.54863393 3.4605837
-1.6991881 0.54464829 3.7264409
-2.1391175 0.60502422 4.4680209
-2.2258749 0.53281558 4.4423304
-1.0282054 0.37960631 2.5264859
-1.6059549 0.54106176 3.7386343
-2.0496986 0.60633314 4.5423956
-2.1257589 0.52935719 4.5014133
-0.9452002 0.36921123 2.4747264
-1.020383 0.3396025 2.5246155
-1.8443351 0.56991804 4.353828
-2.0226808 0.52592421 4.5584407
-0.86527318 0.35789931 2.4190066
-0.92967159 0.3264505 2.4576564
-0.9959572 0.2949003 2.502342
-1.0526506 0.25567737 2.5267022
-0.78930408 0.3475655 2.3653791
-0.84688395 0.31325483 2.3948467
-0.90817058 0.28168672 2.4394379
-0.96749604 0.24513033 2.4829021
-0.71731555 0.33722794 2.3128262
-0.77472293 0.3037543 2.3513088
-0.82630414 0.26942211 2.3806634
-0.87684488 0.23103279 2.4129262
-0.6483677 0.32593745 2.2583127
-0.69796783 0.29161617 2.2866304
-0.74559104 0.25630602 2.3138924
-0.79782403 0.21963404 2.3622231
-0.5861783 0.31845436 2.2159989
-0.63278294 0.28312251 2.2442417
-0.67448598 0.24686332 2.2673745
-0.71710712 0.20751777 2.2954705
-0.52599245 0.30997857 2.1737041
-0.56771421 0.27373752 2.1958373
-0.60832387 0.23738429 2.2239494
-0.64409608 0.19815832 2.2439167
-0.46870452 0.30342284 2.1365004
-0.5065099 0.2652401 2.1545238
-0.54223275 0.22897746 2.176544
-0.57597178 0.18870831 2.1984546
-0.41447622 0.29593229 2.0963359
-0.45010549 0.25957921 2.1233549
-0.48287034 0.22234215 2.1433012
-0.51368868 0.18113478 2.161139
-0.36312711 0.29034361 2.0622621
-0.39489609 0.25210318 2.0821717
-0.42466539 0.21385548 2.1020441
-0.4506157 0.17275681 2.1127901
-0.3146238 0.28562087 2.0362597
-0.34162617 0.24557985 2.0440435
-0.36841479 0.2073395 2.0628598
-0.39430895 0.16618656 2.0766048
-0.27057177 0.28640851 2.0384498
-0.29304796 0.2407847 2.0220399
-0.31791577 0.20160972 2.0368018
-0.33984807 0.16047856 2.0484724
-0.23166341 0.29442042 2.084882
-0.2524178 0.24504337 2.0543671
-0.2708908 0.20040503 2.0379
-0.2864432 0.15482846 2.0173597
-0.19234225 0.30705163 2.1523974
-0.21216479 0.25472575 2.1188107
-0.22974335 0.20717478 2.0972719
-0.24345767 0.15873626 2.0686431
-0.14921689 0.31784967 2.2098045
-0.16894972 0.2644335 2.1811981
-0.18648002 0.21482866 2.1626227
-0.20118719 0.16337609 2.134958
-0.14555702 0.53192115 3.4280212
-0.19563155 0.51846063 3.8528595
-0.14110075 0.22336663 2.2339516
-0.15475979 0.16985659 2.2092311
-0.071720332 0.53180033 3.4186337
-0.10982366 0.51631504 3.8422105
-0.15507571 0.49807149 4.3649049
-0.20947906 0.47921056 5.1458468
0.0018276535 0.5299511 3.3942149
-0.024970263 0.51613665 3.8336155
-0.055060491 0.49667662 4.3650069
-0.08739689 0.47666451 5.1495161
0.071627617 0.52988076 3.3829029
0.058898106 0.5149439 3.8260212
0.045052271 0.49619111 4.3701253
0.033779066 0.47403157 5.1582031
0.14431077 0.52890837 3.3655186
0.14259404 0.51291406 3.8094118
0.14460637 0.49223083 4.3461823
0.15557252 0.46975717 5.1468415
0.21401319 0.52792865 3.3491902
0.22706512 0.51109779 3.7807879
0.24570808 0.49375951 4.3503184
0.28085315 0.47001907 5.1605053
0.28568172 0.52797771 3.330843
0.31099749 0.51185036 3.7762284
0.34559226 0.49249122 4.3434229
0.40371042 0.46768644 5.1521602
0.35650414 0.52888554 3.3205302
0.39260021 0.50991821 3.7546582
0.44534534 0.49134961 4.3295298
0.5266239 0.46529967 5.1468139
-0.02611593 -0.059798401 0.050936799
0.47414672 0.50804025 3.7300892
0.54409862 0.49021149 4.3156552
0.65179217 0.46566993 5.15448
0.15589902 0.14514829 1.1816194
-0.02611593 -0.059798401 0.050936799
-0.02611593 -0.059798401 0.050936799
-0.02611593 -0.059798401 0.050936799
0.56241393 0.5281558 3.2606413
0.6443904 0.5151937 3.7400348
-0.02611593 -0.059798401 0.050936799
-0.02611593 -0.059798401 0.050936799
0.26104739 0.1970042 1.4446781
0.71928185 0.50895327 3.6814997
-0.02611593 -0.059798401 0.050936799
-0.02611593 -0.059798401 0.050936799
0.28983614 0.19709909 1.4331368
0.28962287 0.15716018 1.4294171
0.28830138 0.1183332 1.4197363
0.29000196 0.080477193 1.4110167
0.76303977 0.52671558 3.1858337
0.88266051 0.51094311 3.6464651
-0.02611593 -0.059798401 0.050936799
1.2553351 0.45472199 5.0199361
0.82957423 0.52590936 3.1605649
0.95253414 0.50473869 3.5870245
-0.02611593 -0.059798401 0.050936799
1.3489863 0.44458628 4.8959575
0.89519167 0.52703416 3.1393497
1.0342274 0.50673348 3.5695248
1.2241645 0.48545644 4.1537814
1.4354626 0.43263888 4.7630773
0.95859557 0.5263654 3.1071393
1.1106477 0.50599992 3.5380702
1.3238732 0.48736849 4.1369438
1.5169996 0.42165506 4.6333075
1.0241529 0.52654457 3.082907
1.1860495 0.50528812 3.5056348
1.434105 0.49375546 4.1469989
1.5998851 0.41334146 4.5215678
1.0865946 0.52584326 3.0527151
1.2613951 0.50463057 3.4701998
-0.02611593 -0.059798401 0.050936799
-0.02611593 -0.059798401 0.050936799
-0.02611593 -0.059798401 0.050936799
-0.02611593 -0.059798401 0.050936799
0.4766582 0.10912779 1.2789955
0.49585423 0.073739953 1.2960018
0.50142133 0.18959373 1.303996
0.50919169 0.15064402 1.2991441
-0.02611593 -0.059798401 0.050936799
1.8286098 0.39041796 4.1897578
0.52296001 0.18794928 1.2795546
1.4896946 0.5074147 3.3769443
1.8290901 0.500229 4.0346828
1.8912371 0.38242948 4.0643988
1.3332235 0.52619284 2.9240603
1.5598686 0.50593805 3.3325887
1.913958 0.49798805 3.9740329
1.9654919 0.37680399 3.971875
1.3967102 0.52745134 2.8958848
1.6352408 0.50726211 3.2981899
1.9812328 0.49236965 3.8826408
2.0274456 0.37051123 3.863565
1.4550214 0.52689099 2.8587701
1.7095757 0.50862586 3.2618108
2.0475452 0.48671862 3.7932668
2.0884969 0.36513138 3.7602894
1.5133327 0.52633059 2.821656
1.7756381 0.50727206 3.2115321
2.107784 0.48116153 3.7000067
2.1548171 0.36148003 3.6709514
1.573745 0.52767229 2.7895381
1.8407009 0.5059219 3.1612725
2.1753101 0.47730762 3.6216462
2.2150035 0.35697699 3.5747104
1.6310003 0.5271697 2.7494433
1.9160808 0.50924563 3.1269097
2.2346091 0.47269958 3.5314221
2.2721908 0.35248473 3.4785259
1.6924164 0.52950764 2.717325
1.9904197 0.5116092 3.0905483
2.2878489 0.46716759 3.4382937
2.3335347 0.34983304 3.3902993
1.7496756 0.53000498 2.6772485
2.0688365 0.51488596 3.0581286
2.3483055 0.46441096 3.3560841
2.3908978 0.34717762 3.303148
1.801838 0.52961087 2.6322494
2.1482759 0.51914078 3.0267074
2.4047399 0.46068695 3.2729318
2.4513245 0.34645683 3.2189753
1.8591161 0.53009009 2.5931723
2.2204652 0.52165633 2.9823864
2.4602158 0.45793024 3.1918159
2.5026662 0.34284124 3.1309185
1.9133197 0.5306524 2.550153
2.2762825 0.51957375 2.9192824
2.5146961 0.45617682 3.1107366
2.5642095 0.34300813 3.052743
1.962404 0.52934158 2.5011938
2.3351815 0.51940775 2.8601563
2.5691762 0.45442355 3.0296574
2.6145968 0.34135959 2.9667406
2.0207043 0.53079897 2.4631157
2.3869431 0.51739383 2.7941284
2.6186349 0.45170635 2.9476545
2.6711216 0.34156257 2.8876591
2.0657146 0.52957481 2.410233
2.4509242 0.51913726 2.7389433
2.6772904 0.45177558 2.8755329
2.7245913 0.34183055 2.8056352
2.1117244 0.52834713 2.3573315
2.5129056 0.52088779 2.6837959
2.7216935 0.44913065 2.7906251
2.7730389 0.34113476 2.7226872
2.1802299 0.53458691 2.3291521
2.5687675 0.52076876 2.6227272
2.7711971 0.44837689 2.7106574
2.8296428 0.34226522 2.6476223
2.2221804 0.53242797 2.2733088
2.6225929 0.52069294 2.5596964
2.8238542 0.44846761 2.638649
2.8709981 0.34168497 2.559808
2.2794101 0.5349611 2.2312689
2.678478 0.52155566 2.4996455
2.871377 0.44770309 2.5597186
2.9723744 0.34993255 2.5240467
2.3295248 0.53662813 2.1833444
2.7323296 0.52346158 2.4376509
3.0480568 0.4704704 2.5898325
3.0238855 0.35117137 2.4440777
2.3755572 0.5363822 2.1314607
2.7546127 0.51800466 2.3471041
3.3048069 0.50595695 2.673696
3.0754383 0.35337386 2.3661261
2.4174786 0.53625906 2.0736537
2.8053863 0.51899379 2.2811491
3.3429759 0.50556839 2.5759411
3.1259389 0.35663402 2.2852123
2.4695926 0.53791887 2.025692
2.8582387 0.52090329 2.2191732
3.3944082 0.50587976 2.4919553
3.1764915 0.35884008 2.207279
2.5176327 0.5396654 1.9738065
2.9161496 0.52374035 2.1601205
3.4458296 0.50820887 2.407006
3.2270479 0.36204597 2.1293643
2.5545321 0.53857851 1.915076
2.9689641 0.52568597 2.0961449
3.3817856 0.49130729 2.2488456
3.2776048 0.36525187 2.0514491
2.6045945 0.54129958 1.8641707
3.0157008 0.52672571 2.0282657
3.5385919 0.51097566 2.2332604
4.359921 0.50179183 2.5638289
2.6546195 0.54405683 1.8112661
3.0553451 0.52788097 1.9555197
3.5910695 0.51324683 2.1512911
4.4421916 0.51017141 2.469408
2.7036593 0.54579979 1.7593617
3.1081448 0.53084445 1.8905627
3.6232846 0.51484329 2.0556846
4.3870234 0.50038111 2.3032072
2.7404914 0.54678494 1.6966689
3.1356528 0.53016979 1.8110085
3.6767659 0.51811069 1.9737144
4.4440622 0.50606799 2.1972067
2.7803979 0.54768693 1.6379181
3.1773195 0.53229958 1.7392427
3.7130775 0.52060223 1.883049
4.4456162 0.50540584 2.0671213
2.8142083 0.54770112 1.5742638
3.222023 0.53438246 1.6694196
3.751404 0.52206862 1.7933276
4.5117927 0.51293343 1.967985
2.8591552 0.54954886 1.5174363
3.2566123 0.53560996 1.5937686
3.7745795 0.52273363 1.6958727
4.4619913 0.50578099 1.8207381
2.8970101 0.55151206 1.4557421
3.2861838 0.53687346 1.5172118
3.7988148 0.52434069 1.6014159
4.4868779 0.50972784 1.7073051
2.9287832 0.55156964 1.3901261
3.3247948 0.53906846 1.4425033
3.7968519 0.52222276 1.4973791
4.4926071 0.5108881 1.5861777
2.975719 0.55542791 1.3322976
3.36341 0.54226303 1.3678128
3.8341863 0.52569234 1.4077125
4.4903231 0.51309496 1.464219
3.0064585 0.55652511 1.264719
3.3889258 0.54359525 1.2883322
3.8826241 0.53203148 1.3228914
4.52531 0.51891512 1.3556325
3.0392354 0.5575788 1.199102
3.4184785 0.54487681 1.2107759
3.8958054 0.5337323 1.2256424
4.5241194 0.52102792 1.2386533
3.0800748 0.56054926 1.1363699
3.4500537 0.54713297 1.1341996
3.9120419 0.53536808 1.1313361
4.5390453 0.52497441 1.1274077
3.1077964 0.56167525 1.0678481
3.4654925 0.54757351 1.0508902
3.9413633 0.53988427 1.0408381
4.5418997 0.52903646 1.0123887
3.1304734 0.56085569 0.99738479
3.487009 0.54891998 0.97148484
3.9425049 0.54066455 0.94179732
4.5407877 0.53207672 0.89942616
3.169261 0.5648874 0.93170929
3.5064926 0.55130965 0.89013571
3.9678082 0.54521316 0.85037482
4.5466828 0.53709155 0.78636813
3.1778433 0.56320876 0.8564927
3.536016 0.55462712 0.81061596
3.9740093 0.54692101 0.75425708
4.5144892 0.53731596 0.66993552
3.2155933 0.56728017 0.78883666
3.5675426 0.55893719 0.73107672
3.9832363 0.55059975 0.65911859
4.5034213 0.54135579 0.55917829
3.2462809 0.56943142 0.7182771
3.5890296 0.56231958 0.64970803
4.0045033 0.55519891 0.565772
4.5024061 0.54530555 0.45123214
3.2659292 0.57065845 0.64590693
3.5944705 0.562796 0.56658667
3.9846823 0.55501854 0.46910706
4.4813542 0.54836333 0.34164447
3.2835588 0.57191074 0.57257468
3.6038957 0.56427604 0.48240837
4.005971 0.56059945 0.37677813
-0.02611593 -0.059798401 0.050936799
3.3132129 0.57510155 0.50005257
3.6263678 0.56867266 0.40003926
4.0081997 0.56430322 0.28177118
3.5484164 0.43318284 0.10994951
3.3298054 0.57639366 0.42473975
3.6267908 0.56918508 0.31601211
-0.02611593 -0.059798401 0.050936799
2.9985185 0.36180836 0.027926179
3.3403802 0.57772535 0.34854001
3.6361866 0.57270098 0.22987062
3.5342062 0.49867418 0.086392254
2.9942012 0.36610296 -0.042939331
3.3609574 0.58002102 0.27217036
3.5735443 0.5634774 0.14484778
2.9653652 0.41226199 0.010453632
2.8869233 0.3566972 -0.10812303
3.3605077 0.57941055 0.19514164
3.5429721 0.55908394 0.062312715
2.9921103 0.41939053 -0.057941344
2.765748 0.34423369 -0.16709974
3.3820882 0.58270252 0.11877126
2.9611986 0.46061191 -0.0075998819
2.826848 0.39714092 -0.11927045
2.696595 0.3395822 -0.22690943
3.404654 0.58700871 0.041400451
2.9799187 0.46578759 -0.076880231
2.7666519 0.39149347 -0.18126658
2.4767573 0.31311458 -0.26428494
2.9430368 0.49997735 -0.023553165
2.7806981 0.43358928 -0.133752
2.7484567 0.39271218 -0.24492545
2.4037881 0.30729675 -0.31404087
2.9707367 0.50513881 -0.094002299
2.7604728 0.43183374 -0.19842701
2.542567 0.363231 -0.28461736
2.3059428 0.29844248 -0.35638344
2.7335544 0.46200645 -0.14635959
2.5595334 0.39937133 -0.24026626
2.5005145 0.36139163 -0.33988208
2.3348122 0.30845475 -0.418764
2.7553489 0.46709901 -0.21169765
2.516469 0.39453611 -0.2955662
2.2969241 0.3316139 -0.36361697
2.3646283 0.31951761 -0.48414427
2.5234659 0.42365929 -0.2481543
2.5462966 0.40358117 -0.35998285
2.3287926 0.34161544 -0.42605388
2.4721446 0.34362391 -0.56874985
2.5053711 0.42177001 -0.30586928
2.2977984 0.36184031 -0.37609085
2.3556435 0.35165304 -0.48939654
2.5635815 0.36586031 -0.65708947
2.4593742 0.41487345 -0.35715023
2.3226979 0.36983117 -0.43643293
2.4591565 0.3747738 -0.57394505
2.4678335 0.35790825 -0.69445336
2.298687 0.38603163 -0.38667345
2.3515255 0.37887985 -0.50083083
2.5356588 0.39399225 -0.65805823
2.4835591 0.36911178 -0.76456892
2.3205826 0.39303342 -0.4469772
2.4679732 0.40502584 -0.58956814
2.4727709 0.39006576 -0.70396739
2.4227118 0.3661418 -0.80849826
2.3534057 0.40106788 -0.51146829
2.4986734 0.4151938 -0.66098315
2.4566767 0.39318654 -0.76262939
-0.02611593 -0.059798401 0.050936799
2.5236206 0.43727168 -0.6150353
2.4975097 0.42033273 -0.72388977
2.4097414 0.39225641 -0.81178415
0.1804896 -0.023103893 -0.032295853
2.4746659 0.43134955 -0.66424257
2.4356465 0.41336703 -0.76787245
-0.02611593 -0.059798401 0.050936799
-0.02611593 -0.059798401 0.050936799
2.4993594 0.4395394 -0.73558098
-0.02611593 -0.059798401 0.050936799
0.17849782 -0.021097058 -0.032222237
0.16042921 -0.024977505 -0.034955058
2.4265428 0.42955938 -0.77641201
-0.02611593 -0.059798401 0.050936799
-0.02611593 -0.059798401 0.050936799
-0.02611593 -0.059798401 0.050936799
-0.02611593 -0.059798401 0.050936799
0.1834525 -0.018061243 -0.035261109
0.15943727 -0.02297426 -0.034900229
0.13644056 -0.027908953 -0.033558488
-0.02611593 -0.059798401 0.050936799
-0.02611593 -0.059798401 0.050936799
-0.02611593 -0.059798401 0.050936799
-0.02611593 -0.059798401 0.050936799
0.17152174 -0.020090189 -0.031073026
0.1624032 -0.021949016 -0.036937915
0.13942914 -0.02590197 -0.034578476
0.12041692 -0.029833101 -0.034293529
-0.02611593 -0.059798401 0.050936799
-0.02611593 -0.059798401 0.050936799
-0.02611593 -0.059798401 0.050936799
-0.02611593 -0.059798401 0.050936799
0.15049508 -0.022996226 -0.031732138
0.14139526 -0.024873137 -0.036597371
0.12042084 -0.02883327 -0.034275509
0.10146869 -0.031818837 -0.030973565
-0.02611593 -0.059798401 0.050936799
-0.02611593 -0.059798401 0.050936799
-0.02611593 -0.059798401 0.050936799
-0.02611593 -0.059798401 0.050936799
0.1284834 -0.026916588 -0.031390816
0.12040605 -0.027815351 -0.035257157
0.10840039 -0.029771945 -0.035067711
0.09341006 -0.032735687 -0.033840239
-0.02611593 -0.059798401 0.050936799
-0.02611593 -0.059798401 0.050936799
-0.02611593 -0.059798401 0.050936799
-0.02611593 -0.059798401 0.050936799
0.11147472 -0.029855067 -0.031125437
0.10838167 -0.029753856 -0.036067378
0.095394902 -0.031724945 -0.034859467
0.077461302 -0.034732193 -0.03057665
-0.02611593 -0.059798401 0.050936799
-0.02611593 -0.059798401 0.050936799
-0.02611593 -0.059798401 0.050936799
-0.02611593 -0.059798401 0.050936799
0.095503315 -0.032833312 -0.028879523
0.095357463 -0.031688768 -0.036858793
0.083389245 -0.033681542 -0.034670018
0.072406054 -0.034659982 -0.033481676
-0.02611593 -0.059798401 0.050936799
-0.02611593 -0.059798401 0.050936799
-0.02611593 -0.059798401 0.050936799
-0.02611593 -0.059798401 0.050936799
0.086444862 -0.033746578 -0.031727403
0.083374448 -0.032663625 -0.035651665
0.07731545 -0.033587653 -0.03855592
0.060456563 -0.036670841 -0.030293245
-0.02611593 -0.059798401 0.050936799
-0.02611593 -0.059798401 0.050936799
-0.02611593 -0.059798401 0.050936799
-0.02611593 -0.059798401 0.050936799
0.072495744 -0.035750259 -0.028501399
0.071387514 -0.034638308 -0.034462553
0.067332081 -0.034569681 -0.037386376
0.054420214 -0.036613133 -0.032179829
-0.02611593 -0.059798401 0.050936799
-0.02611593 -0.059798401 0.050936799
-0.02611593 -0.059798401 0.050936799
-0.02611593 -0.059798401 0.050936799
0.065455653 -0.03668879 -0.030387197
0.066332258 -0.034566093 -0.037367582
0.055382587 -0.036580548 -0.034197938
0.046436477 -0.037602339 -0.031047858
-0.02611593 -0.059798401 0.050936799
-0.02611593 -0.059798401 0.050936799
-0.02611593 -0.059798401 0.050936799
-0.02611593 -0.059798401 0.050936799
0.055468343 -0.038670648 -0.029235672
0.055382587 -0.036580548 -0.034197938
0.051312365 -0.035494003 -0.038103405
0.04336606 -0.03651939 -0.034972116
-0.02611593 -0.059798401 0.050936799
-0.02611593 -0.059798401 0.050936799
-0.02611593 -0.059798401 0.050936799
-0.02611593 -0.059798401 0.050936799
0.049450718 -0.038631022 -0.030122589
0.051308431 -0.036493834 -0.038121421
0.041381218 -0.037530124 -0.033952888
0.036363415 -0.037494093 -0.034858603
-0.02611593 -0.059798401 0.050936799
-0.02611593 -0.059798401 0.050936799
-0.02611593 -0.059798401 0.050936799
-0.02611593 -0.059798401 0.050936799
0.044410259 -0.039576732 -0.032045979
0.042324871 -0.037479445 -0.036970664
0.036344692 -0.037476003 -0.035858262
0.03036451 -0.037472561 -0.034745861
-0.02611593 -0.059798401 0.050936799
-0.02611593 -0.059798401 0.050936799
-0.02611593 -0.059798401 0.050936799
-0.02611593 -0.059798401 0.050936799
0.035464153 -0.040598527 -0.0288959
0.035340946 -0.038472246 -0.035857491
0.032289255 -0.037407383 -0.038782086
0.025346704 -0.037436526 -0.035651568
-0.02611593 -0.059798401 0.050936799
-0.02611593 -0.059798401 0.050936799
-0.02611593 -0.059798401 0.050936799
-0.02611593 -0.059798401 0.050936799
0.030427616 -0.040544406 -0.030801266
0.029356839 -0.039468631 -0.034763109
0.026290355 -0.037385847 -0.038669344
0.020347618 -0.037418582 -0.035557613
-0.02611593 -0.059798401 0.050936799
-0.02611593 -0.059798401 0.050936799
-0.02611593 -0.059798401 0.050936799
-0.02611593 -0.059798401 0.050936799
-0.02611593 -0.059798401 0.050936799
-0.02611593 -0.059798401 0.050936799
0.020324968 -0.038400322 -0.036575291
0.016310906 -0.037368048 -0.03748177
-0.02611593 -0.059798401 0.050936799
-0.02611593 -0.059798401 0.050936799
-0.02611593 -0.059798401 0.050936799
-0.02611593 -0.059798401 0.050936799
-0.02611593 -0.059798401 0.050936799
0.020283595 -0.039363977 -0.038592637
0.016288254 -0.038349789 -0.038499456
-0.02611593 -0.059798401 0.050936799
-0.02611593 -0.059798401 0.050936799
-0.02611593 -0.059798401 0.050936799
-0.02611593 -0.059798401 0.050936799
-0.02611593 -0.059798401 0.050936799
-0.02611593 -0.059798401 0.050936799
-0.02611593 -0.059798401 0.050936799
-0.02611593 -0.059798401 0.050936799
-0.02611593 -0.059798401 0.050936799
-0.02611593 -0.059798401 0.050936799
-0.02611593 -0.059798401 0.050936799
-0.02611593 -0.059798401 0.050936799
-0.02611593 -0.059798401 0.050936799
-0.02611593 -0.059798401 0.050936799
-0.02611593 -0.059798401 0.050936799
0.0072524566 -0.03828131 -0.040329661
-0.02611593 -0.059798401 0.050936799
-0.02611593 -0.059798401 0.050936799
-0.02611593 -0.059798401 0.050936799
-0.02611593 -0.059798401 0.050936799
-0.02611593 -0.059798401 0.050936799
-0.02611593 -0.059798401 0.050936799
-0.02611593 -0.059798401 0.050936799
0.0022385761 -0.037245449 -0.041217346
-0.02611593 -0.059798401 0.050936799
-0.02611593 -0.059798401 0.050936799
-0.02611593 -0.059798401 0.050936799
-0.02611593 -0.059798401 0.050936799
-0.02611593 -0.059798401 0.050936799
-0.02611593 -0.059798401 0.050936799
-0.02611593 -0.059798401 0.050936799
-0.0017981359 -0.037194911 -0.043141503
-0.02611593 -0.059798401 0.050936799
-0.02611593 -0.059798401 0.050936799
-0.02611593 -0.059798401 0.050936799
-0.02611593 -0.059798401 0.050936799
-0.02611593 -0.059798401 0.050936799
-0.02611593 -0.059798401 0.050936799
-0.02611593 -0.059798401 0.050936799
-0.0058161272 -0.037162468 -0.044066008
-0.02611593 -0.059798401 0.050936799
-0.02611593 -0.059798401 0.050936799
-0.02611593 -0.059798401 0.050936799
-0.02611593 -0.059798401 0.050936799
-0.02611593 -0.059798401 0.050936799
-0.02611593 -0.059798401 0.050936799
-0.02611593 -0.059798401 0.050936799
-0.02611593 -0.059798401 0.050936799
-0.02611593 -0.059798401 0.050936799
-0.02611593 -0.059798401 0.050936799
-0.02611593 -0.059798401 0.050936799
-0.02611593 -0.059798401 0.050936799
-0.02611593 -0.059798401 0.050936799
-0.02611593 -0.059798401 0.050936799
-0.02611593 -0.059798401 0.050936799
-0.02611593 -0.059798401 0.050936799
-0.02611593 -0.059798401 0.050936799
-0.02611593 -0.059798401 0.050936799
-0.02611593 -0.059798401 0.050936799
-0.02611593 -0.059798401 0.050936799
-0.02611593 -0.059798401 0.050936799
-0.02611593 -0.059798401 0.050936799
-0.02611593 -0.059798401 0.050936799
-0.02611593 -0.059798401 0.050936799
-0.02611593 -0.059798401 0.050936799
-0.02611593 -0.059798401 0.050936799
-0.02611593 -0.059798401 0.050936799
-0.02611593 -0.059798401 0.050936799
-0.02611593 -0.059798401 0.050936799
-0.02611593 -0.059798401 0.050936799
-0.02611593 -0.059798401 0.050936799
-0.02611593 -0.059798401 0.050936799
-0.02611593 -0.059798401 0.050936799
-0.02611593 -0.059798401 0.050936799
-0.02611593 -0.059798401 0.050936799
-0.02611593 -0.059798401 0.050936799
-0.02611593 -0.059798401 0.050936799
-0.02611593 -0.059798401 0.050936799
-0.02611593 -0.059798401 0.050936799
-0.02611593 -0.059798401 0.050936799
-0.02611593 -0.059798401 0.050936799
-0.02611593 -0.059798401 0.050936799
-0.02611593 -0.059798401 0.050936799
-0.02611593 -0.059798401 0.050936799
-0.02611593 -0.059798401 0.050936799
-0.02611593 -0.059798401 0.050936799
-0.02611593 -0.059798401 0.050936799
-0.02611593 -0.059798401 0.050936799
-0.02611593 -0.059798401 0.050936799
-0.02611593 -0.059798401 0.050936799
-0.02611593 -0.059798401 0.050936799
-0.02611593 -0.059798401 0.050936799
-0.02611593 -0.059798401 0.050936799
-0.02611593 -0.059798401 0.050936799
-0.02611593 -0.059798401 0.050936799
-0.02611593 -0.059798401 0.050936799
-0.02611593 -0.059798401 0.050936799
-0.02611593 -0.059798401 0.050936799
-0.02611593 -0.059798401 0.050936799
-0.02611593 -0.059798401 0.050936799
-0.02611593 -0.059798401 0.050936799
-0.02611593 -0.059798401 0.050936799
-0.02611593 -0.059798401 0.050936799
-0.02611593 -0.059798401 0.050936799
-0.02611593 -0.059798401 0.050936799
-0.02611593 -0.059798401 0.050936799
-0.02611593 -0.059798401 0.050936799
-0.02611593 -0.059798401 0.050936799
-0.02611593 -0.059798401 0.050936799
-0.02611593 -0.059798401 0.050936799
-0.02611593 -0.059798401 0.050936799
-0.02611593 -0.059798401 0.050936799
-0.02611593 -0.059798401 0.050936799
-0.02611593 -0.059798401 0.050936799
-0.02611593 -0.059798401 0.050936799
-0.02611593 -0.059798401 0.050936799
-0.02611593 -0.059798401 0.050936799
-0.02611593 -0.059798401 0.050936799
-0.02611593 -0.059798401 0.050936799
-0.02611593 -0.059798401 0.050936799
-0.02611593 -0.059798401 0.050936799
-0.02611593 -0.059798401 0.050936799
-0.02611593 -0.059798401 0.050936799
-0.02611593 -0.059798401 0.050936799
-0.02611593 -0.059798401 0.050936799
-0.02611593 -0.059798401 0.050936799
-0.02611593 -0.059798401 0.050936799
-0.02611593 -0.059798401 0.050936799
-0.02611593 -0.059798401 0.050936799
-0.02611593 -0.059798401 0.050936799
-0.02611593 -0.059798401 0.050936799
-0.02611593 -0.059798401 0.050936799
-0.02611593 -0.059798401 0.050936799
-0.02611593 -0.059798401 0.050936799
-0.02611593 -0.059798401 0.050936799
-0.058794644 -0.033972766 -0.043016057
-0.02611593 -0.059798401 0.050936799
-0.02611593 -0.059798401 0.050936799
-0.02611593 -0.059798401 0.050936799
-0.02611593 -0.059798401 0.050936799
-0.02611593 -0.059798401 0.050936799
-0.02611593 -0.059798401 0.050936799
-0.02611593 -0.059798401 0.050936799
-0.062756471 -0.033994589 -0.040941574
-0.02611593 -0.059798401 0.050936799
-0.02611593 -0.059798401 0.050936799
-0.02611593 -0.059798401 0.050936799
-0.02611593 -0.059798401 0.050936799
-0.02611593 -0.059798401 0.050936799
-0.02611593 -0.059798401 0.050936799
-0.064692996 -0.037059255 -0.036959402
-0.067751624 -0.032976814 -0.040829603
-0.02611593 -0.059798401 0.050936799
-0.02611593 -0.059798401 0.050936799
-0.02611593 -0.059798401 0.050936799
-0.02611593 -0.059798401 0.050936799
-0.02611593 -0.059798401 0.050936799
-0.02611593 -0.059798401 0.050936799
-0.02611593 -0.059798401 0.050936799
-0.071732178 -0.03298055 -0.039754774
-0.069612347 -0.0310966 -0.033758353
-0.02611593 -0.059798401 0.050936799
-0.02611593 -0.059798401 0.050936799
-0.02611593 -0.059798401 0.050936799
-0.02611593 -0.059798401 0.050936799
-0.02611593 -0.059798401 0.050936799
-0.075687058 -0.036019951 -0.036734689
-0.076689884 -0.031998951 -0.037643485
-0.074611425 -0.031078655 -0.033664402
-0.02611593 -0.059798401 0.050936799
-0.02611593 -0.059798401 0.050936799
-0.02611593 -0.059798401 0.050936799
-0.02611593 -0.059798401 0.050936799
-0.078638189 -0.038063109 -0.033715371
-0.081696823 -0.033980668 -0.037585568
-0.081670247 -0.031999096 -0.03654987
-0.077554718 -0.031122152 -0.030609038
-0.02611593 -0.059798401 0.050936799
-0.02611593 -0.059798401 0.050936799
-0.02611593 -0.059798401 0.050936799
-0.02611593 -0.059798401 0.050936799
-0.08260002 -0.038084932 -0.03164088
-0.085639916 -0.034020577 -0.034511421
-0.086646684 -0.030999409 -0.035438232
-0.084583029 -0.029061195 -0.0324408
-0.02611593 -0.059798401 0.050936799
-0.02611593 -0.059798401 0.050936799
-0.02611593 -0.059798401 0.050936799
-0.02611593 -0.059798401 0.050936799
-0.08654312 -0.038124844 -0.028566733
-0.093690701 -0.032937769 -0.037342064
-0.090608507 -0.03102123 -0.033363752
-0.08855965 -0.028065098 -0.031347953
-0.02611593 -0.059798401 0.050936799
-0.02611593 -0.059798401 0.050936799
-0.02611593 -0.059798401 0.050936799
-0.02611593 -0.059798401 0.050936799
-0.091500834 -0.037143245 -0.026455443
-0.099666953 -0.031934496 -0.036211643
-0.096599542 -0.02900004 -0.033214975
-0.094554618 -0.027043734 -0.031217191
-0.02611593 -0.059798401 0.050936799
-0.02611593 -0.059798401 0.050936799
-0.02611593 -0.059798401 0.050936799
-0.02611593 -0.059798401 0.050936799
-0.10156604 -0.035035342 -0.030230138
-0.10462467 -0.030952899 -0.034100343
-0.10562749 -0.026931901 -0.035009138
-0.099512331 -0.026062138 -0.029105902
-0.02611593 -0.059798401 0.050936799
-0.02611593 -0.059798401 0.050936799
-0.02611593 -0.059798401 0.050936799
-0.02611593 -0.059798401 0.050936799
-0.10752749 -0.03504999 -0.028118078
-0.11365261 -0.028884763 -0.035894521
-0.1095706 -0.026971813 -0.031934999
-0.108559 -0.023975909 -0.031899735
-0.02611593 -0.059798401 0.050936799
-0.02611593 -0.059798401 0.050936799
-0.02611593 -0.059798401 0.050936799
-0.02611593 -0.059798401 0.050936799
-0.11956968 -0.031953163 -0.030837521
-0.12060995 -0.027895987 -0.033745643
-0.11959442 -0.023900254 -0.03369236
-0.11248337 -0.024033908 -0.027825922
-0.02611593 -0.059798401 0.050936799
-0.02611593 -0.059798401 0.050936799
-0.02611593 -0.059798401 0.050936799
-0.02611593 -0.059798401 0.050936799
-0.12550849 -0.030986067 -0.02770777
-0.13061899 -0.025842346 -0.034521356
-0.12351881 -0.023958255 -0.029618543
-0.12454037 -0.019919172 -0.031527013
-0.02611593 -0.059798401 0.050936799
-0.02611593 -0.059798401 0.050936799
-0.02611593 -0.059798401 0.050936799
-0.02611593 -0.059798401 0.050936799
-0.13348436 -0.02997561 -0.026539773
-0.14059059 -0.023824885 -0.033297759
-0.13656081 -0.020857843 -0.032319203
-0.13151643 -0.018912302 -0.030377794
-0.02611593 -0.059798401 0.050936799
-0.02611593 -0.059798401 0.050936799
-0.02611593 -0.059798401 0.050936799
-0.02611593 -0.059798401 0.050936799
-0.14445578 -0.027954563 -0.025297377
-0.1475292 -0.022854203 -0.030149218
-0.1465324 -0.01884038 -0.031095602
-0.13846985 -0.016923701 -0.028210904
-0.02611593 -0.059798401 0.050936799
-0.02611593 -0.059798401 0.050936799
-0.02611593 -0.059798401 0.050936799
-0.02611593 -0.059798401 0.050936799
-0.14835751 -0.027030824 -0.020205893
-0.16252948 -0.018782958 -0.030794956
-0.15245248 -0.017891377 -0.026966188
-0.15248901 -0.012837956 -0.029875081
-0.02611593 -0.059798401 0.050936799
-0.02611593 -0.059798401 0.050936799
-0.02611593 -0.059798401 0.050936799
-0.02611593 -0.059798401 0.050936799
-0.17040876 -0.021880362 -0.023701053
-0.17549659 -0.015754903 -0.029496953
-0.16443852 -0.014848818 -0.026686646
-0.15639466 -0.012914046 -0.024801616
-0.02611593 -0.059798401 0.050936799
-0.02611593 -0.059798401 0.050936799
-0.02611593 -0.059798401 0.050936799
-0.02611593 -0.059798401 0.050936799
-0.19444087 -0.01674081 -0.026158966
-0.19651055 -0.010644208 -0.031011585
-0.18546727 -0.0087202061 -0.029182918
-0.16836199 -0.0098895794 -0.023522414
-0.02611593 -0.059798401 0.050936799
-0.02611593 -0.059798401 0.050936799
-0.02611593 -0.059798401 0.050936799
-0.02611593 -0.059798401 0.050936799
-0.22346424 -0.0095836548 -0.0284869
-0.22050133 -0.0045410045 -0.031452164
-0.20847693 -0.0026025027 -0.030641951
-0.19541922 -0.0017035916 -0.027869217
-0.02611593 -0.059798401 0.050936799
-0.02611593 -0.059798401 0.050936799
-0.02611593 -0.059798401 0.050936799
-0.02611593 -0.059798401 0.050936799
-0.25041702 -0.0035058628 -0.026871774
-0.24547318 0.0015476986 -0.03087429
-0.23244506 0.004482442 -0.030064847
-0.21842498 0.0054139388 -0.029310241
-0.02611593 -0.059798401 0.050936799
-0.02611593 -0.059798401 0.050936799
-0.02611593 -0.059798401 0.050936799
-0.02611593 -0.059798401 0.050936799
-0.96065229 0.17590931 -0.22639647
-0.26535627 0.006528181 -0.025410078
-0.26242685 0.012606836 -0.030356646
-0.24237436 0.012480791 -0.027733471
-0.97927737 0.17963314 -0.20697382
-0.02611593 -0.059798401 0.050936799
-0.02611593 -0.059798401 0.050936799
-0.02611593 -0.059798401 0.050936799
-0.98785591 0.18126711 -0.1847761
-0.97818333 0.20362546 -0.20656016
-0.96743977 0.22490801 -0.22438237
-0.26327598 0.017482955 -0.023250133
-0.99844897 0.18392624 -0.16352248
-0.98878026 0.20528473 -0.18532455
-0.98007387 0.22661065 -0.20510849
-0.02611593 -0.059798401 0.050936799
-1.0050131 0.18453513 -0.14038073
-1.0074015 0.21000837 -0.16588385
-0.98667544 0.22725573 -0.18396604
-0.97497749 0.24657121 -0.20384242
-1.0115733 0.18614388 -0.11722095
-1.0139842 0.21063536 -0.14374176
-0.9982909 0.22893667 -0.16371131
-0.98459327 0.24824497 -0.18362524
-1.0231663 0.18880655 -0.095948532
-1.0225629 0.21226935 -0.12154406
-1.0119021 0.23162462 -0.14340097
-0.99722737 0.24994759 -0.16435137
-1.0327219 0.19142589 -0.072714359
-1.0341557 0.21493207 -0.10027165
-1.0184999 0.23326954 -0.1222405
-1.0098575 0.25265005 -0.14505947
-1.0432736 0.19504863 -0.049443372
-1.0367019 0.21550851 -0.076205395
-1.0371022 0.23797512 -0.10180017
-1.0154444 0.25227365 -0.1229542
-1.0758392 0.20378566 -0.027668245
-1.0482761 0.21815313 -0.0539333
-1.044685 0.23860566 -0.079639293
-1.0310701 0.25598666 -0.10358792
-1.0933856 0.20843337 -0.0042477101
-1.0628457 0.2218083 -0.031586833
-1.0452542 0.23819321 -0.056628294
-1.0376531 0.25661367 -0.081445813
-1.1048995 0.2120235 0.021041371
-1.0804069 0.22747394 -0.0091479495
-1.0658336 0.24388771 -0.035132699
-1.0532639 0.25930882 -0.061097883
-1.114414 0.21560651 0.046292879
-1.1089396 0.23516057 0.01453333
-1.076393 0.24551077 -0.011897765
-1.0648381 0.26195341 -0.038825803
-1.1359183 0.22123222 0.071805909
-1.1204536 0.23875076 0.039822415
-1.0979497 0.25219059 0.010634303
-1.0684028 0.26255155 -0.015740409
-1.1683862 0.23087862 0.09859737
-1.1369628 0.24335869 0.065223478
-1.1144775 0.25681666 0.0350357
-1.0899819 0.26824963 0.005773969
-0.02611593 -0.059798401 0.050936799
-1.1464958 0.24695976 0.089475326
-1.1379964 0.26346743 0.059604675
-1.1145232 0.27392226 0.029344048
-1.2002807 0.24298188 0.15543272
-1.1659632 0.25254211 0.11695009
-1.1395427 0.26404029 0.083652131
-1.1160694 0.27449515 0.053391516
-0.02611593 -0.059798401 0.050936799
-1.1794316 0.25810295 0.14431211
-1.1640426 0.27067658 0.10923955
-1.1316016 0.27811772 0.077756107
-1.2151791 0.25000685 0.2128582
-1.2048712 0.26568842 0.17293534
-1.1795107 0.27624461 0.13663916
-0.02611593 -0.059798401 0.050936799
-0.02611593 -0.059798401 0.050936799
-0.02611593 -0.059798401 0.050936799
-1.1939827 0.28080916 0.16400197
-1.1955602 0.29642525 0.13030255
-0.02611593 -0.059798401 0.050936799
-1.2347137 0.27673036 0.23271406
-1.2034448 0.28333807 0.19223443
-0.02611593 -0.059798401 0.050936799
-1.286221 0.27649137 0.3127012
-1.2441493 0.28124085 0.26198223
-0.02611593 -0.059798401 0.050936799
-1.2155178 0.30252263 0.18480498
-1.2707182 0.27594912 0.33941022
-1.2804362 0.29373828 0.29789987
-1.2631904 0.3034319 0.25573802
-0.02611593 -0.059798401 0.050936799
-0.02611593 -0.059798401 0.050936799
-1.3077178 0.30318588 0.33459398
-1.2815603 0.30992004 0.28821033
-0.02611593 -0.059798401 0.050936799
-0.02611593 -0.059798401 0.050936799
-1.3280233 0.31162658 0.37013888
-0.02611593 -0.059798401 0.050936799
-1.2369094 0.30908433 0.26935285
-2.5415838 0.63830805 0.82192248
-1.3224546 0.31306565 0.40007079
-1.3291887 0.32684469 0.35843199
-0.02611593 -0.059798401 0.050936799
-2.5224855 0.64119357 0.87963665
-1.3486763 0.32345515 0.43976313
-1.3087214 0.3223033 0.38397533
-0.02611593 -0.059798401 0.050936799
-2.485522 0.63912392 0.93092453
-2.4355984 0.64394462 0.81903911
-0.02611593 -0.059798401 0.050936799
-1.3049074 0.3325043 0.37208441
-2.4485967 0.63709038 0.98021311
-2.4046566 0.6409148 0.86942208
-2.3634501 0.64549649 0.77270073
-1.3281937 0.34093767 0.40868539
-2.4136705 0.63506407 1.0295392
-2.3816645 0.64087695 0.92200875
-2.3494375 0.64547282 0.82645613
-2.3121524 0.64597917 0.73473608
-2.3767409 0.63403046 1.0788459
-2.3517375 0.63886857 0.97142887
-2.323514 0.64247906 0.87593335
-2.3031576 0.6459915 0.78758585
-2.3467836 0.63500351 1.1293197
-2.325783 0.63885617 1.0219598
-2.3025854 0.64050305 0.92552257
-2.2881868 0.64500064 0.8393051
-2.3069336 0.63303155 1.1745533
-2.2919173 0.63588786 1.0682877
-2.2816303 0.64050847 0.97614753
-2.2543588 0.63705134 0.88454336
-2.2651024 0.63107061 1.2187496
-2.2560704 0.63293046 1.1135784
-2.2636368 0.64048856 1.0288281
-2.2532947 0.64003772 0.9405964
-2.2252898 0.62913489 1.2619839
-2.2222192 0.63098013 1.1589247
-2.2347512 0.63752019 1.0762497
-2.2353241 0.63903612 0.99225944
-2.1844959 0.62721366 1.3041996
-2.194284 0.63097864 1.2084185
-2.2058616 0.63555157 1.1236893
-2.2133996 0.63605654 1.0418117
-2.1456938 0.62729931 1.3464891
-2.16047 0.62906444 1.2517655
-2.1819487 0.63458264 1.1722405
-2.1964252 0.63605833 1.0935116
-2.1049187 0.62539613 1.3877051
-2.1315687 0.6300953 1.2992592
-2.149101 0.63163602 1.2175875
-2.1774735 0.63507122 1.144156
-2.0602193 0.62355107 1.4248475
-2.0937972 0.62720317 1.3405136
-2.1281421 0.63264138 1.2682304
-2.1545265 0.63306987 1.1947073
-2.0155382 0.62172407 1.4609902
-2.0560212 0.62531078 1.3817861
-2.09829 0.63070542 1.3136519
-2.1355526 0.63306445 1.2463695
-1.9738345 0.62088948 1.4982067
-2.0162833 0.62344742 1.4210217
-2.0614991 0.62779868 1.3559248
-2.1027277 0.62913615 1.2906989
-1.9331304 0.6200586 1.5354422
-1.9785452 0.62159127 1.460295
-2.0346014 0.62783694 1.4034381
-2.0837309 0.63011247 1.3433788
-1.8845478 0.61730772 1.5664935
-1.9417841 0.62072039 1.5006045
-1.9978483 0.62496644 1.4437118
-2.0568221 0.62813294 1.3918556
-1.8438811 0.61651301 1.6017296
-1.9030461 0.61886066 1.5398588
-1.9650155 0.6230377 1.4880772
-2.0230124 0.62521893 1.4351845
-1.7982715 0.61575454 1.6338729
-1.8633606 0.61805141 1.5761136
-1.9311976 0.62212336 1.5314422
-2.0010383 0.62520278 1.4867904
-1.7625173 0.6179049 1.6732558
-1.8256371 0.61721313 1.614405
-1.8944407 0.62025273 1.5717338
-1.965229 0.62228155 1.5300817
-1.7199258 0.61717528 1.7044557
-1.7908492 0.61833096 1.6557881
-1.8518049 0.61646938 1.6058787
-1.9333586 0.62032032 1.5764652
-1.6616191 0.61164242 1.7212696
-1.7511635 0.61752176 1.6920426
-1.822922 0.61751837 1.6523726
-1.901503 0.61937696 1.6218672
-1.6141261 0.60998547 1.7473594
-1.7046181 0.61481434 1.721132
-1.7959523 0.62150162 1.7029568
-1.8568754 0.61358678 1.6559384
-1.5607959 0.60545224 1.7652849
-1.6512395 0.60822713 1.7420206
-1.7513356 0.61772919 1.7360644
-1.8436292 0.62036651 1.7208351
-1.51434 0.60383511 1.789394
-1.6047128 0.60553777 1.7701104
-1.7008402 0.6120441 1.7630254
-1.8146718 0.6213432 1.7713277
-1.4591265 0.59840345 1.8012661
-1.5611404 0.6048227 1.8002918
-1.6572381 0.60929322 1.7951702
-1.7572868 0.61172408 1.7930866
-1.4156288 0.59776074 1.827449
-1.5205297 0.60408217 1.8325291
-1.6126587 0.60555696 1.8262786
-1.7175342 0.60884285 1.8333039
-1.3701878 0.59716511 1.8505952
-1.4701576 0.60052341 1.8525283
-1.5710109 0.60477668 1.8604963
-1.6767966 0.60697591 1.8725207
-1.3228444 0.59565288 1.8686876
-1.429562 0.60080087 1.8837839
-1.5293671 0.60299653 1.8946959
-1.63118 0.60319984 1.9056095
-1.2774408 0.59509337 1.8898345
-1.3840685 0.59915113 1.9099112
-1.4837989 0.60127449 1.9248219
-1.586522 0.60039115 1.9407345
-1.235931 0.59745729 1.9161091
-1.3356919 0.59659934 1.929966
-1.4392306 0.59955603 1.9549665
-1.5506444 0.60041511 1.9870789
-1.1857272 0.59406137 1.9271114
-1.2911718 0.59693474 1.9571478
-1.3975828 0.59877574 1.9891841
-1.5050013 0.59862071 2.0212035
-1.1403798 0.59355611 1.9452593
-1.2476742 0.59629202 1.9833306
-1.351052 0.59708619 2.017292
-1.4623014 0.59678268 2.0583835
-1.0940511 0.59306544 1.9623889
-1.1983727 0.59380907 1.9993681
-1.3064985 0.59638566 2.0464551
-1.4176395 0.5949738 2.0935261
-1.0449034 0.58972728 1.9704111
-1.1509733 0.59224254 2.0204594
-1.2628845 0.59663427 2.0786541
-1.3700341 0.59320837 2.1256139
-1.0015103 0.59119272 1.9906321
-1.1055883 0.59170115 2.0406067
-1.2134708 0.59404266 2.1006896
-1.3282514 0.5933013 2.1668475
-0.95621496 0.59174162 2.0057991
-1.0563058 0.5892362 2.0556448
-1.1669778 0.5923894 2.1267979
-1.279665 0.59155035 2.1979165
-0.90710473 0.5884397 2.011822
-1.0108606 0.58964032 2.078809
-1.1175185 0.59176129 2.1508687
-1.2300787 0.58979583 2.228967
-0.85990739 0.58807206 2.021935
-0.95873213 0.58630961 2.0857751
-1.069082 0.59015507 2.1739407
-1.1834278 0.58999747 2.2631087
-0.81467217 0.58767539 2.034085
-0.91046399 0.58486611 2.0998502
-1.0177621 0.58764666 2.1909399
-1.1328793 0.58827549 2.292141
-0.7675575 0.58538043 2.0401635
-0.86697334 0.58724099 2.1250873
-0.96930271 0.58702219 2.2150297
-1.0775305 0.58371699 2.3110287
-0.72333699 0.58600527 2.0513506
-0.81782556 0.58390284 2.1331096
-0.91992241 0.58546668 2.2350838
-1.0288574 0.58489311 2.3461506
-0.67721826 0.5847137 2.0574658
-0.76953477 0.58344114 2.1482022
-0.8685987 0.58395821 2.2521014
-0.98116159 0.58705467 2.382309
-0.62921619 0.58252364 2.0575275
-0.72131884 0.5830518 2.159296
-0.81637269 0.58153677 2.2640841
-0.92290705 0.58257586 2.396142
-0.58403325 0.58318114 2.0666966
-0.67214453 0.58169526 2.1683538
-0.76598471 0.58197731 2.2841551
-0.86942995 0.58191538 2.4211373
-0.53989154 0.58287853 2.0738671
-0.62484962 0.58223695 2.1834834
-0.71649909 0.58333075 2.3092618
-0.79326761 0.56336576 2.3793616
-0.49196827 0.57976103 2.0699122
-0.5776335 0.58185118 2.1945961
-0.6549468 0.57248998 2.2869055
-0.71734154 0.54203379 2.325536
-0.44786006 0.5804944 2.0751011
-0.52567357 0.5786832 2.192565
-0.58703417 0.55220461 2.2322485
-0.6472491 0.52457792 2.2798924
-0.40285352 0.57931501 2.0752375
-0.46751487 0.56321579 2.1501822
