# .PCD v0.7 - Point Cloud Data file format
VERSION 0.7
FIELDS x y z
SIZE 4 4 4
TYPE F F F
COUNT 1 1 1
WIDTH 1351
HEIGHT 1
VIEWPOINT 0 0 0 1 0 0 0
POINTS 1351
DATA ascii
0.038562439 0.0084728207 -0.033067666
0.028660893 0.0044008535 -0.026953876
0.023628291 0.0054548066 -0.02884122
-0.02611593 -0.059798401 0.050936799
-0.02611593 -0.059798401 0.050936799
-0.02611593 -0.059798401 0.050936799
-0.02611593 -0.059798401 0.050936799
0.034648016 0.0013798279 -0.027120672
0.033555504 0.0064910972 -0.033009753
0.027541799 0.0075305579 -0.033878658
0.016673958 0.0024261698 -0.025764756
-0.02611593 -0.059798401 0.050936799
-0.02611593 -0.059798401 0.050936799
-0.02611593 -0.059798401 0.050936799
-0.02611593 -0.059798401 0.050936799
0.026689937 -0.002645043 -0.024043437
0.027552668 0.0055128075 -0.03291503
0.021553766 0.0055343406 -0.032802284
0.011670943 0.0014442839 -0.025688823
-0.02611593 -0.059798401 0.050936799
-0.02611593 -0.059798401 0.050936799
-0.02611593 -0.059798401 0.050936799
-0.02611593 -0.059798401 0.050936799
0.024619341 -0.0015656821 -0.027986482
0.020575684 0.001502429 -0.030856248
0.016550755 0.0045524547 -0.032726351
0.00865277 0.0014731397 -0.026632119
-0.02611593 -0.059798401 0.050936799
-0.02611593 -0.059798401 0.050936799
-0.02611593 -0.059798401 0.050936799
-0.02611593 -0.059798401 0.050936799
0.018627374 -0.004561726 -0.026928134
0.016538972 0.0015529627 -0.032780405
0.011562536 0.002552649 -0.031668767
0.0046495767 0.00048766838 -0.026574977
-0.02611593 -0.059798401 0.050936799
-0.02611593 -0.059798401 0.050936799
-0.02611593 -0.059798401 0.050936799
-0.02611593 -0.059798401 0.050936799
0.013624364 -0.0055436124 -0.026852202
0.011554681 0.00055299129 -0.031704806
0.007525824 0.0026031826 -0.033592939
0.00063551171 0.0015199401 -0.027481452
-0.02611593 -0.059798401 0.050936799
-0.02611593 -0.059798401 0.050936799
-0.02611593 -0.059798401 0.050936799
-0.02611593 -0.059798401 0.050936799
0.0096063744 -0.0055111675 -0.0277767
0.0056110318 -0.0044969809 -0.027683519
0.0025415318 0.0016032076 -0.032517336
-0.0033824793 0.0015523847 -0.028405949
-0.02611593 -0.059798401 0.050936799
-0.02611593 -0.059798401 0.050936799
-0.02611593 -0.059798401 0.050936799
-0.02611593 -0.059798401 0.050936799
-0.02611593 -0.059798401 0.050936799
0.0015782444 -0.0034466204 -0.029589653
-0.0014577348 0.0016175632 -0.032442175
-0.0064341701 0.0026172493 -0.031330537
-0.02611593 -0.059798401 0.050936799
-0.02611593 -0.059798401 0.050936799
-0.02611593 -0.059798401 0.050936799
-0.02611593 -0.059798401 0.050936799
-0.02611593 -0.059798401 0.050936799
-0.0024397452 -0.0034141755 -0.030514158
-0.005475726 0.0016500079 -0.03336668
-0.011384942 0.00058126909 -0.028273646
-0.02611593 -0.059798401 0.050936799
-0.02611593 -0.059798401 0.050936799
-0.02611593 -0.059798401 0.050936799
-0.02611593 -0.059798401 0.050936799
-0.02611593 -0.059798401 0.050936799
-0.0054579186 -0.0033853198 -0.031457439
-0.0094937179 0.0016824526 -0.034291178
-0.0144475 0.0036638803 -0.032161862
-0.02611593 -0.059798401 0.050936799
-0.02611593 -0.059798401 0.050936799
-0.02611593 -0.059798401 0.050936799
-0.02611593 -0.059798401 0.050936799
-0.02611593 -0.059798401 0.050936799
-0.0094759101 -0.0033528749 -0.032381944
-0.014414898 -0.0023893635 -0.029270988
-0.02611593 -0.059798401 0.050936799
-0.02611593 -0.059798401 0.050936799
-0.02611593 -0.059798401 0.050936799
-0.02611593 -0.059798401 0.050936799
-0.02611593 -0.059798401 0.050936799
-0.02611593 -0.059798401 0.050936799
-0.02611593 -0.059798401 0.050936799
-0.017510975 0.001729253 -0.035140511
-0.02611593 -0.059798401 0.050936799
-0.02611593 -0.059798401 0.050936799
-0.02611593 -0.059798401 0.050936799
-0.02611593 -0.059798401 0.050936799
-0.02611593 -0.059798401 0.050936799
-0.02611593 -0.059798401 0.050936799
-0.01748924 -0.0023062404 -0.033213265
-0.02146193 -0.00031031983 -0.032102402
-0.02611593 -0.059798401 0.050936799
-0.02611593 -0.059798401 0.050936799
-0.02611593 -0.059798401 0.050936799
-0.02611593 -0.059798401 0.050936799
-0.02611593 -0.059798401 0.050936799
-0.02611593 -0.059798401 0.050936799
-0.021488508 -0.0022918847 -0.033138104
-0.025505584 0.0027577949 -0.034972169
-0.02611593 -0.059798401 0.050936799
-0.02611593 -0.059798401 0.050936799
-0.02611593 -0.059798401 0.050936799
-0.02611593 -0.059798401 0.050936799
-0.02611593 -0.059798401 0.050936799
-0.02611593 -0.059798401 0.050936799
-0.025458187 -0.0043133684 -0.031099647
-0.028456721 0.00071463693 -0.031952851
-0.03139215 0.002670794 -0.028861456
-0.02611593 -0.059798401 0.050936799
-0.02611593 -0.059798401 0.050936799
-0.02611593 -0.059798401 0.050936799
-0.02611593 -0.059798401 0.050936799
-0.02611593 -0.059798401 0.050936799
-0.028487228 -0.0022667623 -0.033006571
-0.032504302 0.0027829173 -0.034840636
-0.03543973 0.0047390782 -0.031749245
-0.02611593 -0.059798401 0.050936799
-0.02611593 -0.059798401 0.050936799
-0.02611593 -0.059798401 0.050936799
-0.02611593 -0.059798401 0.050936799
-0.02611593 -0.059798401 0.050936799
-0.032486495 -0.0022524067 -0.03293141
-0.035470236 0.0017576753 -0.032802965
-0.038372148 0.0026778274 -0.02773026
-0.02611593 -0.059798401 0.050936799
-0.02611593 -0.059798401 0.050936799
-0.02611593 -0.059798401 0.050936799
-0.02611593 -0.059798401 0.050936799
-0.02611593 -0.059798401 0.050936799
-0.036467042 -0.0022561401 -0.031856582
-0.039450783 0.0017539419 -0.031728134
-0.042382285 0.0047099334 -0.028618723
-0.02611593 -0.059798401 0.050936799
-0.02611593 -0.059798401 0.050936799
-0.02611593 -0.059798401 0.050936799
-0.02611593 -0.059798401 0.050936799
-0.02611593 -0.059798401 0.050936799
-0.041510511 0.00081555994 -0.034707557
-0.044509046 0.0058435653 -0.035560753
-0.046425935 0.0077780485 -0.031488489
-0.02611593 -0.059798401 0.050936799
-0.02611593 -0.059798401 0.050936799
-0.02611593 -0.059798401 0.050936799
-0.02611593 -0.059798401 0.050936799
-0.02611593 -0.059798401 0.050936799
-0.044428132 -0.0022636065 -0.029706936
-0.048489593 0.0058398321 -0.034485932
-0.049358353 0.0057167974 -0.027469512
-0.02611593 -0.059798401 0.050936799
-0.02611593 -0.059798401 0.050936799
-0.02611593 -0.059798401 0.050936799
-0.02611593 -0.059798401 0.050936799
-0.02611593 -0.059798401 0.050936799
-0.04840868 -0.0022673402 -0.028632108
-0.052499726 0.0078719379 -0.035374392
-0.053368486 0.0077489037 -0.028357971
-0.02611593 -0.059798401 0.050936799
-0.02611593 -0.059798401 0.050936799
-0.02611593 -0.059798401 0.050936799
-0.02611593 -0.059798401 0.050936799
-0.050468404 -0.0032057296 -0.031611532
-0.053485665 0.0018403649 -0.033464395
-0.056446753 0.0068321885 -0.032318272
-0.057378624 0.0097810095 -0.029246442
-0.02611593 -0.059798401 0.050936799
-0.02611593 -0.059798401 0.050936799
-0.02611593 -0.059798401 0.050936799
-0.02611593 -0.059798401 0.050936799
-0.054434158 -0.0042273789 -0.029555071
-0.057443559 0.002818373 -0.031371888
-0.060438167 0.0088462122 -0.032207068
-0.061355241 0.010777099 -0.028153591
-0.02611593 -0.059798401 0.050936799
-0.02611593 -0.059798401 0.050936799
-0.02611593 -0.059798401 0.050936799
-0.02611593 -0.059798401 0.050936799
-0.059444111 -0.002191684 -0.030424729
-0.062472235 0.0048721572 -0.033241224
-0.067510858 0.013960927 -0.036983747
-0.06533578 0.010773366 -0.02707877
-0.02611593 -0.059798401 0.050936799
-0.02611593 -0.059798401 0.050936799
-0.02611593 -0.059798401 0.050936799
-0.02611593 -0.059798401 0.050936799
-0.063405931 -0.0022135065 -0.028350249
-0.06540072 0.0038107368 -0.029204223
-0.070443273 0.011899675 -0.03296477
-0.07137122 0.01584832 -0.029874913
-0.02611593 -0.059798401 0.050936799
-0.02611593 -0.059798401 0.050936799
-0.02611593 -0.059798401 0.050936799
-0.02611593 -0.059798401 0.050936799
-0.066367939 -0.0022389176 -0.026294559
-0.073488027 0.0099469665 -0.034943756
-0.075434506 0.013917281 -0.032834779
-0.076362446 0.017865919 -0.029744923
-0.02611593 -0.059798401 0.050936799
-0.02611593 -0.059798401 0.050936799
-0.02611593 -0.059798401 0.050936799
-0.02611593 -0.059798401 0.050936799
-0.070325837 -0.0012609133 -0.024202053
-0.077445924 0.010924967 -0.032851256
-0.078392588 0.014891701 -0.030761067
-0.078309841 0.016819006 -0.026726384
-0.02611593 -0.059798401 0.050936799
-0.02611593 -0.059798401 0.050936799
-0.02611593 -0.059798401 0.050936799
-0.02611593 -0.059798401 0.050936799
-0.076331675 0.0017781975 -0.025034923
-0.080374412 0.0098635545 -0.028814256
-0.085398249 0.017934397 -0.03157514
-0.086355776 0.02391888 -0.030448571
-0.02611593 -0.059798401 0.050936799
-0.02611593 -0.059798401 0.050936799
-0.02611593 -0.059798401 0.050936799
-0.02611593 -0.059798401 0.050936799
-0.082337514 0.0048173121 -0.025867783
-0.088409483 0.014945679 -0.031572826
-0.089370944 0.019930333 -0.030464277
-0.089302987 0.022875551 -0.027411234
-0.02611593 -0.059798401 0.050936799
-0.02611593 -0.059798401 0.050936799
-0.02611593 -0.059798401 0.050936799
-0.02611593 -0.059798401 0.050936799
-0.086280614 0.0047774003 -0.022793636
-0.093385912 0.015945364 -0.030461188
-0.098420613 0.026033966 -0.034185696
-0.096300788 0.027917914 -0.028189275
-0.02611593 -0.059798401 0.050936799
-0.02611593 -0.059798401 0.050936799
-0.02611593 -0.059798401 0.050936799
-0.02611593 -0.059798401 0.050936799
-0.096330106 0.010884622 -0.026496265
-0.10138354 0.020991318 -0.031220436
-0.104389 0.029036893 -0.033019233
-0.1012733 0.029917423 -0.027059618
-0.02611593 -0.059798401 0.050936799
-0.02611593 -0.059798401 0.050936799
-0.02611593 -0.059798401 0.050936799
-0.02611593 -0.059798401 0.050936799
-0.10333184 0.014927156 -0.027292315
-0.10633732 0.02297274 -0.029091112
-0.10729485 0.028957216 -0.027964558
-0.10523119 0.03089544 -0.024967119
-0.02611593 -0.059798401 0.050936799
-0.02611593 -0.059798401 0.050936799
-0.02611593 -0.059798401 0.050936799
-0.02611593 -0.059798401 0.050936799
-0.10928544 0.016912173 -0.025144216
-0.11634937 0.029043783 -0.030794431
-0.11933611 0.037071284 -0.031593572
-0.11523931 0.037966311 -0.026652403
-0.02611593 -0.059798401 0.050936799
-0.02611593 -0.059798401 0.050936799
-0.02611593 -0.059798401 0.050936799
-0.02611593 -0.059798401 0.050936799
-0.12130799 0.025008146 -0.027773567
-0.1263427 0.035096746 -0.031498075
-0.12327529 0.038031206 -0.028501395
-0.12321821 0.042994179 -0.026411984
-0.02611593 -0.059798401 0.050936799
-0.02611593 -0.059798401 0.050936799
-0.02611593 -0.059798401 0.050936799
-0.02611593 -0.059798401 0.050936799
-0.12622434 0.026953395 -0.023644932
-0.13428807 0.039088599 -0.029276349
-0.1342645 0.045087576 -0.029168241
-0.132193 0.049025454 -0.026134759
-0.02611593 -0.059798401 0.050936799
-0.02611593 -0.059798401 0.050936799
-0.02611593 -0.059798401 0.050936799
-0.02611593 -0.059798401 0.050936799
-0.13922797 0.035034865 -0.025255829
-0.14527731 0.046144973 -0.029943191
-0.14423518 0.052122273 -0.028854202
-0.14118651 0.055074822 -0.026857205
-0.02611593 -0.059798401 0.050936799
-0.02611593 -0.059798401 0.050936799
-0.02611593 -0.059798401 0.050936799
-0.02611593 -0.059798401 0.050936799
-0.15524195 0.045144856 -0.027773973
-0.15824349 0.054190274 -0.029554766
-0.15722011 0.060185663 -0.029465448
-0.15818851 0.068187885 -0.029302508
-0.02611593 -0.059798401 0.050936799
-0.02611593 -0.059798401 0.050936799
-0.02611593 -0.059798401 0.050936799
-0.02611593 -0.059798401 0.050936799
-0.16717482 0.052150551 -0.025423035
-0.17421608 0.065263912 -0.030055575
-0.1701676 0.068212867 -0.028077353
-0.16410467 0.070136726 -0.025155075
-0.02611593 -0.059798401 0.050936799
-0.02611593 -0.059798401 0.050936799
-0.02611593 -0.059798401 0.050936799
-0.02611593 -0.059798401 0.050936799
-0.18514311 0.064231202 -0.025868248
-0.1841158 0.071226418 -0.025760911
-0.18512166 0.079264827 -0.02759729
-0.18108794 0.083231702 -0.026600715
-0.02611593 -0.059798401 0.050936799
-0.02611593 -0.059798401 0.050936799
-0.02611593 -0.059798401 0.050936799
-0.02611593 -0.059798401 0.050936799
-0.20708017 0.079307608 -0.025184579
-0.20709012 0.086342588 -0.027057771
-0.20104198 0.089284368 -0.02511714
-0.19501258 0.092244245 -0.024176162
-0.02611593 -0.059798401 0.050936799
-0.02611593 -0.059798401 0.050936799
-0.02611593 -0.059798401 0.050936799
-0.02611593 -0.059798401 0.050936799
-0.23200883 0.096394449 -0.024408504
-0.23101896 0.10342584 -0.026300482
-0.22600023 0.10840704 -0.026304342
-0.21697924 0.10935647 -0.025455773
-0.02611593 -0.059798401 0.050936799
-0.02611593 -0.059798401 0.050936799
-0.02611593 -0.059798401 0.050936799
-0.02611593 -0.059798401 0.050936799
-0.26190606 0.11648061 -0.022484753
-0.25690216 0.12247975 -0.02347026
-0.24991037 0.1254722 -0.024547391
-0.24289986 0.12844656 -0.024624869
-0.02611593 -0.059798401 0.050936799
-0.02611593 -0.059798401 0.050936799
-0.02611593 -0.059798401 0.050936799
-0.02611593 -0.059798401 0.050936799
-0.98842841 0.65460992 -0.19920796
-0.94245553 0.65446287 -0.20107202
-0.90145922 0.65531558 -0.20182443
-0.25676835 0.13740483 -0.019201338
-0.99097854 0.65418649 -0.17515975
-0.94303662 0.65105093 -0.1781151
-0.90409201 0.65296495 -0.18181086
-0.02611593 -0.059798401 0.050936799
-0.99153298 0.65275615 -0.15116712
-0.94964898 0.65371376 -0.15793626
-0.90871662 0.65262109 -0.16172367
-0.86681098 0.64954323 -0.1665656
-0.9920873 0.65132576 -0.1271745
-0.94723457 0.64929128 -0.13505372
-0.91034967 0.65026677 -0.14172892
-0.8704772 0.6482321 -0.14851454
-0.99664408 0.65392721 -0.10403428
-0.95584267 0.65296108 -0.1148193
-0.91399324 0.64993745 -0.12266019
-0.87514323 0.64692467 -0.13044471
-0.99119645 0.64845788 -0.079226784
-0.95842636 0.65357375 -0.092752382
-0.91462648 0.64757961 -0.10268422
-0.87780958 0.64560997 -0.11241245
-0.9917618 0.64904523 -0.056197762
-0.95401603 0.64814419 -0.069925427
-0.92024302 0.64923906 -0.082542226
-0.88448215 0.64732724 -0.095250651
-0.99031258 0.64860749 -0.032224692
-0.95260829 0.64674276 -0.047969684
-0.92687035 0.65291983 -0.063345045
-0.89113599 0.64902639 -0.077089176
-0.98988193 0.64819145 -0.0092324913
-0.95821702 0.65040189 -0.027791649
-0.92550778 0.64955491 -0.043424673
-0.89680874 0.65074015 -0.059946157
-0.98944741 0.64877522 0.013777725
-0.95680922 0.64900047 -0.0058359206
-0.92713302 0.64920026 -0.023393869
-0.89447308 0.64539009 -0.041080266
-0.98801309 0.64935541 0.036769167
-0.95741594 0.64862418 0.01517576
-0.92776233 0.64784229 -0.0033998713
-0.89711678 0.64505714 -0.022030331
-0.98259127 0.64692175 0.059631385
-0.95401239 0.6462158 0.037075888
-0.93038338 0.64849108 0.016667731
-0.89977926 0.64474231 -0.0039800629
-0.97917593 0.64751285 0.081585571
-0.95062369 0.64482534 0.057994384
-0.92502558 0.64411205 0.036494937
-0.90144187 0.6444239 0.014051415
-0.9727543 0.64507562 0.10442899
-0.9432475 0.64042103 0.078783661
-0.92666554 0.64477533 0.055544093
-0.90109396 0.64208061 0.033008941
-0.96535158 0.64265287 0.12625398
-0.94186938 0.64105552 0.09877611
-0.92629111 0.64441353 0.075537317
-0.9047296 0.64375091 0.052113697
-0.96293604 0.64324754 0.14822695
-0.94346404 0.64368224 0.11986063
-0.92294371 0.6420595 0.094438456
-0.90539247 0.64342886 0.070126392
-0.95455229 0.64083934 0.16903347
-0.94405878 0.64630544 0.14092636
-0.92655283 0.64571142 0.11457893
-0.90904683 0.64511728 0.088231482
-0.95310605 0.64441901 0.19207896
-0.94066626 0.64591485 0.16186287
-0.91722226 0.63933641 0.13329525
-0.90570349 0.64176333 0.10711461
-0.94571811 0.64301419 0.21292229
-0.92832142 0.63851118 0.18150449
-0.92380041 0.64598042 0.15454581
-0.90734345 0.64242667 0.12616378
-0.93236566 0.63760656 0.23258114
-0.92693543 0.64114529 0.20153296
-0.91944927 0.64462256 0.17344618
-0.90401489 0.64009064 0.14406528
-0.93093431 0.64220423 0.25464499
-0.91757828 0.63675189 0.221285
-0.9131065 0.64125788 0.19227296
-0.90663195 0.64173925 0.16415089
-0.9195776 0.63780367 0.27435946
-0.91716945 0.64037138 0.24234995
-0.9147011 0.64388472 0.21335746
-0.90627229 0.64239538 0.18316248
-0.91020483 0.63740957 0.29418355
-0.91179198 0.64099145 0.26226723
-0.9083544 0.64151973 0.23220223
-0.90194386 0.64005578 0.20104519
-0.90183181 0.6370191 0.31402645
-0.90641844 0.64061171 0.28216651
-0.90400332 0.64016187 0.25110263
-0.90256143 0.64169723 0.22109324
-0.89048588 0.63463622 0.33277726
-0.89707226 0.63823611 0.30095494
-0.90162134 0.64179265 0.27109429
-0.90120584 0.64134997 0.24006799
-0.88310492 0.63624901 0.35267499
-0.89071363 0.63887072 0.31985375
-0.89429349 0.63944221 0.28892064
-0.90082347 0.64298785 0.26009727
-0.87474674 0.63687646 0.37153625
-0.88236332 0.6374985 0.33867899
-0.8909117 0.64106935 0.30889353
-0.89649117 0.64164805 0.27799797
-0.86538875 0.63750023 0.39037871
-0.8760047 0.63813305 0.3575778
-0.88356513 0.63870084 0.32771951
-0.88917118 0.63729799 0.29578829
-0.8520658 0.63412851 0.40807429
-0.86764652 0.63876045 0.37643906
-0.87721056 0.63833565 0.34660032
-0.88381636 0.63693637 0.31468788
-0.84272259 0.63577026 0.42593512
-0.85731918 0.63639939 0.39420903
-0.87284762 0.63997728 0.36555478
-0.88046122 0.63658196 0.33362508
-0.82841867 0.63241297 0.44261223
-0.84601074 0.63405269 0.4109605
-0.86451995 0.63762331 0.38336229
-0.8731333 0.63423145 0.3514514
-0.81907547 0.63405478 0.46047306
-0.83765262 0.63468015 0.42982179
-0.85618436 0.63726896 0.40120587
-0.87372428 0.63785452 0.37253517
-0.80676335 0.63270438 0.47722378
-0.82931709 0.6343258 0.44766536
-0.84785277 0.6359148 0.41903144
-0.86736959 0.63748932 0.39141595
-0.79444718 0.63235378 0.49399254
-0.81997782 0.63496774 0.46550816
-0.8434673 0.63853818 0.43900356
-0.8610189 0.63612431 0.41027877
-0.78017282 0.63103229 0.50870633
-0.80768824 0.63263559 0.4812412
-0.83513176 0.63818389 0.4568471
-0.85368711 0.63477373 0.42812312
-0.76490265 0.62870753 0.52338338
-0.79637587 0.63128877 0.49801072
-0.8218503 0.63384849 0.47252533
-0.84635139 0.63442302 0.44598547
-0.75162804 0.62738973 0.53811604
-0.7830826 0.62995285 0.51374304
-0.81253749 0.63250881 0.48933247
-0.83900082 0.63305432 0.46482947
-0.74229574 0.63104922 0.55501318
-0.77278095 0.63062733 0.52956772
-0.81009853 0.63910246 0.51141357
-0.83264232 0.63368899 0.48372829
-0.72407132 0.62675017 0.56759846
-0.75753731 0.62632096 0.54320902
-0.79485875 0.63379627 0.52503687
-0.82825685 0.63631225 0.50370044
-0.71178877 0.62743556 0.5823859
-0.75016713 0.62995142 0.56214315
-0.78454626 0.63245302 0.54182512
-0.81792557 0.634951 0.52148837
-0.69655603 0.62514693 0.59506363
-0.7329613 0.62567401 0.57374758
-0.7722528 0.63112074 0.55757618
-0.80662107 0.63160449 0.5382219
-0.685224 0.6287992 0.61192322
-0.72165984 0.62634504 0.58955348
-0.75700915 0.62681437 0.57121754
-0.79928148 0.63225365 0.55610228
-0.67000604 0.62752849 0.62361932
-0.70938116 0.62603062 0.60432291
-0.74964291 0.62944496 0.59013367
-0.78894621 0.63189214 0.57390827
-0.65576518 0.62724304 0.63635182
-0.69512552 0.62472731 0.61803705
-0.73931867 0.63110125 0.60697597
-0.77763391 0.63054532 0.5906778
-0.63759303 0.62399811 0.6459561
-0.68479729 0.62738329 0.63489747
-0.72504818 0.62877995 0.62167186
-0.76632154 0.62919843 0.60744727
-0.62334824 0.62471259 0.65870667
-0.66858345 0.62510926 0.64655668
-0.70981932 0.62549156 0.63433152
-0.75108176 0.62389225 0.62107068
-0.6091035 0.62542701 0.67145723
-0.65434653 0.62382394 0.65927118
-0.70047218 0.62813306 0.65221035
-0.74073875 0.62553042 0.63891262
-0.59390426 0.62417436 0.68215364
-0.6430372 0.62649459 0.67511314
-0.68719769 0.62681526 0.66694301
-0.73039967 0.62616873 0.65673661
-0.57867831 0.62490326 0.69388574
-0.62682331 0.62422043 0.68677235
-0.67294204 0.62551194 0.68065715
-0.7171064 0.62483287 0.67246896
-0.56249797 0.62366515 0.70356369
-0.61357838 0.62493849 0.69954169
-0.66163659 0.62718266 0.69648105
-0.70774442 0.6264565 0.69132942
-0.54924518 0.62638277 0.71636909
-0.59737933 0.6236822 0.71021932
-0.6473583 0.6268611 0.71121287
-0.6964016 0.6280911 0.7091527
-0.53206116 0.62614083 0.7260462
-0.58216125 0.62241143 0.72191536
-0.63212162 0.62557232 0.7239086
-0.68117273 0.62480259 0.72181237
-0.51494497 0.62295383 0.73267037
-0.56693935 0.62214059 0.73362947
-0.6159265 0.62331629 0.73456824
-0.6649214 0.62249231 0.73547095
-0.50071102 0.62568593 0.74445724
-0.55171347 0.62286955 0.74536157
-0.60067099 0.62200934 0.7482636
-0.64966989 0.62018549 0.74914831
-0.48259112 0.62349504 0.75108063
-0.53651029 0.62261671 0.75607598
-0.58447587 0.61975324 0.75892317
-0.63732719 0.62181652 0.76695269
-0.46738008 0.62524188 0.7618311
-0.51835293 0.62038964 0.76469862
-0.57216275 0.62342012 0.7747643
-0.61913639 0.61855346 0.77755678
-0.44930157 0.62208742 0.76643711
-0.50412297 0.62212199 0.77646756
-0.55494517 0.62214226 0.78642285
-0.60774428 0.62315136 0.79743332
-0.43508637 0.62483758 0.77722436
-0.48696145 0.62089831 0.78512704
-0.53779155 0.6189189 0.79504627
-0.59053051 0.62087357 0.80907381
-0.41700783 0.62168312 0.78183043
-0.47270888 0.6236124 0.79791361
-0.52347881 0.62257856 0.81084985
-0.57622957 0.62153381 0.82482332
-0.40085703 0.62248081 0.78954506
-0.45457026 0.62140346 0.80553663
-0.50630254 0.62033695 0.82049102
-0.55705768 0.61828518 0.83440882
-0.38472497 0.62329656 0.79626006
-0.43742752 0.62019789 0.81319642
-0.49007693 0.62106234 0.83220428
-0.54079854 0.61797452 0.8481034
-0.36761969 0.62212723 0.80192053
-0.41934898 0.61704332 0.81780249
-0.47289273 0.6208204 0.84188145
-0.52453536 0.61866367 0.86181605
-0.34955201 0.62099046 0.80556297
-0.40217966 0.61781931 0.82649797
-0.45473543 0.61859339 0.85050416
-0.50731778 0.61738575 0.8734746
-0.33341998 0.6218062 0.81227791
-0.3850556 0.61663193 0.83315825
-0.4365741 0.61736614 0.85914481
-0.49100935 0.62003845 0.88922256
-0.31537887 0.61868787 0.8148846
-0.36886352 0.61839324 0.8428902
-0.42129901 0.6210584 0.87293029
-0.46989781 0.6158371 0.8957535
-0.29830712 0.61855447 0.81856388
-0.35075837 0.61722028 0.8485319
-0.40217933 0.61886388 0.8795349
-0.45363081 0.61752611 0.90948415
-0.2821711 0.62037015 0.82529694
-0.3326759 0.61506563 0.85315591
-0.38405937 0.61667299 0.88615823
-0.43442827 0.61725897 0.9201234
-0.26510328 0.61923689 0.82895803
-0.31556275 0.61589587 0.85885251
-0.36491311 0.61646008 0.89379853
-0.41429397 0.61404294 0.9276908
-0.24809548 0.61715811 0.82960224
-0.29843476 0.61570817 0.86553067
-0.34674397 0.61723256 0.9024753
-0.39511022 0.61379385 0.93733037
-0.23104636 0.61604303 0.83226371
-0.28032187 0.61653489 0.87120843
-0.32764295 0.61505616 0.9080801
-0.37594908 0.61256301 0.9459523
-0.21401596 0.61494601 0.83392566
-0.26225808 0.6143983 0.87483275
-0.30758354 0.61191255 0.91164893
-0.35576555 0.61231035 0.95557308
-0.19694024 0.61581248 0.83762288
-0.24414511 0.61522496 0.88051057
-0.28945577 0.61172134 0.91830838
-0.3356007 0.61207581 0.96419424
-0.18086438 0.61668247 0.84133881
-0.22703198 0.61605525 0.8862071
-0.27028286 0.61348999 0.92698437
-0.31547329 0.61187738 0.97081608
-0.16476582 0.61853427 0.84607255
-0.20809254 0.61102414 0.88376069
-0.25212851 0.61528027 0.93467939
-0.29526711 0.61260647 0.98145455
-0.14772755 0.61943698 0.84777051
-0.19091143 0.61479962 0.89251024
-0.23204249 0.61411828 0.93928385
-0.27324936 0.60849208 0.98296839
-0.13071981 0.61735821 0.84841466
-0.17190011 0.61371356 0.89313495
-0.21201658 0.6120106 0.94087136
-0.25309932 0.60927534 0.99060792
-0.11281371 0.6133666 0.8440057
-0.1538285 0.61357659 0.89679527
-0.19290379 0.61283374 0.94653028
-0.23101366 0.6081062 0.99517477
-0.096711233 0.61621827 0.84875739
-0.13575299 0.61443943 0.90047371
-0.17196472 0.60779542 0.94404632
-0.21086362 0.60888946 1.0028143
-0.080691509 0.61714256 0.84947443
-0.11774148 0.61335689 0.90111721
-0.15280661 0.61058199 0.95174062
-0.18879667 0.60773838 1.0063815
-0.063634522 0.61802715 0.85217196
-0.099597998 0.61716503 0.9078486
-0.13371256 0.61142319 0.95639992
-0.16762024 0.61049962 1.0150379
-0.047678821 0.61700606 0.84985405
-0.081605233 0.61610061 0.9074924
-0.11366004 0.61129713 0.95902312
-0.14557202 0.6093666 1.0176055
-0.030745961 0.61499965 0.84649956
-0.062763333 0.61016005 0.90002966
-0.093580954 0.61315262 0.96268195
-0.12352381 0.60823357 1.0201731
-0.014680934 0.61788744 0.84925199
-0.044683881 0.6120227 0.90372604
-0.072637953 0.60911417 0.96021599
-0.10149431 0.60711861 1.021741
0.0012294641 0.61490291 0.84489864
-0.025732653 0.60999107 0.90133369
-0.052622892 0.60902435 0.96083987
-0.079396874 0.60894883 1.0263619
0.017230464 0.61584526 0.844616
-0.0077359471 0.60992646 0.90099543
-0.032589108 0.6089164 0.96246332
-0.057431404 0.60588849 1.0248948
0.033204887 0.61480612 0.84329766
0.0093062427 0.61182886 0.90271139
-0.012615418 0.60786283 0.96106982
-0.03550338 0.60286427 1.0214285
0.049141858 0.61380315 0.83997995
0.02734825 0.61372781 0.90440845
0.0064451285 0.60974002 0.96374786
-0.012447491 0.60372728 1.0240133
0.065060124 0.61281818 0.83566266
0.04526221 0.61173588 0.90003556
0.026418818 0.60868651 0.96235436
0.008631411 0.60557926 1.0276533
0.08201956 0.61279339 0.83334392
0.064262658 0.61266756 0.89969659
0.047373608 0.60764754 0.9599424
0.03054464 0.60357296 1.0232053
0.098047137 0.61571735 0.83409703
0.081108853 0.60773402 0.8922894
0.067351222 0.60759383 0.95856696
0.053627104 0.6064176 1.0268257
0.11292028 0.61277258 0.82776314
0.10011324 0.60966551 0.89196843
0.086223632 0.60463464 0.95215786
0.075562984 0.60539305 1.0233954
0.12888382 0.61375123 0.82548112
0.11703523 0.6096769 0.88765043
0.10724635 0.60654086 0.95279902
0.097370811 0.60047776 1.0138949
0.14484739 0.61472976 0.82319921
0.13499449 0.60964847 0.8853128
0.12714516 0.60555971 0.94740689
0.12045722 0.60432214 1.0175334
0.16076563 0.61374491 0.81888187
0.15287101 0.60769272 0.87894058
0.14714935 0.60748762 0.94706714
0.14347959 0.6062212 1.018137
0.17566928 0.61378151 0.81360173
0.17087951 0.61062759 0.87865639
0.16704814 0.60650641 0.94167501
0.16540067 0.60621464 1.0137249
0.1905237 0.6108548 0.80626822
0.1877562 0.60867548 0.87230295
0.18592843 0.60554689 0.9353019
0.18617123 0.6013391 1.002244
0.20544606 0.61087328 0.80198765
0.2056593 0.60870135 0.86696649
0.20695508 0.60845304 0.93596101
0.20809232 0.60133255 0.99783194
0.22243991 0.61482972 0.80074066
0.22362641 0.61067253 0.86466491
0.22577524 0.60654795 0.92657107
0.22997597 0.60136205 0.99142063
0.23524942 0.60994673 0.79140931
0.24157479 0.61266184 0.86136371
0.24571934 0.60753024 0.92321432
0.25187832 0.60137355 0.98600882
0.25224328 0.61390311 0.79016232
0.25525996 0.60488433 0.84596157
0.26560727 0.60856682 0.91685855
0.27484843 0.60432661 0.98363143
0.26712823 0.61395782 0.7838825
0.27534389 0.61275691 0.8487289
0.28344634 0.60664725 0.90848696
0.29669464 0.60439241 0.97522074
0.28203577 0.61499423 0.77862036
0.29111934 0.60889912 0.83735991
0.30227044 0.60574198 0.89911497
0.31858221 0.60542184 0.96882737
0.29689413 0.61306733 0.77130479
0.30800387 0.60894668 0.83104253
0.32217711 0.60676056 0.89375889
0.33942857 0.60549116 0.96043551
0.31180564 0.61510366 0.76606071
0.32489234 0.60999399 0.82474315
0.34104648 0.60781884 0.88642228
0.35923377 0.60460037 0.95004511
0.32462296 0.61222029 0.75676543
0.34175819 0.61005968 0.81742603
0.35887077 0.6069172 0.87706906
0.37897494 0.60176438 0.93661964
0.33847061 0.61231476 0.748505
0.356583 0.60916877 0.80812919
0.37769878 0.6070118 0.86771506
0.39878011 0.60087359 0.92622912
0.35337818 0.61335123 0.74324292
0.37240764 0.60827428 0.79881358
0.39552698 0.60710996 0.85837984
0.41754803 0.60002267 0.91385823
0.36824831 0.61442387 0.73598146
0.38823619 0.60837972 0.78951603
0.412314 0.60624814 0.8470462
0.43733841 0.60014993 0.90248609
0.38211468 0.61450022 0.72872072
0.40508333 0.60846341 0.78119934
0.43116465 0.60732454 0.83870983
0.45817 0.60123712 0.89311254
0.39493984 0.61361653 0.71946144
0.41782579 0.60565239 0.76790535
0.44691047 0.60550255 0.82537764
0.47590065 0.60042596 0.87876105
0.40978736 0.61370736 0.71118236
0.4347221 0.60869944 0.76164204
0.46472389 0.6066187 0.81506073
0.49567235 0.60057127 0.86638933
0.42368031 0.61576533 0.70495731
0.45159581 0.61076468 0.75436097
0.48462358 0.61065477 0.80875909
0.51447076 0.60270172 0.85507208
0.43544161 0.61293983 0.69268185
0.46433824 0.60795367 0.74106705
0.50035065 0.60885096 0.79442716
0.53115636 0.59993064 0.83870405
0.44724438 0.61107808 0.68242377
0.48017073 0.60905892 0.73178744
0.51612312 0.60901058 0.78213054
0.54993606 0.60207909 0.82638711
0.4600735 0.61119419 0.67318249
0.49393958 0.60822588 0.71951044
0.53187287 0.60818845 0.76881635
0.56768942 0.60224974 0.81305325
0.47595525 0.61526275 0.66595632
0.50566351 0.60543656 0.70523572
0.54762655 0.60836625 0.75552005
0.5854091 0.60345632 0.79773813
0.48878431 0.61537886 0.65671504
0.52561635 0.61343575 0.70100534
0.56031275 0.60560954 0.73922712
0.60007632 0.60071045 0.78040797
0.50159472 0.61551309 0.64647418
0.53322774 0.60575217 0.6817174
0.57711554 0.60874695 0.72796547
0.61679626 0.6019206 0.76511163
0.51135641 0.6126948 0.63423628
0.55009055 0.60983515 0.67347264
0.59287316 0.60992455 0.71468723
0.63149405 0.60215622 0.74883521
0.52314436 0.61185086 0.62299651
0.56693071 0.61293644 0.66421032
0.60556334 0.60816759 0.69841236
0.64923644 0.60434455 0.73453778
0.53595877 0.61298496 0.61277366
0.57559508 0.60921228 0.64697492
0.6213249 0.61034507 0.68515217
0.6639154 0.60459822 0.71726167
0.54774666 0.61214101 0.60153389
0.59039032 0.61035728 0.63571477
0.63094765 0.6056537 0.66588062
0.67348206 0.59996116 0.69499117
0.56056881 0.61527467 0.59134698
0.60214472 0.61054945 0.62249368
0.64775831 0.61079085 0.65465498
0.69122845 0.60314929 0.68071169
0.56928933 0.61149633 0.57711059
0.61285788 0.60978138 0.60727412
0.65738499 0.60709929 0.63540143
0.70591521 0.60540265 0.6634717
0.58313006 0.61460835 0.56790459
0.62357116 0.60901344 0.59205449
0.67010176 0.60732394 0.62016225
0.71755344 0.60470337 0.6442346
0.59187716 0.61281168 0.55470395
0.63632536 0.60920191 0.57881463
0.68687093 0.61149746 0.60691929
0.730214 0.60498232 0.62599641
0.60467279 0.61396378 0.54348141
0.64806503 0.61041194 0.56461185
0.69450194 0.60881293 0.58772135
0.74083358 0.60430479 0.60577846
0.61442757 0.61416304 0.53029788
0.66084582 0.61258209 0.55240768
0.70923018 0.61202997 0.57249862
0.74943095 0.60265273 0.58458042
0.62620062 0.61433703 0.51807648
0.67054045 0.61183578 0.5362072
0.71890616 0.61130172 0.55529845
0.76211816 0.60491323 0.56737792
0.63495171 0.61354005 0.50489372
0.67720515 0.60811883 0.51900935
0.72856337 0.61059153 0.53709865
0.7757864 0.60718834 0.54915702
0.64470649 0.61373937 0.49171025
0.69097102 0.61130315 0.50580472
0.73722076 0.6098851 0.51891762
0.78336519 0.60555786 0.52697814
0.65749121 0.61690915 0.47952405
0.69966978 0.61156029 0.48964104
0.74585944 0.60919666 0.49973691
0.79301155 0.60686547 0.50781471
0.66622347 0.61613029 0.46534169
0.70631969 0.60886139 0.47146153
0.75147218 0.60653734 0.47957689
0.79758698 0.60424602 0.48567411
0.67292964 0.61337703 0.45016119
0.71604097 0.61009663 0.45629677
0.76420456 0.6107614 0.46440977
0.80721462 0.60557175 0.46551102
0.67761338 0.60964924 0.43400058
0.72576225 0.61133188 0.44113195
0.77284724 0.61107278 0.44524711
0.81786859 0.60887545 0.44636482
0.68937957 0.61284071 0.42083353
0.73648727 0.61356342 0.42596638
0.78050876 0.61136967 0.42710289
0.8234517 0.60825205 0.42424151
0.69914228 0.61503977 0.40768611
0.74316376 0.61284596 0.4088226
0.78917408 0.61266273 0.4089579
0.83207953 0.60958135 0.40409717
0.70687467 0.61426449 0.3935225
0.75186646 0.61410296 0.39267692
0.79176855 0.61003238 0.38785458
0.83365548 0.60697263 0.38201299
0.71559227 0.6145035 0.37835845
0.75549823 0.61143279 0.37355411
0.80043781 0.61232537 0.36972758
0.84026498 0.60832721 0.3609066
0.72128767 0.6137715 0.3622331
0.7621786 0.6117152 0.35642835
0.81315547 0.6175673 0.35357881
0.84386712 0.60769284 0.33982056
0.73002785 0.61499226 0.34808677
0.77291155 0.61594635 0.34129882
0.81575781 0.61693656 0.33251154
0.84948069 0.61005086 0.31875098
0.73975301 0.61722744 0.33293998
0.77856946 0.61525059 0.32317418
0.82240474 0.61825496 0.3134045
0.85609412 0.6124053 0.29766259
0.74444473 0.6154992 0.31681541
0.78525388 0.61653286 0.30606639
0.82602566 0.61760259 0.29331809
0.85767788 0.61179626 0.27561444
0.75114775 0.61676341 0.30070731
0.78991592 0.61684048 0.28797853
0.82864672 0.61695379 0.27325046
0.86128789 0.61316156 0.2545644
0.75986916 0.61800224 0.28556132
0.79054427 0.61318123 0.26889414
0.83329397 0.61827934 0.25418097
0.86590165 0.6155231 0.23351362
0.76556855 0.61827016 0.269454
0.79823637 0.61645955 0.25180361
0.82988167 0.61367083 0.23315439
0.60585672 0.41874924 0.16479962
0.76824182 0.61656719 0.25236732
0.80389822 0.61676359 0.233697
0.57681972 0.4128724 0.16423675
0.58746409 0.40414196 0.14687367
0.77594864 0.61882758 0.23625848
0.57296908 0.42679393 0.16956249
0.56044936 0.39923972 0.14729092
0.55199003 0.37763399 0.12705162
0.64768559 0.50711662 0.19162405
0.56263202 0.41712093 0.15357563
0.54512423 0.38756695 0.13236164
-0.02611593 -0.059798401 0.050936799
0.5537588 0.42506146 0.15888721
0.55030632 0.40543741 0.13858998
0.54285061 0.38482788 0.11834991
-0.02611593 -0.059798401 0.050936799
0.54949254 0.41931197 0.14585868
0.55106276 0.40566897 0.1255756
0.54561454 0.38705191 0.10533398
0.55322987 0.38036805 0.086063966
0.54422253 0.4125663 0.13283089
0.55081147 0.40390447 0.11254398
0.56243783 0.40020576 0.093252853
0.55698663 0.38560617 0.072083645
0.53996027 0.40781659 0.11982037
0.56364244 0.41405508 0.1014836
0.57525003 0.41037446 0.081192821
0.61492807 0.43060738 0.05980869
0.54877234 0.41298246 0.10874507
0.58447671 0.43019405 0.089381367
0.63119185 0.45538291 0.068955451
0.6266883 0.44183379 0.04478649
0.56862164 0.42810711 0.097643271
0.60932213 0.4493182 0.077258021
0.6289075 0.45466161 0.053980101
0.62942648 0.44709352 0.029825294
0.60955256 0.46013543 0.087452844
0.62611192 0.46350801 0.063195586
0.62764555 0.45491847 0.040003635
0.63715696 0.45535287 0.013824537
0.60928655 0.45938888 0.073439561
0.61880875 0.45780545 0.048224092
0.6303798 0.45917836 0.025024422
0.62485075 0.44866842 -0.0010710172
0.63812423 0.48151618 0.060295448
0.61455435 0.45505556 0.035249606
0.64212132 0.4704228 0.0090025589
0.63858491 0.46292332 -0.01807607
0.61179912 0.4598484 0.047392003
0.62532556 0.46426776 0.021209821
0.63181877 0.46473104 -0.0059125647
0.60228735 0.43825582 -0.028846338
0.61153305 0.45910186 0.033378731
0.63907051 0.47650489 0.0051683933
0.63154572 0.46700206 -0.020871438
0.58801514 0.43054253 -0.04172302
0.62230438 0.46831402 0.019338945
0.65081197 0.48774943 -0.010853462
0.6122548 0.45430759 -0.033744261
0.5777539 0.42581445 -0.054620799
0.65107507 0.49251339 0.0022322237
0.63452446 0.47604403 -0.023764633
0.59499002 0.44358757 -0.045618951
0.58547735 0.43709138 -0.071567148
0.6477977 0.48877811 -0.011778731
0.61723697 0.46434218 -0.036657013
0.57872903 0.43386373 -0.057494421
-0.02611593 -0.059798401 0.050936799
0.62450659 0.47108075 -0.023666814
0.59996825 0.45262235 -0.048549727
0.56647903 0.42712507 -0.069390997
0.60991663 0.46764773 -0.10748417
0.61022246 0.46036807 -0.03659755
0.59270656 0.44788352 -0.061503872
0.58320564 0.44438678 -0.087398037
0.79627901 0.62914306 -0.17407465
0.59595716 0.4496372 -0.048528623
0.57345301 0.43515289 -0.072377369
0.67380655 0.52371603 -0.12467195
0.79192102 0.63351852 -0.19392064
0.58271831 0.44088441 -0.059442777
0.58120596 0.44439396 -0.087360457
0.79725707 0.63317496 -0.1760207
0.78457052 0.63488722 -0.21276465
0.5694567 0.43114978 -0.07137461
0.71674204 0.56175417 -0.13579153
0.7899214 0.63352573 -0.19388306
0.20013323 0.13678262 -0.028770257
0.59619033 0.45539254 -0.09044309
0.78926855 0.62616873 -0.17399718
0.78060079 0.63286567 -0.21072622
0.19205892 0.13186644 -0.031709008
0.68378001 0.53173304 -0.12771469
0.78790992 0.6305334 -0.19389953
0.20113699 0.13777886 -0.028771028
-0.02611593 -0.059798401 0.050936799
0.79625642 0.62816131 -0.17509234
0.77958918 0.62986982 -0.21076147
0.18709636 0.12683098 -0.028706163
0.15503451 0.10493147 -0.027501617
0.79491258 0.63150811 -0.19401304
0.20114785 0.13576111 -0.027807407
-0.02611593 -0.059798401 0.050936799
-0.02611593 -0.059798401 0.050936799
0.78557634 0.62684876 -0.21092828
0.18709242 0.12583114 -0.028724182
0.16299653 0.10995618 -0.030560825
0.1349832 0.091005631 -0.027378064
0.20114 0.13376145 -0.027843446
-0.02611593 -0.059798401 0.050936799
-0.02611593 -0.059798401 0.050936799
-0.02611593 -0.059798401 0.050936799
0.18409204 0.12082468 -0.027758244
0.17097726 0.11496278 -0.032620378
0.1429452 0.09603034 -0.030437272
0.11990922 0.081097342 -0.029275708
-0.02611593 -0.059798401 0.050936799
-0.02611593 -0.059798401 0.050936799
-0.02611593 -0.059798401 0.050936799
-0.02611593 -0.059798401 0.050936799
0.16102555 0.10291027 -0.027650394
0.14492613 0.096041247 -0.03147452
0.12389761 0.083100736 -0.03031449
0.10489141 0.071134776 -0.028174374
-0.02611593 -0.059798401 0.050936799
-0.02611593 -0.059798401 0.050936799
-0.02611593 -0.059798401 0.050936799
-0.02611593 -0.059798401 0.050936799
0.13894804 0.087010041 -0.028524958
0.12589332 0.082093738 -0.03037009
0.11183095 0.075181343 -0.032232475
0.088869855 0.060176 -0.027072273
-0.02611593 -0.059798401 0.050936799
-0.02611593 -0.059798401 0.050936799
-0.02611593 -0.059798401 0.050936799
-0.02611593 -0.059798401 0.050936799
0.12190402 0.075073101 -0.028421741
0.11085286 0.071149424 -0.030286439
0.097798161 0.066233121 -0.032131571
0.078848131 0.054212902 -0.026992477
-0.02611593 -0.059798401 0.050936799
-0.02611593 -0.059798401 0.050936799
-0.02611593 -0.059798401 0.050936799
-0.02611593 -0.059798401 0.050936799
0.10587854 0.063114472 -0.027337652
0.097805105 0.063215539 -0.031185973
0.081828848 0.054220226 -0.028048508
0.065852605 0.045224916 -0.024911039
-0.02611593 -0.059798401 0.050936799
-0.02611593 -0.059798401 0.050936799
-0.02611593 -0.059798401 0.050936799
-0.02611593 -0.059798401 0.050936799
0.088886753 0.050123427 -0.024253473
0.085775875 0.055259969 -0.031104635
0.073777162 0.05028579 -0.029969577
0.058823381 0.042268638 -0.025833219
-0.02611593 -0.059798401 0.050936799
-0.02611593 -0.059798401 0.050936799
-0.02611593 -0.059798401 0.050936799
-0.02611593 -0.059798401 0.050936799
0.078846298 0.044178426 -0.025173336
0.07476519 0.047282718 -0.030042421
0.064755239 0.044319116 -0.029908571
0.048835151 0.035269536 -0.023772128
-0.02611593 -0.059798401 0.050936799
-0.02611593 -0.059798401 0.050936799
-0.02611593 -0.059798401 0.050936799
-0.02611593 -0.059798401 0.050936799
0.067835614 0.036201179 -0.024111129
0.06674701 0.042312283 -0.029982187
0.055755973 0.039334171 -0.028829891
0.043794703 0.034323826 -0.02569551
-0.02611593 -0.059798401 0.050936799
-0.02611593 -0.059798401 0.050936799
-0.02611593 -0.059798401 0.050936799
-0.02611593 -0.059798401 0.050936799
0.058817621 0.031234333 -0.024032105
0.057729028 0.037345432 -0.029903166
0.049730495 0.037374143 -0.029752843
0.036798995 0.030331546 -0.024636392
-0.02611593 -0.059798401 0.050936799
-0.02611593 -0.059798401 0.050936799
-0.02611593 -0.059798401 0.050936799
-0.02611593 -0.059798401 0.050936799
0.053788029 0.028270865 -0.024991866
0.049729578 0.032356903 -0.028843276
0.041731037 0.03238561 -0.02869295
0.032777075 0.029364154 -0.025578909
-0.02611593 -0.059798401 0.050936799
-0.02611593 -0.059798401 0.050936799
-0.02611593 -0.059798401 0.050936799
-0.02611593 -0.059798401 0.050936799
0.046758808 0.025314594 -0.025914051
0.042719077 0.029382531 -0.028765798
0.037690401 0.031436324 -0.030635133
-0.02611593 -0.059798401 0.050936799
-0.02611593 -0.059798401 0.050936799
-0.02611593 -0.059798401 0.050936799
-0.02611593 -0.059798401 0.050936799
-0.02611593 -0.059798401 0.050936799
0.041714415 0.023369055 -0.027855456
0.037674688 0.027437 -0.030707207
0.029728396 0.026411613 -0.027575918
-0.02611593 -0.059798401 0.050936799
-0.02611593 -0.059798401 0.050936799
-0.02611593 -0.059798401 0.050936799
-0.02611593 -0.059798401 0.050936799
-0.02611593 -0.059798401 0.050936799
0.033748481 0.017344514 -0.024814259
0.03067898 0.023444712 -0.02964808
0.015907584 0.0092295939 -0.014623571
-0.02611593 -0.059798401 0.050936799
-0.02611593 -0.059798401 0.050936799
-0.02611593 -0.059798401 0.050936799
-0.02611593 -0.059798401 0.050936799
-0.02611593 -0.059798401 0.050936799
0.025786478 0.012319813 -0.021755043
0.026657069 0.022477325 -0.030590605
0.013844841 0.012308612 -0.018530577
-0.02611593 -0.059798401 0.050936799
-0.02611593 -0.059798401 0.050936799
-0.02611593 -0.059798401 0.050936799
-0.02611593 -0.059798401 0.050936799
-0.02611593 -0.059798401 0.050936799
0.022730859 0.012384847 -0.024697654
0.020679899 0.018463364 -0.028550606
0.015659081 0.022516802 -0.030383907
-0.02611593 -0.059798401 0.050936799
-0.02611593 -0.059798401 0.050936799
-0.02611593 -0.059798401 0.050936799
-0.02611593 -0.059798401 0.050936799
-0.02611593 -0.059798401 0.050936799
0.018694142 0.01243538 -0.026621819
0.016643187 0.018513899 -0.030474771
0.010670858 0.020517003 -0.029326327
0.001817445 0.014387519 -0.020268373
-0.02611593 -0.059798401 0.050936799
-0.02611593 -0.059798401 0.050936799
-0.02611593 -0.059798401 0.050936799
-0.02611593 -0.059798401 0.050936799
0.014672227 0.011467994 -0.027564336
0.012591675 0.019582354 -0.033380579
0.0066528725 0.020549448 -0.030250832
-0.0012115928 0.016434126 -0.02217529
-0.02611593 -0.059798401 0.050936799
-0.02611593 -0.059798401 0.050936799
-0.02611593 -0.059798401 0.050936799
-0.02611593 -0.059798401 0.050936799
0.0086989868 0.0084538655 -0.025506321
0.00760346 0.017582539 -0.032322995
0.0016942429 0.016513804 -0.027229965
-0.0051999954 0.014430731 -0.0211365
-0.02611593 -0.059798401 0.050936799
-0.02611593 -0.059798401 0.050936799
-0.02611593 -0.059798401 0.050936799
-0.02611593 -0.059798401 0.050936799
0.0046918653 0.0064685522 -0.025467198
0.0045369733 0.019665331 -0.036229234
-0.0013535194 0.0185785 -0.030136541
-0.0082290368 0.016477337 -0.023043416
-0.02611593 -0.059798401 0.050936799
-0.02611593 -0.059798401 0.050936799
-0.02611593 -0.059798401 0.050936799
-0.02611593 -0.059798401 0.050936799
0.00067387416 0.0065009966 -0.0263917
-0.0013731573 0.013579345 -0.030226633
-0.0063378112 0.017578516 -0.029060941
-0.011232414 0.015488273 -0.023005065
-0.02611593 -0.059798401 0.050936799
-0.02611593 -0.059798401 0.050936799
-0.02611593 -0.059798401 0.050936799
-0.02611593 -0.059798401 0.050936799
-0.0033441172 0.0065334416 -0.027316198
-0.0053911484 0.013611791 -0.031151123
-0.0093707796 0.0186253 -0.030985869
-0.015231683 0.015502628 -0.022929903
-0.02611593 -0.059798401 0.050936799
-0.02611593 -0.059798401 0.050936799
-0.02611593 -0.059798401 0.050936799
-0.02611593 -0.059798401 0.050936799
-0.0063622906 0.0065622972 -0.028259486
-0.0094091399 0.013644235 -0.032075629
-0.013370046 0.018639654 -0.030910708
-0.018245928 0.016531315 -0.023855168
-0.02611593 -0.059798401 0.050936799
-0.02611593 -0.059798401 0.050936799
-0.02611593 -0.059798401 0.050936799
-0.02611593 -0.059798401 0.050936799
-0.02611593 -0.059798401 0.050936799
-0.01342713 0.01367668 -0.033000134
-0.017388038 0.018672099 -0.03183521
-0.021245379 0.016542083 -0.023798797
-0.02611593 -0.059798401 0.050936799
-0.02611593 -0.059798401 0.050936799
-0.02611593 -0.059798401 0.050936799
-0.02611593 -0.059798401 0.050936799
-0.02611593 -0.059798401 0.050936799
-0.017422471 0.014690866 -0.032906953
-0.021372512 0.017668527 -0.030778401
-0.025255516 0.018574188 -0.024687257
-0.02611593 -0.059798401 0.050936799
-0.02611593 -0.059798401 0.050936799
-0.02611593 -0.059798401 0.050936799
-0.02611593 -0.059798401 0.050936799
-0.02611593 -0.059798401 0.050936799
-0.02139215 0.012669383 -0.030868493
-0.02432365 0.015625373 -0.02775909
-0.027240355 0.017563438 -0.023668036
-0.02611593 -0.059798401 0.050936799
-0.02611593 -0.059798401 0.050936799
-0.02611593 -0.059798401 0.050936799
-0.02611593 -0.059798401 0.050936799
-0.02611593 -0.059798401 0.050936799
-0.025406212 0.013701658 -0.031774979
-0.027371414 0.017690063 -0.030665658
-0.030176699 0.014502364 -0.019667078
-0.02611593 -0.059798401 0.050936799
-0.02611593 -0.059798401 0.050936799
-0.02611593 -0.059798401 0.050936799
-0.02611593 -0.059798401 0.050936799
-0.02611593 -0.059798401 0.050936799
-0.028357349 0.011658496 -0.028755661
-0.031351961 0.017686328 -0.029590845
-0.03320181 0.017548794 -0.021555975
-0.02611593 -0.059798401 0.050936799
-0.02611593 -0.059798401 0.050936799
-0.02611593 -0.059798401 0.050936799
-0.02611593 -0.059798401 0.050936799
-0.02611593 -0.059798401 0.050936799
-0.032404929 0.01372678 -0.031643447
-0.034347482 0.018696932 -0.029516455
-0.036142081 0.013487889 -0.017573033
-0.02611593 -0.059798401 0.050936799
-0.02611593 -0.059798401 0.050936799
-0.02611593 -0.059798401 0.050936799
-0.02611593 -0.059798401 0.050936799
-0.032331869 0.0036199465 -0.025825668
-0.035385657 0.013719458 -0.030587409
-0.038328029 0.018693201 -0.028441623
-0.039152402 0.015516406 -0.018480282
-0.02611593 -0.059798401 0.050936799
-0.02611593 -0.059798401 0.050936799
-0.02611593 -0.059798401 0.050936799
-0.02611593 -0.059798401 0.050936799
-0.036360729 0.0056701414 -0.027713791
-0.039366208 0.013715724 -0.029512592
-0.042352956 0.021743219 -0.030311726
-0.02611593 -0.059798401 0.050936799
-0.02611593 -0.059798401 0.050936799
-0.02611593 -0.059798401 0.050936799
-0.02611593 -0.059798401 0.050936799
-0.02611593 -0.059798401 0.050936799
-0.04035607 0.0066843205 -0.027620606
-0.043376338 0.01574783 -0.030401047
-0.045304097 0.019700063 -0.027292415
-0.02611593 -0.059798401 0.050936799
-0.02611593 -0.059798401 0.050936799
-0.02611593 -0.059798401 0.050936799
-0.02611593 -0.059798401 0.050936799
-0.02611593 -0.059798401 0.050936799
-0.044336617 0.0066805868 -0.026545785
-0.047356889 0.015744098 -0.029326234
-0.049318161 0.020732339 -0.028198894
-0.02611593 -0.059798401 0.050936799
-0.02611593 -0.059798401 0.050936799
-0.02611593 -0.059798401 0.050936799
-0.02611593 -0.059798401 0.050936799
-0.02611593 -0.059798401 0.050936799
-0.048317157 0.0066768536 -0.025470965
-0.051337432 0.015740365 -0.028251406
-0.05433898 0.024785776 -0.030032188
-0.02611593 -0.059798401 0.050936799
-0.02611593 -0.059798401 0.050936799
-0.02611593 -0.059798401 0.050936799
-0.02611593 -0.059798401 0.050936799
-0.02611593 -0.059798401 0.050936799
-0.052312501 0.0076910472 -0.025377784
-0.056362178 0.018793978 -0.030102715
-0.054153588 0.014570409 -0.018216446
-0.02611593 -0.059798401 0.050936799
-0.02611593 -0.059798401 0.050936799
-0.02611593 -0.059798401 0.050936799
-0.02611593 -0.059798401 0.050936799
-0.02611593 -0.059798401 0.050936799
-0.055274509 0.007665636 -0.023322087
-0.061383002 0.022847418 -0.03193602
-0.057134315 0.014563086 -0.017160416
-0.02611593 -0.059798401 0.050936799
-0.02611593 -0.059798401 0.050936799
-0.02611593 -0.059798401 0.050936799
-0.02611593 -0.059798401 0.050936799
-0.02611593 -0.059798401 0.050936799
-0.060265739 0.0096832421 -0.023192097
-0.066374235 0.024865024 -0.031806033
-0.02611593 -0.059798401 0.050936799
-0.02611593 -0.059798401 0.050936799
-0.02611593 -0.059798401 0.050936799
-0.02611593 -0.059798401 0.050936799
-0.02611593 -0.059798401 0.050936799
-0.02611593 -0.059798401 0.050936799
-0.0673493 0.016815707 -0.028932404
-0.067277417 0.020760762 -0.025861345
-0.074363075 0.036927871 -0.033438805
-0.02611593 -0.059798401 0.050936799
-0.02611593 -0.059798401 0.050936799
-0.02611593 -0.059798401 0.050936799
-0.02611593 -0.059798401 0.050936799
-0.02611593 -0.059798401 0.050936799
-0.070296511 0.015772374 -0.025895067
-0.07123924 0.020738939 -0.023786858
-0.06912335 0.021623051 -0.017808456
-0.071076766 0.028610945 -0.016645085
-0.02611593 -0.059798401 0.050936799
-0.02611593 -0.059798401 0.050936799
-0.02611593 -0.059798401 0.050936799
-0.02611593 -0.059798401 0.050936799
-0.07528381 0.018789813 -0.025747057
-0.067024983 0.0084733758 -0.010082986
-0.071059875 0.018558387 -0.013826285
-0.07914836 0.038746499 -0.022312537
-0.02611593 -0.059798401 0.050936799
-0.02611593 -0.059798401 0.050936799
-0.02611593 -0.059798401 0.050936799
-0.02611593 -0.059798401 0.050936799
-0.079241708 0.019767821 -0.02365455
-0.085287087 0.03187776 -0.028323896
-0.08828079 0.042922832 -0.03006864
-0.087190367 0.046846196 -0.026016712
-0.02611593 -0.059798401 0.050936799
-0.02611593 -0.059798401 0.050936799
-0.02611593 -0.059798401 0.050936799
-0.02611593 -0.059798401 0.050936799
