# .PCD v0.7 - Point Cloud Data file format
VERSION 0.7
FIELDS x y z
SIZE 4 4 4
TYPE F F F
COUNT 1 1 1
WIDTH 1369
HEIGHT 1
VIEWPOINT 0 0 0 1 0 0 0
POINTS 1369
DATA ascii
-0.02611593 -0.059798401 0.050936799
-0.02611593 -0.059798401 0.050936799
-0.16601487 0.088122755 -0.0237935
-0.16008301 0.090173237 -0.027868856
-0.14808613 0.085112929 -0.027184766
-0.13104276 0.072963506 -0.022722129
-0.02611593 -0.059798401 0.050936799
-0.02611593 -0.059798401 0.050936799
-0.02611593 -0.059798401 0.050936799
-0.02611593 -0.059798401 0.050936799
-0.17994645 0.10015287 -0.022314556
-0.17401853 0.1012035 -0.026407916
-0.16104054 0.096157715 -0.026742287
-0.14101343 0.079998203 -0.022408098
-0.02611593 -0.059798401 0.050936799
-0.02611593 -0.059798401 0.050936799
-0.02611593 -0.059798401 0.050936799
-0.02611593 -0.059798401 0.050936799
-0.19688444 0.11521132 -0.021724839
-0.18996061 0.11525855 -0.025855009
-0.17298819 0.10418133 -0.025372997
-0.15398657 0.091061093 -0.022965275
-0.02611593 -0.059798401 0.050936799
-0.02611593 -0.059798401 0.050936799
-0.02611593 -0.059798401 0.050936799
-0.02611593 -0.059798401 0.050936799
-0.22382268 0.13934033 -0.022784367
-0.20989019 0.13232745 -0.025172882
-0.18590908 0.11419012 -0.022949208
-0.16894062 0.10211305 -0.022485211
-0.02611593 -0.059798401 0.050936799
-0.02611593 -0.059798401 0.050936799
-0.02611593 -0.059798401 0.050936799
-0.02611593 -0.059798401 0.050936799
-0.25072348 0.16343315 -0.021844577
-0.22980101 0.14937826 -0.023491103
-0.20886378 0.13430543 -0.024155982
-0.18689319 0.11819301 -0.022858344
-0.02611593 -0.059798401 0.050936799
-0.02611593 -0.059798401 0.050936799
-0.02611593 -0.059798401 0.050936799
-0.02611593 -0.059798401 0.050936799
-0.74342954 0.64670414 -0.14692032
-0.25568721 0.17244956 -0.02158846
-0.22877464 0.15135624 -0.022474192
-0.2098331 0.13729042 -0.023083471
-0.74714798 0.64644718 -0.13185024
-0.02611593 -0.059798401 0.050936799
-0.02611593 -0.059798401 0.050936799
-0.02611593 -0.059798401 0.050936799
-0.75283939 0.64817894 -0.11570688
-0.73430014 0.64654523 -0.14009181
-0.26366523 0.18249466 -0.022257619
-0.2267267 0.14929514 -0.01954883
-0.75254768 0.64588988 -0.099748328
-0.7400142 0.64729524 -0.12496614
-0.02611593 -0.059798401 0.050936799
-0.02611593 -0.059798401 0.050936799
-0.75323313 0.64458609 -0.08275333
-0.74672031 0.65004855 -0.10978563
-0.73317218 0.65043241 -0.13404055
-0.25763369 0.17641988 -0.019479487
-0.75494802 0.64532179 -0.067702807
-0.74743235 0.64676321 -0.093826316
-0.7409007 0.65220749 -0.11985893
-0.02611593 -0.059798401 0.050936799
-0.75565225 0.64403611 -0.051707454
-0.75112814 0.647488 -0.077738553
-0.74259788 0.64790791 -0.1028992
-0.73406756 0.64832783 -0.12805983
-0.75334603 0.64072186 -0.034804866
-0.75182146 0.64418459 -0.060779572
-0.74630153 0.64663297 -0.086847477
-0.73978955 0.64707816 -0.1129702
-0.75705272 0.64346445 -0.019680738
-0.75354022 0.64392042 -0.045747086
-0.75199687 0.64736497 -0.070722133
-0.74948025 0.64882427 -0.096751675
-0.75575727 0.64217162 -0.0037229583
-0.75624013 0.64364177 -0.029696137
-0.75470066 0.64608645 -0.054689206
-0.75117344 0.6455245 -0.079773903
-0.75844538 0.64489239 0.012382053
-0.75694036 0.64335591 -0.013682768
-0.75640863 0.64380455 -0.038693078
-0.75886846 0.64626354 -0.063610986
-0.75816458 0.64462107 0.027376965
-0.76063222 0.64508045 0.0024230182
-0.76008964 0.64351141 -0.021623679
-0.76257205 0.64498866 -0.047559261
-0.75786501 0.64433163 0.04337154
-0.76332819 0.64580172 0.018491983
-0.76677692 0.64624655 -0.0054435059
-0.76825267 0.64470273 -0.030452281
-0.75656557 0.64403862 0.059347332
-0.76004487 0.6415022 0.034358118
-0.76848102 0.64496446 0.01057063
-0.77392942 0.64541656 -0.013327286
-0.75329316 0.64175689 0.074249834
-0.76172227 0.64220166 0.051407956
-0.76717854 0.64065409 0.027474001
-0.78159785 0.64813721 0.0038713291
-0.75002068 0.63947511 0.089152344
-0.76242256 0.64191586 0.067421325
-0.77184767 0.64336401 0.044616252
-0.78229511 0.64383405 0.020812292
-0.74873614 0.64020008 0.10414648
-0.7661252 0.6456582 0.082563475
-0.77153724 0.6410569 0.061574452
-0.7859574 0.6435228 0.03888135
-0.75243098 0.64594203 0.11932468
-0.76084626 0.64035165 0.098374009
-0.77522898 0.64278138 0.07768023
-0.78762394 0.64220452 0.056894809
-0.74813998 0.64363861 0.13520806
-0.76054275 0.64106202 0.1143866
-0.77393746 0.64048874 0.09361998
-0.78831321 0.63990092 0.073871799
-0.74288672 0.64136773 0.14907332
-0.76123518 0.64277583 0.130436
-0.77661079 0.64219165 0.11070663
-0.7919904 0.64060766 0.090959229
-0.73661864 0.63807541 0.16390143
-0.75993574 0.64248282 0.14641179
-0.77430069 0.63987732 0.12762725
-0.79266095 0.63828588 0.10893587
-0.7353341 0.63880032 0.17889558
-0.75564879 0.63917965 0.16227716
-0.77496356 0.63955534 0.14563994
-0.79230917 0.63694239 0.12791142
-0.73204994 0.63951802 0.19385214
-0.75434542 0.63988638 0.17827097
-0.77564114 0.64025122 0.16267098
-0.79596359 0.63863081 0.14601651
-0.72580063 0.6362437 0.20768061
-0.74807745 0.636594 0.19309908
-0.77333099 0.63793683 0.1795916
-0.79660767 0.6382907 0.16502887
-0.71855158 0.63296592 0.22149026
-0.74775523 0.63728637 0.21011133
-0.77200902 0.63862556 0.19658507
-0.79926234 0.63997555 0.18311518
-0.71725917 0.63569045 0.23652044
-0.74644804 0.63899302 0.22612315
-0.76869917 0.6363076 0.21348691
-0.79791075 0.63862848 0.20207193
-0.71100205 0.63441581 0.25038493
-0.73918414 0.6346972 0.24091446
-0.76638126 0.63599288 0.23044355
-0.7965591 0.63728136 0.22102869
-0.70970964 0.63714045 0.26541513
-0.73588121 0.63539684 0.25687069
-0.76603645 0.637667 0.2484735
-0.7961995 0.63793755 0.24004026
-0.70542562 0.63785452 0.28035289
-0.73257828 0.63609648 0.27282691
-0.76172274 0.63634527 0.26537454
-0.79583979 0.63859361 0.25905183
-0.69621825 0.63360584 0.29210764
-0.72730619 0.63380754 0.28769183
-0.75840896 0.63502717 0.28229439
-0.79348832 0.63724291 0.2779898
-0.69095314 0.63433444 0.30602697
-0.72202629 0.63351828 0.30259281
-0.75311822 0.63272017 0.298159
-0.79212886 0.63789546 0.29698259
-0.68666905 0.63504863 0.32096475
-0.72169232 0.63721007 0.31965911
-0.74977779 0.63338357 0.31611454
-0.79075068 0.6385299 0.31697503
-0.67745787 0.63179982 0.33273748
-0.71047449 0.6309365 0.33233994
-0.74842924 0.63605398 0.3341437
-0.78739154 0.63917524 0.33593023
-0.67318463 0.63453168 0.34671164
-0.70814085 0.63462108 0.34936863
-0.7421385 0.63374323 0.34998947
-0.78007156 0.63482523 0.35372052
-0.66397744 0.630283 0.35846639
-0.70483398 0.63632059 0.36534286
-0.73977143 0.63639194 0.36899951
-0.77276629 0.63149309 0.3705292
-0.65773112 0.63102615 0.37136728
-0.69558525 0.63303548 0.37911496
-0.73150378 0.63309228 0.38379008
-0.77333063 0.63709772 0.39264864
-0.65146625 0.63175112 0.38526779
-0.68930161 0.63374245 0.39401513
-0.72616374 0.63374865 0.40170801
-0.76700264 0.63475096 0.41049376
-0.64324689 0.63050556 0.39709538
-0.68302184 0.63344961 0.40889734
-0.71492726 0.62745696 0.41538846
-0.76064801 0.63438576 0.42937458
-0.63600487 0.63024527 0.40995944
-0.67576492 0.63217139 0.42274302
-0.709602 0.6291312 0.43232483
-0.75329739 0.633017 0.44821858
-0.62875873 0.63098484 0.42284152
-0.66748559 0.63187134 0.43758762
-0.70623112 0.63277602 0.45133406
-0.74498844 0.63068116 0.46502647
-0.62053949 0.62973922 0.43466911
-0.66317505 0.63456708 0.45356107
-0.69793689 0.63145804 0.46716031
-0.737634 0.63031232 0.48388851
-0.61231631 0.62949342 0.44651473
-0.6499911 0.62932229 0.46422297
-0.69358891 0.6341176 0.48513311
-0.73127544 0.63094693 0.50278735
-0.6030972 0.62824422 0.45832351
-0.6417343 0.62804055 0.4780499
-0.68034881 0.62881851 0.49879399
-0.71702081 0.6246264 0.51741105
-0.596847 0.62998718 0.47124243
-0.63050085 0.62576622 0.49080276
-0.67107356 0.62751508 0.51360178
-0.71065825 0.62626082 0.5363279
-0.58469647 0.62578201 0.47994179
-0.62126303 0.62449884 0.50361121
-0.66374868 0.6291821 0.53050053
-0.70230007 0.62688828 0.55518919
-0.57647324 0.62553626 0.49178743
-0.61497146 0.62720555 0.51854748
-0.65247768 0.62687165 0.54525268
-0.69198751 0.62554502 0.57197744
-0.57021523 0.62927884 0.50474232
-0.60863847 0.63087583 0.535501
-0.64219874 0.62656438 0.56005973
-0.6796754 0.62419462 0.58872819
-0.55806464 0.62507367 0.51344168
-0.59742373 0.62861961 0.5472542
-0.63291955 0.62626076 0.57488549
-0.67231303 0.62582552 0.60762626
-0.55078804 0.62879461 0.52737749
-0.58818203 0.62835217 0.56008071
-0.62459481 0.6279242 0.59176546
-0.66097808 0.62546039 0.62541354
-0.54353422 0.63153386 0.5402956
-0.57696331 0.62709576 0.57185191
-0.61232007 0.62660998 0.60651684
-0.65063894 0.62609869 0.64323747
-0.5313797 0.6283285 0.54901302
-0.56572187 0.62682116 0.58464074
-0.60106003 0.62631726 0.62030542
-0.63734567 0.62476283 0.65896976
-0.52022105 0.62612653 0.55776727
-0.55549902 0.6265682 0.59644884
-0.59075445 0.62799156 0.6361481
-0.62014765 0.61848575 0.67053819
-0.51001692 0.62589169 0.56857562
-0.54328048 0.62530822 0.60820132
-0.57947552 0.62768072 0.65093637
-0.61175513 0.62309438 0.69047111
-0.50080472 0.62766004 0.57943881
-0.53301233 0.62701869 0.62204468
-0.56428415 0.62442845 0.66159672
-0.59843528 0.62374008 0.70723915
-0.48964217 0.62645793 0.588211
-0.51983935 0.62379164 0.63174295
-0.55297875 0.62609923 0.67742062
-0.5812521 0.61848092 0.71782583
-0.47845697 0.62623757 0.598001
-0.50958991 0.62552029 0.64458674
-0.54071885 0.62580287 0.69119036
-0.56695509 0.61814129 0.7335574
-0.46824896 0.62700248 0.60882735
-0.49445856 0.62132239 0.65223002
-0.52650064 0.62453574 0.70290524
-0.55365002 0.6198048 0.74934369
-0.45805961 0.6277855 0.61865407
-0.48516363 0.62501812 0.66712797
-0.51321429 0.62621737 0.7176919
-0.53741741 0.61751264 0.76200259
-0.44784763 0.6295504 0.62949848
-0.47100556 0.62280542 0.67582572
-0.4989962 0.62495023 0.72940677
-0.52213937 0.61718744 0.7767157
-0.43571183 0.6263631 0.63721621
-0.45973369 0.62551218 0.68966836
-0.48477799 0.62368309 0.74112165
-0.50783443 0.61884743 0.79248327
-0.422591 0.62419021 0.64393353
-0.44559821 0.62231773 0.69734854
-0.46762437 0.62045985 0.74974507
-0.48962095 0.61656612 0.80410492
-0.41237512 0.62695473 0.65479594
-0.43141356 0.62208658 0.70708203
-0.45340228 0.62019253 0.76147795
-0.47435763 0.61725885 0.81783628
-0.39828104 0.62279665 0.66045874
-0.41725156 0.62087375 0.71579796
-0.43817642 0.62092143 0.77321005
-0.45712128 0.61596286 0.8304944
-0.38613349 0.6226089 0.66823059
-0.40503994 0.62263137 0.72660476
-0.42199606 0.61968327 0.782888
-0.4389413 0.61471748 0.84013474
-0.37587225 0.62733698 0.68112838
-0.39083657 0.62238216 0.73733795
-0.40870577 0.62236482 0.79769266
-0.42265549 0.61638844 0.85486507
-0.36179692 0.62319702 0.68579149
-0.37569347 0.62118369 0.74503541
-0.39058986 0.61917412 0.80429798
-0.40445286 0.61612481 0.86552322
-0.35059991 0.62597609 0.6956355
-0.3634592 0.62392306 0.7568599
-0.37631455 0.62286991 0.8181023
-0.3843224 0.61190903 0.8730725
-0.3374939 0.62482107 0.70137119
-0.34547126 0.61684161 0.75739521
-0.35915306 0.62164629 0.82676178
-0.36609715 0.61262721 0.88474828
-0.32337323 0.6226446 0.70806968
-0.33219188 0.62154084 0.77123624
-0.3419916 0.62042266 0.83542126
-0.34595886 0.61041111 0.89233369
-0.31119907 0.62443835 0.71687716
-0.31609035 0.61937523 0.77689749
-0.32293591 0.61628276 0.83899081
-0.32679382 0.61018008 0.90097368
-0.29711196 0.62329787 0.72159439
-0.30189779 0.62114376 0.78666711
-0.3048121 0.61509174 0.8456322
-0.30765146 0.6089673 0.90859592
-0.28398329 0.6231246 0.72834778
-0.28297409 0.6121133 0.78414863
-0.28764671 0.61486793 0.85430974
-0.28939962 0.61166704 0.92130733
-0.26990402 0.61998439 0.73302901
-0.26969081 0.61781234 0.79800773
-0.27049607 0.61566204 0.86200559
-0.26829892 0.60948348 0.9268747
-0.25676748 0.62181079 0.73981833
-0.25456247 0.61763185 0.80472344
-0.25139511 0.61348563 0.86761045
-0.24817546 0.60828525 0.93347847
-0.24172977 0.61770332 0.74246341
-0.2374759 0.61648059 0.80938429
-0.2342445 0.61427975 0.87530637
-0.22706696 0.60810137 0.93908179
-0.22764263 0.61656284 0.74718064
-0.22141571 0.61335135 0.81302822
-0.21605271 0.61603385 0.88500077
-0.20787539 0.60985196 0.94875747
-0.21441551 0.62231618 0.75804067
-0.20525706 0.61614871 0.82077897
-0.19794366 0.6158607 0.89066052
-0.18677081 0.60866821 0.95434278
-0.19935513 0.61919051 0.76170343
-0.18917033 0.61500102 0.82545859
-0.17883088 0.61668384 0.89631945
-0.16570367 0.60752064 0.95792884
-0.18435094 0.61611909 0.76236719
-0.17299296 0.61778027 0.83420897
-0.15983133 0.61259824 0.89688998
-0.14454989 0.6093002 0.96556753
-0.17021458 0.61794186 0.7691378
-0.15594383 0.61666512 0.83687049
-0.14069983 0.61340326 0.90354866
-0.1235202 0.60818887 0.96715426
-0.15607823 0.61976463 0.77590835
-0.13889863 0.61455023 0.83951396
-0.12075664 0.60936838 0.90110147
-0.10243045 0.60802305 0.97175795
-0.14198719 0.61962396 0.78064364
-0.12087625 0.61144996 0.84112108
-0.10163993 0.61119127 0.9067784
-0.080355652 0.60887158 0.97536123
-0.12686974 0.62146127 0.78639579
-0.10466839 0.61721063 0.85092509
-0.082485773 0.6129781 0.91445476
-0.059325982 0.60776019 0.9769479
-0.11184289 0.61937159 0.78807718
-0.08766064 0.61513186 0.85156924
-0.063561127 0.60896486 0.91102666
-0.037168439 0.61053598 0.98458588
-0.095812313 0.61827815 0.78975791
-0.069585122 0.61599469 0.85524768
-0.044399112 0.61275125 0.91873896
-0.015327092 0.60458469 0.9770667
-0.080672204 0.62109721 0.79652768
-0.052554704 0.61489767 0.85690951
-0.024342675 0.61362505 0.92138016
0.0047972975 0.60840374 0.98276103
-0.064732216 0.61607683 0.7941376
-0.034520555 0.61479694 0.85857069
-0.0053274278 0.61353874 0.92202288
0.026789343 0.60732496 0.98232961
-0.049724095 0.61400515 0.79481941
-0.017444847 0.61566335 0.86226791
0.013729189 0.61441612 0.9246828
0.048740014 0.60528243 0.97988075
-0.033670854 0.61389351 0.79751772
-0.00041051302 0.61556613 0.86394781
0.033566982 0.60747212 0.91718322
0.070781291 0.60716707 0.98150277
-0.017459065 0.62065405 0.80733985
0.017559618 0.61352003 0.86257386
0.053649995 0.61032748 0.92086017
0.091672048 0.60418254 0.9760558
-0.0035788063 0.61469525 0.80197036
0.035597697 0.6144191 0.86425292
0.073672913 0.61223733 0.92152005
0.11369461 0.60608524 0.97667813
0.013587501 0.61948866 0.80973828
0.053617053 0.61533618 0.86493236
0.093665324 0.6111657 0.92112619
0.1345893 0.60410058 0.97124916
0.029535346 0.61646789 0.80738425
0.070500694 0.61036652 0.85952455
0.11260176 0.61015195 0.91775215
0.15650645 0.60309416 0.96681917
0.045619089 0.61933762 0.81113631
0.089565158 0.61324352 0.86222059
0.13256066 0.6101163 0.91537702
0.17742771 0.60309118 0.96242589
0.061566934 0.61631685 0.80878228
0.10647539 0.61025542 0.85784841
0.15147442 0.60812086 0.91098535
0.19834507 0.60208839 0.95801461
0.077541351 0.61527777 0.80746388
0.12447602 0.61119062 0.85752821
0.17145598 0.60906702 0.90962791
0.22033408 0.6050269 0.95665562
0.094515607 0.61423498 0.80612683
0.14243135 0.61016238 0.85517269
0.19135477 0.60808587 0.90423572
0.24125537 0.60502386 0.9522624
0.11051267 0.61417758 0.80582619
0.16039062 0.61013395 0.85283506
0.21134025 0.61003184 0.90289629
0.2610527 0.60213357 0.94183594
0.12748691 0.6131348 0.80448908
0.17934968 0.61010194 0.85047877
0.23019786 0.60809064 0.89550567
0.28404546 0.60606843 0.94047612
0.14451039 0.61505532 0.80520529
0.19729021 0.61009163 0.8471415
0.24911949 0.60809481 0.89115
0.30179787 0.60122168 0.92805183
0.16042469 0.61307061 0.80087
0.21423095 0.61008489 0.84382313
0.26799974 0.60713524 0.88477701
0.32164443 0.60129464 0.91967875
0.17635775 0.61106789 0.79753429
0.23317523 0.61107081 0.84048516
0.28792515 0.6081357 0.88042051
0.34253216 0.6023277 0.91330421
0.19543009 0.6159445 0.80026639
0.25007066 0.60910058 0.83513135
0.30785444 0.61013591 0.87608212
0.36233735 0.60143697 0.90291381
0.21132176 0.61297804 0.79491335
0.26797375 0.60912639 0.82979482
0.32569742 0.60921615 0.86772859
0.38116539 0.60153157 0.89355981
0.22724003 0.61199319 0.79059607
0.28585026 0.60717058 0.82342261
0.34558535 0.61025274 0.86137283
0.40205708 0.60356438 0.88720328
0.24415807 0.61100471 0.78625995
0.303776 0.60817826 0.81910372
0.3634057 0.60835135 0.85200161
0.42088509 0.60365903 0.87784928
0.2610988 0.61099797 0.78294158
0.32063791 0.60724401 0.81176865
0.38229772 0.61039132 0.84568268
0.44071683 0.60474986 0.86849457
0.2780661 0.61297274 0.78065878
0.33956739 0.60924792 0.80744904
0.39908084 0.60852969 0.83433092
0.45848498 0.60390252 0.8561424
0.29287523 0.60808253 0.77128989
0.35645196 0.60929537 0.80113161
0.41692775 0.6086098 0.82599539
0.47418544 0.60011709 0.84077471
0.31188744 0.6120137 0.77100492
0.37331381 0.60836118 0.79379654
0.43473333 0.60772622 0.81564248
0.4950476 0.60418576 0.83245492
0.32876807 0.61106139 0.76466954
0.39220592 0.61040121 0.78747761
0.45151636 0.60586447 0.80429077
0.51077074 0.60138214 0.81810492
0.34564871 0.61010915 0.7583341
0.40904906 0.60948509 0.7791428
0.46937117 0.60794425 0.79599124
0.52956909 0.60351259 0.80678773
0.36255592 0.6111384 0.75303441
0.42487371 0.6085906 0.76982725
0.48307207 0.60416603 0.78066123
0.54634529 0.60466844 0.79449034
0.37946308 0.6121676 0.74773461
0.44067964 0.60771418 0.75951189
0.50190794 0.60626024 0.77134323
0.56003141 0.60190815 0.77817869
0.39323887 0.60831696 0.73640323
0.45750406 0.60681617 0.75017756
0.51974398 0.6083582 0.76204419
0.57781124 0.60406023 0.76588053
0.41321349 0.61228073 0.73410016
0.47538152 0.60987777 0.74289572
0.53448999 0.60653979 0.74873066
0.59250116 0.60229617 0.74956805
0.42905685 0.61136824 0.72578424
0.49116871 0.60901946 0.73158079
0.55026239 0.60669947 0.7364341
0.61030364 0.60543001 0.73828763
0.44590396 0.61145192 0.71746749
0.51004601 0.61207736 0.72428024
0.56603485 0.60685915 0.72413749
0.62603861 0.60562587 0.72399169
0.46172467 0.60955763 0.70813382
0.52381092 0.61024457 0.71198511
0.58178842 0.60703683 0.71084124
0.63666916 0.60293061 0.70473737
0.4796021 0.61261916 0.70085204
0.53857559 0.60840803 0.69967133
0.59550112 0.60625809 0.69556522
0.65138555 0.6031481 0.68946064
0.49133691 0.60781205 0.68754089
0.5563969 0.61152393 0.6893906
0.6163938 0.61330819 0.68829918
0.66610587 0.60436541 0.67420191
0.51021016 0.6098702 0.68022227
0.56913924 0.60871285 0.67609662
0.62705773 0.60957694 0.67102617
0.68084884 0.60656452 0.65996081
0.52397507 0.60803729 0.66792721
0.58184814 0.60693789 0.66082144
0.63974792 0.60782003 0.65475124
0.69455069 0.60780352 0.64372116
0.54183382 0.61111701 0.6596458
0.59866571 0.60905737 0.65054137
0.6534645 0.60804111 0.63949323
0.70520377 0.60609001 0.62548453
0.55968863 0.61319673 0.65134627
0.61239713 0.60826063 0.63626504
0.67024857 0.6111967 0.62723196
0.7189095 0.60832882 0.60926294
0.57240838 0.60940397 0.63703465
0.62817341 0.60942006 0.62398648
0.68092036 0.609465 0.60999501
0.73161149 0.6095714 0.59304214
0.58922988 0.61252338 0.6267727
0.64190876 0.60962301 0.60972822
0.69364113 0.61068952 0.59477383
0.73924249 0.60688692 0.57384413
0.60399848 0.61168683 0.61447692
0.65566283 0.60980797 0.59646946
0.70633525 0.60993242 0.5785169
0.75295216 0.61012554 0.55764055
0.61877114 0.61185002 0.60219908
0.67142439 0.61198545 0.58320928
0.71803737 0.6111787 0.56231487
0.76666182 0.61336422 0.54143697
0.63150263 0.61105675 0.58794153
0.68515968 0.61218846 0.56895095
0.72668689 0.60847247 0.54409784
0.77427804 0.61169767 0.5212574
0.64523011 0.60926008 0.57364714
0.69685793 0.6124348 0.55273092
0.74243373 0.61166781 0.52985597
0.77989072 0.60903841 0.50109738
0.66508156 0.61535007 0.56438249
0.7075485 0.61068499 0.5364936
0.74904621 0.60900497 0.50967717
0.79055566 0.61032432 0.48291478
0.67677194 0.61359686 0.5481264
0.72026926 0.61190957 0.52127242
0.76277852 0.6132254 0.49449125
0.79214245 0.60569793 0.46179423
0.68848103 0.61182541 0.53286999
0.73399371 0.61413032 0.50605047
0.77143198 0.61151898 0.47629219
0.80181152 0.60798728 0.44364846
0.70219761 0.61204648 0.51761198
0.74162078 0.61044598 0.4868345
0.78211951 0.61378676 0.45912731
0.81250292 0.61125481 0.42650157
0.71591425 0.61226761 0.50235403
0.75636768 0.6136449 0.47261143
0.78977716 0.61308378 0.44096506
0.81407499 0.60764629 0.40439937
0.72660869 0.61151767 0.48613471
0.7660436 0.61291665 0.45541131
0.7994383 0.61337352 0.42278326
0.81971425 0.60696858 0.38527507
0.73728055 0.60978609 0.46889776
0.77470499 0.61320996 0.43724826
0.80505484 0.61171407 0.40264124
0.82636112 0.60828704 0.36616796
0.75202745 0.61298501 0.45467469
0.7843622 0.61249977 0.41904843
0.81373888 0.61298907 0.3854959
0.83300805 0.60960543 0.34706092
0.76572925 0.61422402 0.43843505
0.79504579 0.61376774 0.40186551
0.82138556 0.61430395 0.36637005
0.83865124 0.60992754 0.32795459
0.77640504 0.61349219 0.4212161
0.80168098 0.61208659 0.38270441
0.82702488 0.61362624 0.34724572
0.84532475 0.61322755 0.30988324
0.79111457 0.61672729 0.40499371
0.80931985 0.6114018 0.3635425
0.83366781 0.61394477 0.32812059
0.84994936 0.61357135 0.28979605
0.80177557 0.61701339 0.38679314
0.81998473 0.61268771 0.34535992
0.84029216 0.61428148 0.30799589
0.8545779 0.61491501 0.2697269
0.80838794 0.61435062 0.36661431
0.82765025 0.61398441 0.32723373
0.84693903 0.61559987 0.28888881
0.8551954 0.61327356 0.24967885
0.81602293 0.61266589 0.3474344
0.83731925 0.61627388 0.30908796
0.84855628 0.61395484 0.26882195
0.80949664 0.57698405 0.21986789
0.82365787 0.61098123 0.32825446
0.84091353 0.61363983 0.28796583
0.8552072 0.61627311 0.2497329
0.5686304 0.39301303 0.15802875
0.83633029 0.61425966 0.31007037
0.84755647 0.61395842 0.26884076
0.79139662 0.56510496 0.21699093
0.56938678 0.39324459 0.14501438
0.84094709 0.61260384 0.28994715
0.8552072 0.61627311 0.2497329
0.57163763 0.39500195 0.15800843
0.55806857 0.38355714 0.13004597
0.85462326 0.61687857 0.27176225
0.77324349 0.5492627 0.21204256
0.5512563 0.37838414 0.14108369
-0.02611593 -0.059798401 0.050936799
0.8582136 0.61324471 0.25062212
0.58671165 0.40491027 0.15990607
0.55000126 0.3756234 0.12805282
0.54552996 0.37509015 0.10311843
0.76616412 0.53832585 0.20997657
0.57336336 0.39224851 0.14392152
0.55276519 0.37784746 0.11503689
-0.02611593 -0.059798401 0.050936799
-0.02611593 -0.059798401 0.050936799
0.5620265 0.38257915 0.12795347
0.54046208 0.36714563 0.10106891
0.56012112 0.38646856 0.079042912
-0.02611593 -0.059798401 0.050936799
0.55574197 0.37685493 0.11396284
0.54324466 0.3693516 0.089052655
0.58998519 0.4105739 0.066915706
-0.02611593 -0.059798401 0.050936799
0.54744595 0.36813843 0.099955745
0.54600853 0.37157562 0.076036721
0.61481184 0.42971611 0.053792704
0.55266577 0.36690357 0.11183971
0.55020595 0.36936265 0.086921796
0.56684297 0.38771459 0.063934483
0.63362783 0.44588038 0.040728386
0.56945854 0.37707603 0.098704852
0.5489549 0.36760172 0.073908955
0.59066582 0.40586057 0.050812248
0.63136613 0.4461408 0.026770711
0.53907025 0.35347718 0.082841553
0.55572975 0.3728109 0.060871918
0.62150711 0.42898056 0.037648574
0.62408954 0.44241983 0.012834914
0.54282999 0.35469785 0.069788814
0.57353026 0.3849794 0.047754314
0.63827813 0.44318849 0.022586476
0.62483507 0.44466907 -0.0011430904
0.54759359 0.35691467 0.0567353
0.58229005 0.39119938 0.03369806
0.62397933 0.43349373 0.0086741038
0.62357712 0.44592586 -0.015101537
-0.02611593 -0.059798401 0.050936799
0.5850392 0.39444131 0.019700488
0.61870629 0.43076542 -0.0052812509
0.60230124 0.43222064 -0.026955128
-0.02611593 -0.059798401 0.050936799
0.58176583 0.39170587 0.0057075508
0.59341556 0.41307527 -0.017131753
0.59406239 0.42846707 -0.038872816
0.55683982 0.36161977 0.015633367
0.58250743 0.3929553 -0.0082884803
0.58916497 0.41132513 -0.030088231
0.5678091 0.41074431 -0.048705205
0.54656684 0.35389218 0.002681531
0.56924981 0.3842206 -0.020202309
0.57490754 0.40259394 -0.041983258
-0.02611593 -0.059798401 0.050936799
0.56932986 0.37109619 -0.013438914
0.57298398 0.38847688 -0.035200302
0.56865346 0.39985117 -0.054920167
0.58831131 0.43322599 -0.0796929
0.56505668 0.36836427 -0.027413063
0.57071829 0.38773751 -0.049176004
0.57939506 0.4110992 -0.070923239
0.59406084 0.44147444 -0.094656415
0.57779402 0.37860537 -0.043471735
0.58245581 0.39798215 -0.065215871
0.58313316 0.41635537 -0.085903212
0.79247814 0.60788965 -0.15938297
0.56950974 0.37288833 -0.057424776
0.59717101 0.41225153 -0.083239384
0.70467585 0.51569659 -0.13039693
0.81210756 0.6292485 -0.18337226
0.57723624 0.38014784 -0.073443547
0.67876691 0.47556162 -0.11763352
0.84209824 0.62814099 -0.183954
0.80378693 0.62858486 -0.20023417
0.7536847 0.51048535 -0.12940842
0.87006652 0.62605894 -0.18551581
0.83871728 0.63153106 -0.20483643
0.80145115 0.63393486 -0.21910007
0.91001087 0.62796926 -0.18923038
0.86667383 0.62644953 -0.20645232
0.83037394 0.62988579 -0.22271608
0.20910202 0.13878615 -0.030902654
0.90658474 0.62939596 -0.21214819
0.86328918 0.62883985 -0.2273528
0.21208182 0.13377623 -0.031049117
0.19006923 0.12483864 -0.029798232
0.90115112 0.62883008 -0.23506445
0.21108411 0.12474518 -0.029193178
0.19405279 0.12082497 -0.02994547
-0.02611593 -0.059798401 0.050936799
0.20808282 0.11472145 -0.027317662
0.1970326 0.11581504 -0.030091934
-0.02611593 -0.059798401 0.050936799
0.16301434 0.10492085 -0.028651599
0.2039821 0.11282662 -0.032276846
-0.02611593 -0.059798401 0.050936799
0.16997169 0.10393208 -0.030800469
-0.02611593 -0.059798401 0.050936799
-0.02611593 -0.059798401 0.050936799
0.17293671 0.099940069 -0.031928584
-0.02611593 -0.059798401 0.050936799
0.14294823 0.092012927 -0.029509686
0.17092045 0.0909307 -0.031053498
-0.02611593 -0.059798401 0.050936799
0.1449243 0.086006761 -0.029655378
-0.02611593 -0.059798401 0.050936799
-0.02611593 -0.059798401 0.050936799
0.1439157 0.078993455 -0.02876306
-0.02611593 -0.059798401 0.050936799
0.12690794 0.081072219 -0.02940724
0.14885077 0.077030137 -0.031892031
-0.02611593 -0.059798401 0.050936799
0.12786548 0.075087748 -0.030533802
-0.02611593 -0.059798401 0.050936799
-0.02611593 -0.059798401 0.050936799
0.1278419 0.069088764 -0.030641913
-0.02611593 -0.059798401 0.050936799
0.11187141 0.071127743 -0.02930557
-0.02611593 -0.059798401 0.050936799
-0.02611593 -0.059798401 0.050936799
0.10985515 0.062118374 -0.028430495
-0.02611593 -0.059798401 0.050936799
-0.02611593 -0.059798401 0.050936799
0.11180162 0.05814806 -0.030539468
-0.02611593 -0.059798401 0.050936799
0.094879635 0.058136713 -0.026221383
0.11077823 0.052152671 -0.030628789
-0.02611593 -0.059798401 0.050936799
0.097811125 0.055180721 -0.029330797
-0.02611593 -0.059798401 0.050936799
-0.02611593 -0.059798401 0.050936799
0.098772593 0.05019607 -0.03043934
-0.02611593 -0.059798401 0.050936799
0.085842915 0.053187959 -0.027142026
0.09773048 0.044218771 -0.031528328
-0.02611593 -0.059798401 0.050936799
0.086785652 0.048221394 -0.029250227
-0.02611593 -0.059798401 0.050936799
-0.02611593 -0.059798401 0.050936799
0.087732315 0.044254661 -0.03134042
-0.02611593 -0.059798401 0.050936799
0.075821176 0.047224864 -0.027062234
0.082750112 0.03422004 -0.028427668
-0.02611593 -0.059798401 0.050936799
0.074779078 0.041247565 -0.028151214
-0.02611593 -0.059798401 0.050936799
-0.02611593 -0.059798401 0.050936799
0.071781725 0.032223675 -0.026257683
-0.02611593 -0.059798401 0.050936799
0.066817984 0.041240096 -0.026001565
0.074683629 0.031303532 -0.031330384
-0.02611593 -0.059798401 0.050936799
0.065757155 0.035280883 -0.028090209
-0.02611593 -0.059798401 0.050936799
-0.02611593 -0.059798401 0.050936799
0.066703811 0.031314153 -0.030180395
-0.02611593 -0.059798401 0.050936799
0.057814784 0.035255328 -0.024940901
0.067635678 0.028365334 -0.033252224
-0.02611593 -0.059798401 0.050936799
0.059727743 0.032321014 -0.02903118
-0.02611593 -0.059798401 0.050936799
-0.02611593 -0.059798401 0.050936799
0.058689572 0.027343545 -0.030102141
-0.02611593 -0.059798401 0.050936799
0.049796615 0.030284891 -0.02488067
0.05763267 0.022384156 -0.032172762
-0.02611593 -0.059798401 0.050936799
0.051728301 0.027332488 -0.02797129
-0.02611593 -0.059798401 0.050936799
-0.02611593 -0.059798401 0.050936799
0.047720261 0.020329947 -0.0270226
-0.02611593 -0.059798401 0.050936799
0.044789672 0.028303167 -0.024822749
0.050603446 0.019427884 -0.033094954
-0.02611593 -0.059798401 0.050936799
0.044699073 0.024376208 -0.028893471
-0.02611593 -0.059798401 0.050936799
-0.02611593 -0.059798401 0.050936799
0.044645913 0.020413071 -0.03096487
-0.02611593 -0.059798401 0.050936799
0.040745109 0.026354047 -0.026782952
0.043607742 0.015435595 -0.032035824
-0.02611593 -0.059798401 0.050936799
0.037718162 0.019366005 -0.026852712
-0.02611593 -0.059798401 0.050936799
-0.02611593 -0.059798401 0.050936799
0.035680167 0.014392119 -0.027904883
-0.02611593 -0.059798401 0.050936799
0.032764375 0.021347426 -0.024723396
0.034627192 0.010432564 -0.029957484
-0.02611593 -0.059798401 0.050936799
0.033662725 0.019434627 -0.029776528
-0.02611593 -0.059798401 0.050936799
-0.02611593 -0.059798401 0.050936799
0.03164345 0.014442652 -0.02982904
-0.02611593 -0.059798401 0.050936799
0.025816983 0.015301215 -0.02070133
0.030571755 0.010501186 -0.032881308
-0.02611593 -0.059798401 0.050936799
0.025715515 0.013392 -0.025735669
-0.02611593 -0.059798401 0.050936799
-0.02611593 -0.059798401 0.050936799
0.023696242 0.0084000314 -0.025788177
-0.02611593 -0.059798401 0.050936799
0.023750313 0.017380403 -0.024626352
0.026516326 0.010569809 -0.035805132
-0.02611593 -0.059798401 0.050936799
0.022678619 0.013438945 -0.02767862
-0.02611593 -0.059798401 0.050936799
-0.02611593 -0.059798401 0.050936799
0.020640623 0.0084650647 -0.028730791
-0.02611593 -0.059798401 0.050936799
0.018743372 0.015398694 -0.024568439
0.018573036 0.0055270186 -0.031746246
-0.02611593 -0.059798401 0.050936799
0.018641904 0.013489478 -0.029602777
-0.02611593 -0.059798401 0.050936799
-0.02611593 -0.059798401 0.050936799
0.016603911 0.0085155992 -0.030654956
-0.02611593 -0.059798401 0.050936799
0.015725201 0.01542755 -0.025511727
0.013566099 0.0035453017 -0.031688329
-0.02611593 -0.059798401 0.050936799
0.014638708 0.012504003 -0.029545635
-0.02611593 -0.059798401 0.050936799
-0.02611593 -0.059798401 0.050936799
0.0096791685 0.0034511229 -0.025615204
-0.02611593 -0.059798401 0.050936799
0.01170328 0.014460164 -0.026454251
0.0085966019 0.0015274067 -0.029631097
-0.02611593 -0.059798401 0.050936799
0.0086763361 0.0074721235 -0.026524007
-0.02611593 -0.059798401 0.050936799
-0.02611593 -0.059798401 0.050936799
0.0056424527 0.0035016569 -0.027539369
-0.02611593 -0.059798401 0.050936799
0.0067298613 0.011442439 -0.024415027
0.0055113942 0.0036282802 -0.034536999
-0.02611593 -0.059798401 0.050936799
0.0046583465 0.0075045684 -0.027448505
-0.02611593 -0.059798401 0.050936799
-0.02611593 -0.059798401 0.050936799
0.0016244616 0.0035341014 -0.028463863
-0.02611593 -0.059798401 0.050936799
0.0046779844 0.012503714 -0.027358413
0.00050838152 0.0026463941 -0.034461062
-0.02611593 -0.059798401 0.050936799
0.0016401712 0.0075334241 -0.02839179
-0.02611593 -0.059798401 0.050936799
-0.02611593 -0.059798401 0.050936799
-0.0013937103 0.0035629573 -0.029407151
-0.02611593 -0.059798401 0.050936799
-0.00029543764 0.0094859963 -0.025319189
-0.0034948154 0.0016609192 -0.03440392
-0.02611593 -0.059798401 0.050936799
-0.0023926129 0.0085837888 -0.030297935
-0.02611593 -0.059798401 0.050936799
-0.02611593 -0.059798401 0.050936799
-0.0054008355 0.0015776516 -0.029368028
-0.02611593 -0.059798401 0.050936799
-0.0033136131 0.0095148515 -0.026262484
-0.0084643112 -0.00035697571 -0.032346681
-0.02611593 -0.059798401 0.050936799
-0.0063810134 0.0065803863 -0.029259145
-0.02611593 -0.059798401 0.050936799
-0.02611593 -0.059798401 0.050936799
-0.010366401 0.00055959116 -0.027292777
-0.02611593 -0.059798401 0.050936799
-0.006346581 0.01056162 -0.028187413
-0.01245271 -0.002360363 -0.031307887
-0.02611593 -0.059798401 0.050936799
-0.02611593 -0.059798401 0.050936799
-0.02611593 -0.059798401 0.050936799
-0.02611593 -0.059798401 0.050936799
-0.013418094 0.0016244521 -0.030217372
-0.02611593 -0.059798401 0.050936799
-0.010345848 0.010575975 -0.028112251
-0.016451977 -0.0023460074 -0.031232726
-0.02611593 -0.059798401 0.050936799
-0.02611593 -0.059798401 0.050936799
-0.02611593 -0.059798401 0.050936799
-0.02611593 -0.059798401 0.050936799
-0.017436085 0.0016568967 -0.031141859
-0.02611593 -0.059798401 0.050936799
-0.02611593 -0.059798401 0.050936799
-0.020547872 0.0017761978 -0.037083466
-0.02611593 -0.059798401 0.050936799
-0.02611593 -0.059798401 0.050936799
-0.02611593 -0.059798401 0.050936799
-0.02611593 -0.059798401 0.050936799
-0.021431426 0.002671083 -0.031048678
-0.02611593 -0.059798401 0.050936799
-0.017318906 0.0075654355 -0.02603545
-0.024465308 -0.0012993801 -0.032064047
-0.02611593 -0.059798401 0.050936799
-0.021400919 0.0056524859 -0.029994972
-0.02611593 -0.059798401 0.050936799
-0.02611593 -0.059798401 0.050936799
-0.02611593 -0.059798401 0.050936799
-0.02611593 -0.059798401 0.050936799
-0.020351874 0.0086122109 -0.027960379
-0.027464759 -0.0012886133 -0.032007676
-0.02611593 -0.059798401 0.050936799
-0.02440037 0.0056632529 -0.029938601
-0.02611593 -0.059798401 0.050936799
-0.02611593 -0.059798401 0.050936799
-0.027400736 0.00065678079 -0.028972656
-0.02611593 -0.059798401 0.050936799
-0.024321552 0.0065907198 -0.025921937
-0.031497546 -0.00023825257 -0.033913825
-0.02611593 -0.059798401 0.050936799
-0.02611593 -0.059798401 0.050936799
-0.02611593 -0.059798401 0.050936799
-0.02611593 -0.059798401 0.050936799
-0.02611593 -0.059798401 0.050936799
-0.02611593 -0.059798401 0.050936799
-0.02611593 -0.059798401 0.050936799
-0.035496816 -0.00022389693 -0.033838663
-0.02611593 -0.059798401 0.050936799
-0.02611593 -0.059798401 0.050936799
-0.02611593 -0.059798401 0.050936799
-0.02611593 -0.059798401 0.050936799
-0.035417996 0.00070358132 -0.029821999
-0.02611593 -0.059798401 0.050936799
-0.02611593 -0.059798401 0.050936799
-0.039443839 -0.0012636355 -0.030782521
-0.02611593 -0.059798401 0.050936799
-0.02611593 -0.059798401 0.050936799
-0.02611593 -0.059798401 0.050936799
-0.02611593 -0.059798401 0.050936799
-0.038398724 0.00069625885 -0.028765958
-0.02611593 -0.059798401 0.050936799
-0.033319905 0.0066230199 -0.025752824
-0.04347663 -0.00021327462 -0.032688677
-0.02611593 -0.059798401 0.050936799
-0.02611593 -0.059798401 0.050936799
-0.02611593 -0.059798401 0.050936799
-0.02611593 -0.059798401 0.050936799
-0.02611593 -0.059798401 0.050936799
-0.02611593 -0.059798401 0.050936799
-0.036319353 0.0066337865 -0.025696453
-0.047453243 0.00078282633 -0.03159583
-0.02611593 -0.059798401 0.050936799
-0.02611593 -0.059798401 0.050936799
-0.02611593 -0.059798401 0.050936799
-0.02611593 -0.059798401 0.050936799
-0.046389405 0.0027246277 -0.028579596
-0.02611593 -0.059798401 0.050936799
-0.02611593 -0.059798401 0.050936799
-0.052467126 0.001818687 -0.032483526
-0.02611593 -0.059798401 0.050936799
-0.02611593 -0.059798401 0.050936799
-0.02611593 -0.059798401 0.050936799
-0.02611593 -0.059798401 0.050936799
-0.049359266 0.00069955888 -0.026559945
-0.02611593 -0.059798401 0.050936799
-0.043332871 0.0076768361 -0.026546557
-0.05644767 0.0018149535 -0.031408697
-0.02611593 -0.059798401 0.050936799
-0.048358534 0.0057132086 -0.027488302
-0.02611593 -0.059798401 0.050936799
-0.02611593 -0.059798401 0.050936799
-0.05335068 0.0027135722 -0.026448745
-0.02611593 -0.059798401 0.050936799
-0.047346935 0.0087091122 -0.027453035
-0.061453696 0.0048504788 -0.032260355
-0.02611593 -0.059798401 0.050936799
-0.052353874 0.0067273872 -0.027395122
-0.02611593 -0.059798401 0.050936799
-0.02611593 -0.059798401 0.050936799
-0.058364559 0.0037494362 -0.027336434
-0.02611593 -0.059798401 0.050936799
-0.050327659 0.0087017892 -0.026397005
-0.066463642 0.0068861665 -0.033130024
-0.02611593 -0.059798401 0.050936799
-0.056334417 0.006723654 -0.026320301
-0.02611593 -0.059798401 0.050936799
-0.02611593 -0.059798401 0.050936799
-0.06134136 0.0047419448 -0.026262384
-0.02611593 -0.059798401 0.050936799
-0.054308206 0.0086980565 -0.025322184
-0.069425657 0.0068607554 -0.031074326
-0.02611593 -0.059798401 0.050936799
-0.059315145 0.0067163315 -0.025264267
-0.02611593 -0.059798401 0.050936799
-0.02611593 -0.059798401 0.050936799
-0.065303177 0.0047201221 -0.024187896
-0.02611593 -0.059798401 0.050936799
-0.058318343 0.010730155 -0.026210647
-0.073387474 0.0068389326 -0.028999846
-0.02611593 -0.059798401 0.050936799
-0.064339899 0.0097699538 -0.02711558
-0.02611593 -0.059798401 0.050936799
-0.02611593 -0.059798401 0.050936799
-0.068265185 0.004694711 -0.022132207
-0.02611593 -0.059798401 0.050936799
-0.062313683 0.011744341 -0.026117463
-0.077330574 0.0067990213 -0.0259257
-0.02611593 -0.059798401 0.050936799
-0.069316328 0.010769633 -0.026003949
-0.02611593 -0.059798401 0.050936799
-0.02611593 -0.059798401 0.050936799
-0.074289747 0.0077519142 -0.023964725
-0.02611593 -0.059798401 0.050936799
-0.06527961 0.010719099 -0.024079785
-0.084369756 0.010877733 -0.028721076
-0.02611593 -0.059798401 0.050936799
-0.074341074 0.013823248 -0.027855258
-0.02611593 -0.059798401 0.050936799
-0.02611593 -0.059798401 0.050936799
-0.079280987 0.0097695207 -0.023834735
-0.02611593 -0.059798401 0.050936799
-0.070270851 0.012736704 -0.023949794
-0.093415499 0.017981198 -0.032424476
-0.02611593 -0.059798401 0.050936799
-0.078302898 0.013801425 -0.025780778
-0.02611593 -0.059798401 0.050936799
-0.02611593 -0.059798401 0.050936799
-0.086316235 0.014848056 -0.026612096
-0.02611593 -0.059798401 0.050936799
-0.074262254 0.014750722 -0.023838598
-0.09737733 0.017959375 -0.030349988
-0.02611593 -0.059798401 0.050936799
-0.081264906 0.013776014 -0.023725078
-0.02611593 -0.059798401 0.050936799
-0.02611593 -0.059798401 0.050936799
-0.091292664 0.015847743 -0.025500465
-0.02611593 -0.059798401 0.050936799
-0.080272026 0.016790006 -0.024689481
-0.10436033 0.021983819 -0.030146379
-0.02611593 -0.059798401 0.050936799
-0.087252021 0.01679704 -0.023558281
-0.02611593 -0.059798401 0.050936799
-0.02611593 -0.059798401 0.050936799
-0.097279787 0.018868769 -0.025333665
-0.02611593 -0.059798401 0.050936799
-0.083234034 0.016764594 -0.022633784
-0.10828472 0.02192582 -0.026072573
-0.02611593 -0.059798401 0.050936799
-0.093257867 0.019836154 -0.024391152
-0.02611593 -0.059798401 0.050936799
-0.02611593 -0.059798401 0.050936799
-0.1042628 0.022893205 -0.025130056
-0.02611593 -0.059798401 0.050936799
-0.08923988 0.01980371 -0.023466647
-0.1142531 0.024928756 -0.024906117
-0.02611593 -0.059798401 0.050936799
-0.10328864 0.025925286 -0.027094111
-0.02611593 -0.059798401 0.050936799
-0.02611593 -0.059798401 0.050936799
-0.11023512 0.024896311 -0.02398162
-0.02611593 -0.059798401 0.050936799
-0.096241601 0.023846235 -0.024262704
-0.12426124 0.031999636 -0.026591398
-0.02611593 -0.059798401 0.050936799
-0.10926097 0.027928391 -0.025945671
-0.02611593 -0.059798401 0.050936799
-0.02611593 -0.059798401 0.050936799
-0.11823274 0.029942257 -0.024740864
-0.02611593 -0.059798401 0.050936799
-0.10119932 0.024827832 -0.022151407
-0.13423976 0.037034672 -0.026313402
-0.02611593 -0.059798401 0.050936799
-0.11522936 0.030931329 -0.024779215
-0.02611593 -0.059798401 0.050936799
-0.02611593 -0.059798401 0.050936799
-0.12719274 0.034955621 -0.023481995
-0.02611593 -0.059798401 0.050936799
-0.10818626 0.027852448 -0.021965817
-0.14421436 0.043069545 -0.026017383
-0.02611593 -0.059798401 0.050936799
-0.1242268 0.035980865 -0.025519665
-0.02611593 -0.059798401 0.050936799
-0.02611593 -0.059798401 0.050936799
-0.13718605 0.041008577 -0.024185639
-0.02611593 -0.059798401 0.050936799
-0.12020881 0.035948418 -0.024595171
-0.15819125 0.053136177 -0.0265738
-0.02611593 -0.059798401 0.050936799
-0.13318679 0.040994223 -0.0242608
-0.02611593 -0.059798401 0.050936799
-0.02611593 -0.059798401 0.050936799
-0.14714195 0.047025353 -0.022889961
-0.02611593 -0.059798401 0.050936799
-0.12717703 0.038954943 -0.023409918
-0.17014284 0.060159963 -0.025222518
-0.02611593 -0.059798401 0.050936799
-0.14417599 0.048050605 -0.024927631
-0.02611593 -0.059798401 0.050936799
-0.02611593 -0.059798401 0.050936799
-0.16817281 0.062188618 -0.027223378
-0.02611593 -0.059798401 0.050936799
-0.13613701 0.043968301 -0.022151046
-0.19112146 0.074269123 -0.026574973
-0.02611593 -0.059798401 0.050936799
-0.15815681 0.057117403 -0.02550206
-0.02611593 -0.059798401 0.050936799
-0.02611593 -0.059798401 0.050936799
-0.1821201 0.07021942 -0.025816515
-0.02611593 -0.059798401 0.050936799
-0.15115508 0.053074881 -0.024706006
-0.20805641 0.085310183 -0.025057681
-0.02611593 -0.059798401 0.050936799
-0.17110822 0.064144783 -0.024131991
-0.02611593 -0.059798401 0.050936799
-0.02611593 -0.059798401 0.050936799
-0.19807395 0.081274971 -0.025317661
-0.02611593 -0.059798401 0.050936799
-0.16109225 0.059073567 -0.022410672
-0.23299988 0.10341492 -0.025263235
-0.02611593 -0.059798401 0.050936799
-0.19208685 0.078253955 -0.025484458
-0.02611593 -0.059798401 0.050936799
-0.02611593 -0.059798401 0.050936799
-0.21900034 0.094330028 -0.023689151
-0.02611593 -0.059798401 0.050936799
-0.18410401 0.074225917 -0.025706854
-0.25489947 0.11845515 -0.022580247
-0.02611593 -0.059798401 0.050936799
-0.21504243 0.09335202 -0.02578165
-0.02611593 -0.059798401 0.050936799
-0.02611593 -0.059798401 0.050936799
-0.24994572 0.11647371 -0.024709556
-0.02611593 -0.059798401 0.050936799
-0.20104291 0.084267132 -0.024207566
-0.95248425 0.65151739 -0.20193782
-0.02611593 -0.059798401 0.050936799
-0.23696077 0.10841034 -0.024098329
-0.02611593 -0.059798401 0.050936799
-0.95208812 0.64712012 -0.18001738
-0.94673961 0.65374881 -0.2160098
-0.02611593 -0.059798401 0.050936799
-0.22798993 0.10137922 -0.024393573
-0.96272945 0.65183312 -0.16172667
-0.95435977 0.65441549 -0.19584824
-0.2618559 0.12446117 -0.021340944
-0.02611593 -0.059798401 0.050936799
-0.95832312 0.64540374 -0.13891774
-0.95998418 0.65407526 -0.17574225
-0.02611593 -0.059798401 0.050936799
-0.25892049 0.12250501 -0.024432331
-0.96694607 0.65009147 -0.11966497
-0.96459401 0.65271354 -0.15467344
-0.95822412 0.65530312 -0.18875745
-0.02611593 -0.059798401 0.050936799
-0.96656078 0.64771193 -0.098708138
-0.96820015 0.65234798 -0.13360541
-0.96483344 0.65394855 -0.16765103
-0.9574942 0.65355307 -0.2028075
-0.97416914 0.65137821 -0.0784925
-0.97280997 0.65098625 -0.11253659
-0.97145778 0.65361184 -0.14752626
-0.96709919 0.65320909 -0.18162672
-0.97178811 0.64799172 -0.057591267
-0.97842658 0.65264565 -0.092394583
-0.97704875 0.65223557 -0.12543899
-0.97971064 0.6558935 -0.16133516
-0.97640485 0.64964753 -0.037468053
-0.97802645 0.64924824 -0.070456088
-0.98465014 0.65288424 -0.10427778
-0.98431349 0.65151411 -0.13932075
-0.97103226 0.64425057 -0.016659208
-0.98063272 0.64887905 -0.049406841
-0.99125177 0.65352941 -0.083135344
-0.99391061 0.65316981 -0.11810391
-0.97863275 0.64991647 0.0035924464
-0.9872492 0.65054214 -0.029246047
-0.99685359 0.65417087 -0.062011689
-1.0054886 0.6548146 -0.095849857
-0.97624779 0.64752978 0.024511714
-0.98684514 0.64814448 -0.0072895437
-1.0014447 0.65279102 -0.039943211
-1.0120755 0.65444177 -0.073725767
-0.97487348 0.6471644 0.044486143
-0.99044728 0.6487788 0.013796516
-1.0050321 0.65240741 -0.017875507
-1.0166479 0.65304381 -0.05065763
-0.97450298 0.6458028 0.064461343
-0.98806232 0.64639211 0.034715787
-1.0056278 0.65001339 0.0040997937
-1.0252117 0.65365988 -0.027478285
-0.97412461 0.64644086 0.084472589
-0.99465215 0.65003669 0.055912279
-1.0082006 0.64860827 0.02713035
-1.0297801 0.65326178 -0.0043921322
-0.97075468 0.64506847 0.10439141
-0.98926079 0.64462161 0.077720776
-1.0167674 0.65324175 0.049382098
-1.0333527 0.6518603 0.018657207
-0.96638882 0.64269263 0.12427345
-0.99387366 0.64727724 0.097862005
-1.0143716 0.64883727 0.07126499
-1.0319194 0.64742321 0.042558219
-0.96501064 0.64332712 0.14426589
-0.99048889 0.64488697 0.11876248
-1.0159593 0.64844656 0.09329512
-1.0364691 0.64700705 0.066644035
-0.96462834 0.64496499 0.16429514
-0.98907715 0.64448541 0.14073622
-1.0195388 0.65006256 0.11539885
-1.0420336 0.64761233 0.089767009
-0.96325004 0.64559942 0.18428761
-0.99067575 0.64611232 0.16180274
-1.0191121 0.64864665 0.13837305
-1.0386002 0.64316809 0.11363042
-0.95491159 0.64122772 0.20305875
-0.98828292 0.64572531 0.18275803
-1.0186853 0.6472308 0.16134724
-1.0511024 0.64976138 0.13899235
-0.95849407 0.6468612 0.22423492
-0.98390234 0.6423316 0.2036217
-1.0172549 0.64681119 0.18432064
-1.0516567 0.64833093 0.162985
-0.94716394 0.64047909 0.24291366
-0.98447847 0.64493668 0.22568709
-1.0178242 0.64639866 0.20733164
-1.0501968 0.64587545 0.1879217
-0.94478196 0.64210975 0.26290536
-0.98108584 0.64454609 0.24662361
-1.0173897 0.64698243 0.23034187
-1.0477557 0.64343458 0.21183993
-0.93843132 0.64074469 0.28176814
-0.97569746 0.64314848 0.26750451
-1.0119678 0.64454877 0.25320408
-1.0472876 0.6429823 0.23683146
-0.93407238 0.64138651 0.30070454
-0.96732152 0.6387406 0.288275
-1.0075645 0.64213687 0.27508542
-1.0458236 0.64152664 0.26178619
-0.925726 0.63901436 0.31951177
-0.96889353 0.64234906 0.31037721
-1.0011655 0.63871789 0.29691118
-1.0413827 0.63907856 0.28566685
-0.92334396 0.64064515 0.33950347
-0.9595325 0.63895547 0.33014727
-1.0066727 0.64428616 0.32212353
-1.038915 0.63861912 0.31062078
-0.91600823 0.64029437 0.35736582
-0.96110058 0.64356393 0.35226747
-0.99925125 0.64184535 0.34494817
-1.0374247 0.63914502 0.33661124
-0.90768057 0.63794041 0.37517333
-0.95273548 0.64117372 0.37207437
-0.98688382 0.63542342 0.36560747
-1.0329651 0.63667881 0.36149156
-0.90132201 0.63857496 0.39407218
-0.94040155 0.6357879 0.39075232
-0.99038756 0.64198428 0.39080027
-1.0304935 0.63721925 0.38646349
-0.89396757 0.63820618 0.41293421
-0.94095111 0.64037454 0.41385341
-0.97704291 0.63457716 0.4104231
-1.0230533 0.63476026 0.4102878
-0.88663185 0.63785541 0.43079656
-0.93158621 0.63798076 0.43364146
-0.96961361 0.63413596 0.43328378
-1.0175674 0.63427204 0.43618503
-0.87830025 0.63650131 0.44862214
-0.92221731 0.63658684 0.45344755
-0.9750756 0.64166772 0.46053153
-1.0111043 0.63279843 0.4610458
-0.86996073 0.63714683 0.46648371
-0.91384822 0.63519657 0.47327244
-0.95380044 0.6312865 0.47695097
-1.0066332 0.63333166 0.48598021
-0.858675 0.63381851 0.48221755
-0.91042113 0.63878715 0.49528068
-0.94736695 0.63184875 0.49984843
-1.0001473 0.63283986 0.51185864
-0.85033554 0.63446397 0.50007915
-0.9000712 0.63740778 0.51406831
-0.94191074 0.63339645 0.52378237
-0.99367642 0.63336599 0.53675544
-0.84297717 0.635095 0.51895916
-0.88872534 0.63502491 0.53281915
-0.94042319 0.63793963 0.54884523
-0.98323679 0.63089615 0.56052339
-0.83168352 0.63376623 0.534729
-0.87935251 0.6346308 0.55264324
-0.92804396 0.63451725 0.56955856
-0.97772443 0.63238955 0.58745629
-0.81939399 0.63143414 0.55046207
-0.86999846 0.63425481 0.5714677
-0.91172951 0.62913507 0.58716178
-0.96332687 0.62894177 0.60913175
-0.81105453 0.63207966 0.56832373
-0.85864872 0.63287187 0.59023649
-0.90722382 0.63364959 0.61316782
-0.95681071 0.6314314 0.63606387
-0.799757 0.63175076 0.58411157
-0.84532189 0.6304999 0.60795009
-0.88993222 0.62728208 0.62973458
-0.94636321 0.63096142 0.65986788
-0.78648639 0.62943304 0.59882623
-0.83396816 0.63011676 0.626737
-0.88049537 0.62883335 0.65259367
-0.93194294 0.6284954 0.68256092
-0.7751928 0.62810433 0.61459607
-0.82165992 0.62776655 0.64346969
-0.86713117 0.62642527 0.67230654
-0.91556841 0.62405878 0.70318115
-0.7619409 0.62580478 0.62831098
-0.81028348 0.62836504 0.66327423
-0.85769045 0.6289764 0.69518369
-0.90411711 0.62458503 0.72698426
-0.75357085 0.62943166 0.64722627
-0.79794872 0.62799639 0.68104261
-0.84332645 0.62656468 0.71487784
-0.89164728 0.62508959 0.75176835
-0.73932308 0.62612867 0.66090441
-0.78463674 0.62664241 0.69777465
-0.83386302 0.63009763 0.73877269
-0.87526494 0.62265259 0.77242458
-0.72704446 0.62581432 0.67567384
-0.77325648 0.62824082 0.71759713
-0.81363201 0.62277377 0.75226599
-0.86965799 0.62907273 0.80344617
-0.7147432 0.62648159 0.69146097
-0.75601315 0.62392724 0.73120087
-0.81102753 0.63322204 0.7824164
-0.84934026 0.62467599 0.82099223
-0.69756001 0.62122244 0.70204771
-0.74562877 0.62652904 0.75106037
-0.78681993 0.62490213 0.79481691
-0.83195812 0.62223548 0.84162968
-0.68821287 0.62386411 0.71992654
-0.73031718 0.62516791 0.76775461
-0.77539825 0.62746418 0.81665683
