# .PCD v0.7 - Point Cloud Data file format
VERSION 0.7
FIELDS x y z
SIZE 4 4 4
TYPE F F F
COUNT 1 1 1
WIDTH 1423
HEIGHT 1
VIEWPOINT 0 0 0 1 0 0 0
POINTS 1423
DATA ascii
-1.4471643 0.60361922 2.0642257
-1.616773 0.60404634 2.2994885
-1.1659874 0.60716081 1.7509191
-1.2740128 0.60370117 1.9109333
-1.4083248 0.60366863 2.1085143
-1.5610836 0.60016203 2.3363881
-1.1324505 0.60651779 1.7792892
-1.2334476 0.60099721 1.941135
-1.3655649 0.60277623 2.1487112
-1.5218952 0.60288537 2.3987248
-1.0969552 0.60490388 1.8056042
-1.2015951 0.60407126 1.9856093
-1.3198802 0.6019454 2.1848531
-1.4652431 0.59903365 2.4336061
-1.0653166 0.60617727 1.8390464
-1.1562071 0.59951252 2.0066843
-1.2732186 0.60012931 2.2199585
-1.4046521 0.59422207 2.4653957
-1.0278779 0.60461056 1.8623248
-1.1175361 0.59972477 2.041976
-1.2255572 0.59830964 2.2550452
-1.3479962 0.59137022 2.5002949
-0.98750383 0.60108757 1.8825122
-1.0769442 0.59900236 2.0732136
-1.1769521 0.59654051 2.2871139
-1.2951218 0.59133327 2.5463204
-0.95584238 0.60334271 1.9169718
-1.0363299 0.5992617 2.1054688
-1.1302638 0.59670603 2.3232551
-1.2451829 0.59325248 2.5954366
-0.91258907 0.59791791 1.9310687
-0.98895699 0.59571368 2.1255243
-1.0758214 0.59206063 2.3471599
-1.1807797 0.58860731 2.6171541
-0.87706733 0.59828562 1.9584194
-0.9473201 0.59695113 2.1587787
-1.0262125 0.59128785 2.3792279
-1.1201619 0.5857774 2.6499789
-0.84048557 0.59959537 1.9887686
-0.89992863 0.59338504 2.1798339
-0.97652471 0.59144247 2.4153128
-0.99573171 0.54462624 2.5198607
-0.79722446 0.59617019 2.0029013
-0.85635215 0.59366977 2.2100337
-0.92493105 0.59168053 2.4463615
-0.90304935 0.51945102 2.4536479
-0.75778615 0.59459621 2.0261424
-0.81085485 0.59301984 2.2361786
-0.85247535 0.57587343 2.4197102
-0.81727898 0.497228 2.391619
-0.72021949 0.59692025 2.0554912
-0.7653349 0.59335166 2.2633419
-0.774535 0.55351639 2.3668284
-0.7383458 0.47788486 2.3377728
-0.67887908 0.59442979 2.0736783
-0.7160148 0.59085059 2.2803788
-0.69959015 0.53216988 2.3140213
-0.65963024 0.45574129 2.2728767
-0.63837302 0.59579742 2.0999534
-0.66761547 0.58928049 2.3014514
-0.62675726 0.51093912 2.2552536
-0.58766913 0.43840501 2.2201977
-0.59413075 0.59238678 2.1130681
-0.59779394 0.56506097 2.242686
-0.55876589 0.49158123 2.2046132
-0.5225265 0.42393032 2.1767018
-0.55082422 0.59092516 2.129236
-0.53660607 0.54754704 2.2022099
-0.49659309 0.47508162 2.1631367
-0.45846641 0.40753213 2.1291895
-0.51122051 0.59320581 2.1605465
-0.47555724 0.52816004 2.1547005
-0.43647218 0.4596433 2.1187167
-0.40100309 0.39779595 2.1019282
-0.46047503 0.58322352 2.1484118
-0.41744387 0.51072919 2.1102817
-0.3792758 0.44414327 2.0783517
-0.34293401 0.38341886 2.054565
-0.40630865 0.56475288 2.1070492
-0.36501405 0.49702972 2.0820427
-0.32593194 0.43253037 2.0451319
-0.28952613 0.37375134 2.02438
-0.35502145 0.54818422 2.0717776
-0.31187701 0.4805986 2.0387361
-0.27629474 0.42366001 2.027036
-0.24570146 0.37981799 2.0666835
-0.30479032 0.53167325 2.0335255
-0.26596126 0.4754886 2.0347826
-0.23520643 0.43450141 2.0824814
-0.20234357 0.39239863 2.1361227
-0.26169762 0.52841103 2.0386615
-0.22772957 0.48921362 2.0973365
-0.19292325 0.44715804 2.1479411
-0.15608378 0.40405911 2.2004895
-0.22352214 0.54219031 2.0982163
-0.1854464 0.50187027 2.1627958
-0.1476219 0.45978579 2.2143438
-0.13149913 0.56255382 2.9461491
-0.18413302 0.55776662 2.1687844
-0.14135475 0.51370066 2.2182031
-0.11249854 0.56829727 2.6788065
-0.061444901 0.56023061 2.9487963
-0.14105992 0.56961882 2.2232106
-0.099455148 0.57607049 2.4666309
-0.051303752 0.56787932 2.6886566
0.0086319782 0.55888909 2.9524612
-0.095088795 0.57955104 2.2725463
-0.045379262 0.57378656 2.4705784
0.010556858 0.56376606 2.6814213
0.077694237 0.55856907 2.9551632
-0.047895379 0.57818353 2.2826416
0.0096363351 0.57055354 2.4714904
0.070774481 0.5643335 2.6923079
0.1476174 0.55637246 2.9508128
0.0013016015 0.57780874 2.292717
0.063892499 0.57110626 2.484489
0.13279665 0.56307501 2.6931241
0.21644714 0.55426991 2.941483
0.049397305 0.5755282 2.2977772
0.11789348 0.56889474 2.4844377
0.19472128 0.56090707 2.6889243
0.28755042 0.55490637 2.9461648
0.098677024 0.57708073 2.311887
0.174033 0.56854904 2.4913828
0.25686365 0.56153965 2.6957746
0.35738388 0.55380005 2.9368343
0.1486561 0.57390177 2.3108935
0.23001492 0.56634843 2.4902945
-0.02611593 -0.059798401 0.050936799
-0.02611593 -0.059798401 0.050936799
0.1987741 0.57259589 2.3169336
0.28374198 0.56139058 2.4761939
0.15025598 0.20705076 1.1888474
0.49603233 0.55160904 2.9171922
0.24993718 0.57324988 2.3249903
-0.02611593 -0.059798401 0.050936799
0.44474649 0.55893761 2.6882074
0.26217076 0.23802982 1.4433987
-0.02611593 -0.059798401 0.050936799
0.39913377 0.56559718 2.4951165
0.25634587 0.26799202 1.4470509
0.63354987 0.54954815 2.8905709
0.19423708 0.30843437 1.3809229
0.25052097 0.29795417 1.4507031
0.57055497 0.55864823 2.6768427
0.70556724 0.55227125 2.8902721
0.2298425 0.31574661 1.411399
0.28139511 0.29595178 1.4440868
0.63227367 0.55667931 2.6616464
0.77211642 0.55044711 2.8659847
0.27070609 0.32680508 1.4548485
0.31547162 0.29775709 1.4474826
0.69302988 0.55467778 2.6484683
0.8366099 0.54868454 2.8387361
0.29834431 0.32203105 1.4362384
0.34838676 0.29671118 1.4428458
0.75373399 0.55373031 2.6323092
0.90637642 0.54965019 2.8254428
0.33353302 0.32372424 1.4456135
0.38026467 0.29570499 1.4362286
0.81655794 0.55466694 2.6221464
0.96979117 0.54696369 2.7941964
0.3622686 0.31985596 1.432001
0.41424364 0.29660091 1.434608
0.87614191 0.55183196 2.5999718
-0.02611593 -0.059798401 0.050936799
0.39420265 0.31879556 1.4283825
0.44288561 0.29282314 1.4159971
0.93892843 0.55280465 2.5878098
0.40625519 0.17288539 1.0864017
0.42396075 0.31590551 1.4157689
0.85298938 0.55696046 2.4314411
-0.02611593 -0.059798401 0.050936799
0.53357565 0.2254547 1.3050429
0.45271894 0.31301895 1.4031739
-0.02611593 -0.059798401 0.050936799
0.51758611 0.2465809 1.3017232
1.2215946 0.54411489 2.67539
0.47514036 0.30546239 1.3736075
0.3988688 0.20339383 1.0600829
1.1218798 0.55212128 2.5303528
1.2902942 0.54715621 2.6581531
0.37769902 0.21668406 1.0487158
0.53674781 0.26943645 1.3057793
1.1793971 0.55136555 2.5042531
1.3537583 0.54743302 2.6289599
0.5033142 0.28202316 1.2806245
1.0851229 0.55692011 2.3830779
1.2369146 0.55060977 2.4781537
1.4120321 0.54690886 2.5898459
0.54782832 0.29039338 1.305951
1.1417716 0.55604136 2.3639948
1.2964129 0.54986495 2.4510174
1.4724032 0.54728687 2.5557108
1.0531219 0.56298077 2.2757502
1.1973869 0.55620211 2.3429492
1.3538967 0.55014515 2.4229364
1.5234832 0.54496896 2.5066962
1.1058276 0.56206203 2.2597413
1.2550353 0.55531979 2.3238475
1.4124218 0.55138546 2.3968544
1.5817795 0.54542649 2.4686
1.1616114 0.56206006 2.2476928
1.309572 0.55455673 2.298804
1.4657675 0.54980707 2.361815
1.6421546 0.54680437 2.4344831
1.2183161 0.56112701 2.2316086
1.3651499 0.55475366 2.2757592
1.5242512 0.55008376 2.3337157
1.6984365 0.54828703 2.395443
1.2730027 0.56021923 2.2145629
1.4227459 0.55492544 2.2536764
1.5817015 0.55140001 2.3036537
1.7495579 0.54693282 2.3484454
1.3286929 0.56030768 2.197516
1.4813647 0.55607527 2.2325928
1.6319128 0.54895908 2.2616551
1.8017244 0.54753852 2.3034644
1.384323 0.55945051 2.1774521
1.5337855 0.55442804 2.201571
1.6934639 0.55217022 2.2365525
1.8579878 0.5490393 2.2634246
1.4399531 0.55859339 2.1573882
1.5944077 0.55657053 2.1804676
1.7426832 0.5517326 2.1946087
1.9101582 0.55064487 2.2184615
1.4965682 0.55875063 2.1363239
1.6457952 0.55596298 2.1474831
1.7857233 0.5484798 2.1437268
1.95315 0.54944593 2.1646166
1.5572841 0.5608027 2.1202185
1.6971639 0.55537343 2.1134992
1.8533788 0.55457842 2.1235638
2.0032606 0.55011308 2.1166742
1.609761 0.55910122 2.092196
1.7597482 0.55754495 2.090359
1.8944192 0.55133277 2.0727193
2.0493159 0.5508489 2.0658081
1.6673385 0.55929106 2.0691137
1.8069828 0.55609661 2.0494344
1.9426051 0.55193478 2.0288131
2.0984535 0.55350125 2.0189202
1.7218002 0.55860031 2.0400715
1.8624148 0.55743814 2.0184107
1.9999658 0.55434138 1.9937708
2.1323118 0.55146146 1.9582288
1.7752247 0.55794936 2.0090489
1.9157495 0.55787748 1.9824077
2.0511925 0.55589622 1.9518256
2.1834862 0.55407041 1.9133027
1.8337498 0.55918968 1.9829669
1.9629653 0.55644715 1.9404836
2.0912223 0.55467194 1.9000365
2.2224302 0.55493981 1.8565699
1.8932748 0.56042635 1.9568659
2.0101662 0.5560348 1.8975779
2.1373527 0.55533534 1.8531688
2.2634344 0.55674767 1.8028167
1.9466243 0.55984777 1.9218448
2.0716279 0.56033623 1.8674948
2.1905868 0.55888271 1.8112221
2.2973156 0.55568963 1.7431431
1.9958959 0.55835605 1.8828821
2.1228504 0.56089121 1.8255315
2.2225018 0.55679584 1.7535673
2.3424015 0.55941039 1.6933494
2.0583868 0.56061804 1.8547434
2.1629553 0.55959457 1.7777411
2.270658 0.55943364 1.7076979
2.3732498 0.55939919 1.6317506
2.1137249 0.56204998 1.8187211
2.2192411 0.56207705 1.738719
2.3116918 0.55920565 1.6559079
2.4041579 0.56033349 1.573169
2.1669812 0.56156188 1.7787015
2.2674084 0.56269717 1.6938131
2.3476701 0.55904979 1.601213
2.4431474 0.56316638 1.5184718
2.224319 0.56298661 1.7426416
2.3064196 0.56149453 1.6410431
2.395793 0.56272364 1.5533623
2.4750407 0.56511509 1.4588897
2.2755191 0.5625599 1.6996607
2.3636718 0.56500942 1.6000208
2.4368155 0.56451339 1.5006087
2.5079527 0.56704205 1.4002885
2.3338048 0.56503516 1.6606009
2.4026873 0.5648067 1.5472687
2.4737787 0.56537187 1.4449133
2.5196614 0.56422615 1.3319952
2.3819265 0.56369179 1.6136597
2.4447205 0.56457514 1.49546
2.4996238 0.56437874 1.3833907
2.563699 0.57000434 1.2792574
2.4310379 0.56436253 1.5657362
2.4897797 0.56631428 1.4446306
2.5446761 0.56913555 1.3316156
2.5683491 0.56626803 1.2080785
2.493289 0.56785947 1.5246199
2.5368428 0.56904614 1.3937817
2.5715399 0.56812078 1.2710736
2.5972693 0.57020903 1.1495886
2.5403361 0.56659198 1.473699
2.5727797 0.5679267 1.3370694
2.6195958 0.57386655 1.2192603
2.6170635 0.57029146 1.0851977
2.5863729 0.56734586 1.421833
2.6177869 0.5707199 1.2832589
2.6454449 0.57387328 1.1577556
2.6500056 0.57519984 1.0276501
2.6394308 0.56905633 1.3708534
2.6597719 0.57254225 1.2284873
2.653132 0.57008994 1.0885198
2.6748667 0.5782097 0.96621835
2.6844072 0.56886822 1.3159894
2.7007196 0.57440442 1.171735
2.694114 0.57593328 1.0328394
2.6745815 0.57643658 0.8981685
2.7354095 0.57064009 1.2620481
2.7356086 0.57534242 1.1120787
2.7270069 0.57787836 0.97323853
2.6944208 0.57848257 0.83581299
2.7823522 0.57148087 1.2051653
2.7724819 0.57729119 1.0514029
2.7458053 0.57896423 0.90888441
2.7092237 0.58058274 0.77155203
2.8252585 0.57237208 1.1463581
2.7972898 0.57633787 0.98789972
2.7464747 0.57522416 0.83878046
2.7160013 0.58072996 0.7064057
2.8630826 0.57135403 1.0836103
2.8301268 0.57833725 0.92529988
2.7833784 0.58015436 0.77915841
2.7248011 0.58185178 0.64223945
2.9069545 0.57327771 1.0228029
2.8629637 0.58033651 0.86269999
2.8011956 0.58122575 0.71582276
2.740649 0.58591181 0.57999516
2.9558487 0.57616514 0.96291947
2.8877382 0.58041918 0.79721546
2.8169796 0.58334041 0.65054333
2.749449 0.58703363 0.51582891
2.9946432 0.57717931 0.89818954
2.9175379 0.58246541 0.73267275
2.8307371 0.5834806 0.58426589
2.7552533 0.58916605 0.45173708
3.0374222 0.57919705 0.83240288
2.9372571 0.58262032 0.6642831
2.8404994 0.58463502 0.51808161
2.7560363 0.59033459 0.38672149
3.0701387 0.57930523 0.76376897
2.9650197 0.58470994 0.59777862
2.8703299 0.58966261 0.4545925
2.7778907 0.59637272 0.32440045
3.0948155 0.57847852 0.69326806
2.9947865 0.58779216 0.53125447
2.877074 0.59084588 0.38746488
2.761642 0.59362108 0.2586326
3.1435452 0.58252859 0.62440568
3.0144906 0.58896494 0.46188325
2.8737893 0.58908367 0.31947142
2.764451 0.59676415 0.19461516
3.1772096 0.58368737 0.5527721
3.0402019 0.59211588 0.39243534
2.8985834 0.59416544 0.25407699
2.7582495 0.59693998 0.13071278
3.2108777 0.58584583 0.4811565
3.0508666 0.59235728 0.3212159
2.9023097 0.59537756 0.18600608
2.7530708 0.59809387 0.067809299
3.2364647 0.58610576 0.40565658
3.0595312 0.59260583 0.25003403
2.9080577 0.59756422 0.11891527
2.7709115 0.60516429 0.0045817425
3.2590332 0.58639455 0.32921332
3.0731804 0.59385443 0.17777656
2.8997781 0.5968197 0.051033817
2.7227199 0.59645623 -0.056694273
3.2886088 0.58865798 0.25267458
3.1018388 0.59804875 0.10529132
2.9045262 0.59901005 -0.0160382
1.2977231 0.25753492 -0.031136595
3.319169 0.59193558 0.1751354
3.1074896 0.59932601 0.033184186
2.8332593 0.58443975 -0.079989135
1.194217 0.23432466 -0.05262582
3.3496921 0.59524947 0.095596917
2.928036 0.56125593 -0.035167776
1.263496 0.23178796 -0.037963822
-0.02611593 -0.059798401 0.050936799
3.3451748 0.59170818 0.01559031
2.9537361 0.56642455 -0.10557932
1.2779247 0.2352944 -0.069181122
2.3405914 0.51957124 -0.25799882
2.9545839 0.51442027 -0.050517246
2.703562 0.51530409 -0.15583715
2.567863 0.53150105 -0.24803478
2.4813294 0.55839366 -0.33395728
2.8692513 0.49695504 -0.11725814
2.7393098 0.52340013 -0.22438323
2.4778872 0.51371008 -0.29568815
2.4303627 0.54947931 -0.38318101
2.7330391 0.46952987 -0.17522362
2.49542 0.47298658 -0.25974086
2.518687 0.52575129 -0.36225677
2.2547739 0.51156622 -0.4055869
2.6588662 0.45487985 -0.23411986
2.5102718 0.47805005 -0.32194844
2.2642143 0.4709619 -0.37448758
2.2876728 0.52454561 -0.46698892
2.5188644 0.42826992 -0.28099591
2.3764374 0.45125565 -0.35994026
2.291117 0.47994542 -0.43484926
2.3115838 0.53553951 -0.52725816
2.5616145 0.43734068 -0.34965551
2.2816122 0.4333379 -0.3995024
2.3100214 0.48895761 -0.49506062
2.3852601 0.56062293 -0.60320956
2.2821126 0.38367695 -0.36339784
2.3124583 0.4423613 -0.46293819
2.3428416 0.50100952 -0.56047922
2.4917037 0.59483969 -0.69361418
2.3119507 0.3907043 -0.42685091
2.3372827 0.45042452 -0.52727896
2.4224155 0.52416211 -0.64157772
2.4487743 0.59087765 -0.74189848
2.3477361 0.39876419 -0.49339768
2.5224249 0.49266386 -0.6360181
2.48598 0.5443728 -0.72242963
2.3839941 0.58083266 -0.78088051
2.4701226 0.42394307 -0.58526474
2.4575322 0.48272747 -0.68099809
2.4121935 0.53236049 -0.76127863
-0.02611593 -0.059798401 0.050936799
2.4997962 0.43213305 -0.65769666
2.4633112 0.48789558 -0.74703515
2.3643134 0.52636242 -0.80650604
0.19151781 -0.0010928479 -0.035105124
2.5005641 0.43431956 -0.72369391
2.4054248 0.47993371 -0.79211068
-0.02611593 -0.059798401 0.050936799
-0.02611593 -0.059798401 0.050936799
2.4356525 0.42440134 -0.76967359
-0.02611593 -0.059798401 0.050936799
0.18647645 -0.0070557911 -0.036118943
0.16848366 -0.0059913597 -0.035762697
-0.02611593 -0.059798401 0.050936799
0.18749408 -0.012094707 -0.034228507
-0.02611593 -0.059798401 0.050936799
-0.02611593 -0.059798401 0.050936799
-0.02611593 -0.059798401 0.050936799
-0.02611593 -0.059798401 0.050936799
0.15946177 -0.011958039 -0.035701692
0.14348732 -0.010918875 -0.03438336
0.18343379 -0.018043153 -0.036260776
0.16941069 -0.014957242 -0.037942979
-0.02611593 -0.059798401 0.050936799
-0.02611593 -0.059798401 0.050936799
-0.02611593 -0.059798401 0.050936799
-0.02611593 -0.059798401 0.050936799
0.1334991 -0.017917976 -0.032322265
0.12647472 -0.014857187 -0.034135994
0.16040355 -0.021941837 -0.036900334
0.14739901 -0.018877605 -0.037601661
-0.02611593 -0.059798401 0.050936799
-0.02611593 -0.059798401 0.050936799
-0.02611593 -0.059798401 0.050936799
-0.02611593 -0.059798401 0.050936799
0.12045619 -0.019834798 -0.034113344
0.10849976 -0.018828083 -0.031870522
0.13342631 -0.026880264 -0.034483749
0.12738696 -0.022805147 -0.037297923
-0.02611593 -0.059798401 0.050936799
-0.02611593 -0.059798401 0.050936799
-0.02611593 -0.059798401 0.050936799
-0.02611593 -0.059798401 0.050936799
0.10544715 -0.022780456 -0.033885539
0.096471444 -0.021766415 -0.032698754
0.1203834 -0.028797094 -0.036274843
0.11434403 -0.024721969 -0.039089005
-0.02611593 -0.059798401 0.050936799
-0.02611593 -0.059798401 0.050936799
-0.02611593 -0.059798401 0.050936799
-0.02611593 -0.059798401 0.050936799
0.089490525 -0.026776621 -0.030657988
0.087431721 -0.022697767 -0.034546979
0.10141252 -0.031764571 -0.033972543
0.10133462 -0.027674805 -0.038898781
-0.02611593 -0.059798401 0.050936799
-0.02611593 -0.059798401 0.050936799
-0.02611593 -0.059798401 0.050936799
-0.02611593 -0.059798401 0.050936799
0.083412811 -0.027682561 -0.034561906
0.074459754 -0.025686778 -0.032357439
0.088407047 -0.033717573 -0.033764306
0.086366966 -0.029656811 -0.036653645
-0.02611593 -0.059798401 0.050936799
-0.02611593 -0.059798401 0.050936799
-0.02611593 -0.059798401 0.050936799
-0.02611593 -0.059798401 0.050936799
0.074391805 -0.028632004 -0.035410479
0.068419479 -0.026628897 -0.034262031
0.084314175 -0.033612777 -0.038687453
0.076342218 -0.031602491 -0.037501432
-0.02611593 -0.059798401 0.050936799
-0.02611593 -0.059798401 0.050936799
-0.02611593 -0.059798401 0.050936799
-0.02611593 -0.059798401 0.050936799
0.069336563 -0.028559791 -0.038315505
0.063382953 -0.026574774 -0.036167402
0.070342392 -0.036598198 -0.036479123
0.064392716 -0.033613354 -0.034312997
-0.02611593 -0.059798401 0.050936799
-0.02611593 -0.059798401 0.050936799
-0.02611593 -0.059798401 0.050936799
-0.02611593 -0.059798401 0.050936799
0.059349246 -0.030541649 -0.037163977
0.053395655 -0.028556637 -0.035015877
0.060377747 -0.037598312 -0.034309909
0.060318567 -0.03352664 -0.03823648
-0.02611593 -0.059798401 0.050936799
-0.02611593 -0.059798401 0.050936799
-0.02611593 -0.059798401 0.050936799
-0.02611593 -0.059798401 0.050936799
0.047433279 -0.033588517 -0.031994242
0.047392827 -0.029534932 -0.034921154
0.054318745 -0.038522344 -0.037214171
0.049368892 -0.035541091 -0.035066847
-0.02611593 -0.059798401 0.050936799
-0.02611593 -0.059798401 0.050936799
-0.02611593 -0.059798401 0.050936799
-0.02611593 -0.059798401 0.050936799
0.04239675 -0.033534393 -0.033899605
0.039423872 -0.031542055 -0.032807529
0.043391723 -0.039555054 -0.033026841
0.045294732 -0.035454381 -0.038990326
-0.02611593 -0.059798401 0.050936799
-0.02611593 -0.059798401 0.050936799
-0.02611593 -0.059798401 0.050936799
-0.02611593 -0.059798401 0.050936799
0.037356291 -0.034480102 -0.035822999
0.035368439 -0.031473435 -0.03573136
0.039317559 -0.039468341 -0.036950331
0.039273176 -0.036414586 -0.039895259
-0.02611593 -0.059798401 0.050936799
-0.02611593 -0.059798401 0.050936799
-0.02611593 -0.059798401 0.050936799
-0.02611593 -0.059798401 0.050936799
0.030391086 -0.03549099 -0.033710159
0.029384332 -0.03246982 -0.034636978
0.032333639 -0.040461138 -0.035837159
0.031308159 -0.037421882 -0.037763629
-0.02611593 -0.059798401 0.050936799
-0.02611593 -0.059798401 0.050936799
-0.02611593 -0.059798401 0.050936799
-0.02611593 -0.059798401 0.050936799
0.024388261 -0.036469288 -0.033615433
0.024362598 -0.033433616 -0.035560705
0.027311902 -0.041424934 -0.036760882
0.026290355 -0.037385847 -0.038669344
-0.02611593 -0.059798401 0.050936799
-0.02611593 -0.059798401 0.050936799
-0.02611593 -0.059798401 0.050936799
-0.02611593 -0.059798401 0.050936799
-0.02611593 -0.059798401 0.050936799
0.019363508 -0.033415671 -0.035466749
0.021294277 -0.041385312 -0.037647795
0.020324968 -0.038400322 -0.036575291
-0.02611593 -0.059798401 0.050936799
-0.02611593 -0.059798401 0.050936799
-0.02611593 -0.059798401 0.050936799
-0.02611593 -0.059798401 0.050936799
-0.02611593 -0.059798401 0.050936799
0.016289171 -0.033332549 -0.039409023
0.016295195 -0.041367367 -0.037553843
0.01625081 -0.038313609 -0.040498774
-0.02611593 -0.059798401 0.050936799
-0.02611593 -0.059798401 0.050936799
-0.02611593 -0.059798401 0.050936799
-0.02611593 -0.059798401 0.050936799
-0.02611593 -0.059798401 0.050936799
-0.02611593 -0.059798401 0.050936799
-0.02611593 -0.059798401 0.050936799
-0.02611593 -0.059798401 0.050936799
-0.02611593 -0.059798401 0.050936799
-0.02611593 -0.059798401 0.050936799
-0.02611593 -0.059798401 0.050936799
-0.02611593 -0.059798401 0.050936799
-0.02611593 -0.059798401 0.050936799
-0.02611593 -0.059798401 0.050936799
-0.02611593 -0.059798401 0.050936799
-0.02611593 -0.059798401 0.050936799
-0.02611593 -0.059798401 0.050936799
-0.02611593 -0.059798401 0.050936799
-0.02611593 -0.059798401 0.050936799
-0.02611593 -0.059798401 0.050936799
-0.02611593 -0.059798401 0.050936799
-0.02611593 -0.059798401 0.050936799
-0.02611593 -0.059798401 0.050936799
-0.02611593 -0.059798401 0.050936799
-0.02611593 -0.059798401 0.050936799
-0.02611593 -0.059798401 0.050936799
-0.02611593 -0.059798401 0.050936799
-0.02611593 -0.059798401 0.050936799
-0.02611593 -0.059798401 0.050936799
-0.02611593 -0.059798401 0.050936799
-0.02611593 -0.059798401 0.050936799
-0.02611593 -0.059798401 0.050936799
-0.02611593 -0.059798401 0.050936799
-0.02611593 -0.059798401 0.050936799
-0.02611593 -0.059798401 0.050936799
-0.02611593 -0.059798401 0.050936799
-0.02611593 -0.059798401 0.050936799
-0.02611593 -0.059798401 0.050936799
-0.02611593 -0.059798401 0.050936799
-0.02611593 -0.059798401 0.050936799
-0.02611593 -0.059798401 0.050936799
-0.02611593 -0.059798401 0.050936799
-0.02611593 -0.059798401 0.050936799
-0.02611593 -0.059798401 0.050936799
-0.02611593 -0.059798401 0.050936799
-0.02611593 -0.059798401 0.050936799
-0.02611593 -0.059798401 0.050936799
-0.02611593 -0.059798401 0.050936799
-0.02611593 -0.059798401 0.050936799
-0.02611593 -0.059798401 0.050936799
-0.02611593 -0.059798401 0.050936799
-0.02611593 -0.059798401 0.050936799
-0.02611593 -0.059798401 0.050936799
-0.02611593 -0.059798401 0.050936799
-0.02611593 -0.059798401 0.050936799
-0.02611593 -0.059798401 0.050936799
-0.02611593 -0.059798401 0.050936799
-0.02611593 -0.059798401 0.050936799
-0.02611593 -0.059798401 0.050936799
-0.02611593 -0.059798401 0.050936799
-0.02611593 -0.059798401 0.050936799
-0.02611593 -0.059798401 0.050936799
-0.02611593 -0.059798401 0.050936799
-0.02611593 -0.059798401 0.050936799
-0.02611593 -0.059798401 0.050936799
-0.02611593 -0.059798401 0.050936799
-0.02611593 -0.059798401 0.050936799
-0.02611593 -0.059798401 0.050936799
-0.02611593 -0.059798401 0.050936799
-0.02611593 -0.059798401 0.050936799
-0.02611593 -0.059798401 0.050936799
-0.02611593 -0.059798401 0.050936799
-0.02611593 -0.059798401 0.050936799
-0.02611593 -0.059798401 0.050936799
-0.02611593 -0.059798401 0.050936799
-0.02611593 -0.059798401 0.050936799
-0.02611593 -0.059798401 0.050936799
-0.02611593 -0.059798401 0.050936799
-0.02611593 -0.059798401 0.050936799
-0.02611593 -0.059798401 0.050936799
-0.02611593 -0.059798401 0.050936799
-0.02611593 -0.059798401 0.050936799
-0.02611593 -0.059798401 0.050936799
-0.02611593 -0.059798401 0.050936799
-0.02611593 -0.059798401 0.050936799
-0.02611593 -0.059798401 0.050936799
-0.02611593 -0.059798401 0.050936799
-0.02611593 -0.059798401 0.050936799
-0.02611593 -0.059798401 0.050936799
-0.02611593 -0.059798401 0.050936799
-0.02611593 -0.059798401 0.050936799
-0.02611593 -0.059798401 0.050936799
-0.02611593 -0.059798401 0.050936799
-0.02611593 -0.059798401 0.050936799
-0.02611593 -0.059798401 0.050936799
-0.02611593 -0.059798401 0.050936799
-0.02611593 -0.059798401 0.050936799
-0.02611593 -0.059798401 0.050936799
-0.02611593 -0.059798401 0.050936799
-0.02611593 -0.059798401 0.050936799
-0.02611593 -0.059798401 0.050936799
-0.02611593 -0.059798401 0.050936799
-0.02611593 -0.059798401 0.050936799
-0.02611593 -0.059798401 0.050936799
-0.02611593 -0.059798401 0.050936799
-0.02611593 -0.059798401 0.050936799
-0.02611593 -0.059798401 0.050936799
-0.02611593 -0.059798401 0.050936799
-0.02611593 -0.059798401 0.050936799
-0.02611593 -0.059798401 0.050936799
-0.02611593 -0.059798401 0.050936799
-0.02611593 -0.059798401 0.050936799
-0.02611593 -0.059798401 0.050936799
-0.02611593 -0.059798401 0.050936799
-0.02611593 -0.059798401 0.050936799
-0.02611593 -0.059798401 0.050936799
-0.02611593 -0.059798401 0.050936799
-0.02611593 -0.059798401 0.050936799
-0.02611593 -0.059798401 0.050936799
-0.02611593 -0.059798401 0.050936799
-0.02611593 -0.059798401 0.050936799
-0.02611593 -0.059798401 0.050936799
-0.02611593 -0.059798401 0.050936799
-0.02611593 -0.059798401 0.050936799
-0.02611593 -0.059798401 0.050936799
-0.02611593 -0.059798401 0.050936799
-0.02611593 -0.059798401 0.050936799
-0.02611593 -0.059798401 0.050936799
-0.02611593 -0.059798401 0.050936799
-0.02611593 -0.059798401 0.050936799
-0.02611593 -0.059798401 0.050936799
-0.02611593 -0.059798401 0.050936799
-0.02611593 -0.059798401 0.050936799
-0.02611593 -0.059798401 0.050936799
-0.02611593 -0.059798401 0.050936799
-0.02611593 -0.059798401 0.050936799
-0.02611593 -0.059798401 0.050936799
-0.02611593 -0.059798401 0.050936799
-0.02611593 -0.059798401 0.050936799
-0.02611593 -0.059798401 0.050936799
-0.02611593 -0.059798401 0.050936799
-0.02611593 -0.059798401 0.050936799
-0.02611593 -0.059798401 0.050936799
-0.02611593 -0.059798401 0.050936799
-0.02611593 -0.059798401 0.050936799
-0.02611593 -0.059798401 0.050936799
-0.02611593 -0.059798401 0.050936799
-0.02611593 -0.059798401 0.050936799
-0.02611593 -0.059798401 0.050936799
-0.061704412 -0.035052277 -0.037979398
-0.02611593 -0.059798401 0.050936799
-0.02611593 -0.059798401 0.050936799
-0.02611593 -0.059798401 0.050936799
-0.02611593 -0.059798401 0.050936799
-0.02611593 -0.059798401 0.050936799
-0.02611593 -0.059798401 0.050936799
-0.02611593 -0.059798401 0.050936799
-0.02611593 -0.059798401 0.050936799
-0.077754639 -0.038957994 -0.039750144
-0.074766055 -0.036951013 -0.040770143
-0.02611593 -0.059798401 0.050936799
-0.02611593 -0.059798401 0.050936799
-0.02611593 -0.059798401 0.050936799
-0.02611593 -0.059798401 0.050936799
-0.02611593 -0.059798401 0.050936799
-0.069650702 -0.036077663 -0.034848105
-0.079641938 -0.039059352 -0.0337146
-0.079708979 -0.036987334 -0.037677206
-0.02611593 -0.059798401 0.050936799
-0.02611593 -0.059798401 0.050936799
-0.02611593 -0.059798401 0.050936799
-0.02611593 -0.059798401 0.050936799
-0.07765317 -0.037048776 -0.034715801
-0.074631065 -0.036077809 -0.033754494
-0.08565563 -0.038019896 -0.034583494
-0.081618927 -0.038070433 -0.032659337
-0.02611593 -0.059798401 0.050936799
-0.02611593 -0.059798401 0.050936799
-0.02611593 -0.059798401 0.050936799
-0.02611593 -0.059798401 0.050936799
-0.02611593 -0.059798401 0.050936799
-0.081696823 -0.033980668 -0.037585568
-0.092669144 -0.036976859 -0.035433602
-0.088651158 -0.037009299 -0.034509104
-0.02611593 -0.059798401 0.050936799
-0.02611593 -0.059798401 0.050936799
-0.02611593 -0.059798401 0.050936799
-0.02611593 -0.059798401 0.050936799
-0.08659143 -0.036070921 -0.03152968
-0.083591983 -0.036081687 -0.031586051
-0.096612245 -0.037016768 -0.032359462
-0.097716548 -0.034904987 -0.0383026
-0.02611593 -0.059798401 0.050936799
-0.02611593 -0.059798401 0.050936799
-0.02611593 -0.059798401 0.050936799
-0.02611593 -0.059798401 0.050936799
-0.092590339 -0.036049388 -0.031416938
-0.090620287 -0.034020722 -0.03341781
-0.10053663 -0.037074767 -0.028285645
-0.10265946 -0.034941312 -0.035209659
-0.02611593 -0.059798401 0.050936799
-0.02611593 -0.059798401 0.050936799
-0.02611593 -0.059798401 0.050936799
-0.02611593 -0.059798401 0.050936799
-0.099603847 -0.035006344 -0.032267056
-0.097637728 -0.033977512 -0.034285937
-0.11160165 -0.034963276 -0.032041568
-0.10761717 -0.033959713 -0.03309837
-0.02611593 -0.059798401 0.050936799
-0.02611593 -0.059798401 0.050936799
-0.02611593 -0.059798401 0.050936799
-0.02611593 -0.059798401 0.050936799
-0.10252841 -0.035067935 -0.028212029
-0.099547677 -0.035060611 -0.029268071
-0.11654064 -0.033999767 -0.028930612
-0.1166116 -0.03292758 -0.032911237
-0.02611593 -0.059798401 0.050936799
-0.02611593 -0.059798401 0.050936799
-0.02611593 -0.059798401 0.050936799
-0.02611593 -0.059798401 0.050936799
-0.1095232 -0.034042981 -0.028062478
-0.11062749 -0.031931192 -0.03400562
-0.12858675 -0.031902771 -0.031668071
-0.12460621 -0.031899039 -0.032742891
-0.02611593 -0.059798401 0.050936799
-0.02611593 -0.059798401 0.050936799
-0.02611593 -0.059798401 0.050936799
-0.02611593 -0.059798401 0.050936799
-0.11853635 -0.032992758 -0.028875012
-0.11658896 -0.03194584 -0.031893559
-0.13554411 -0.030913997 -0.029519185
-0.1325821 -0.030888587 -0.03157489
-0.02611593 -0.059798401 0.050936799
-0.02611593 -0.059798401 0.050936799
-0.02611593 -0.059798401 0.050936799
-0.02611593 -0.059798401 0.050936799
-0.12651223 -0.031982306 -0.027706999
-0.12558338 -0.030913711 -0.031706423
-0.15056702 -0.027824499 -0.031182606
-0.14459077 -0.028827772 -0.032313026
-0.02611593 -0.059798401 0.050936799
-0.02611593 -0.059798401 0.050936799
-0.02611593 -0.059798401 0.050936799
-0.02611593 -0.059798401 0.050936799
-0.13652126 -0.029928666 -0.028482728
-0.13457781 -0.029881578 -0.031519294
-0.15649103 -0.027875319 -0.027071211
-0.1515294 -0.027857088 -0.029164482
-0.02611593 -0.059798401 0.050936799
-0.02611593 -0.059798401 0.050936799
-0.02611593 -0.059798401 0.050936799
-0.02611593 -0.059798401 0.050936799
-0.1424453 -0.02997949 -0.024371341
-0.139502 -0.02993599 -0.02742669
-0.17652783 -0.023749951 -0.029622313
-0.16551504 -0.024807349 -0.028847359
-0.02611593 -0.059798401 0.050936799
-0.02611593 -0.059798401 0.050936799
-0.02611593 -0.059798401 0.050936799
-0.02611593 -0.059798401 0.050936799
-0.15443523 -0.027936764 -0.024109814
-0.15251048 -0.027871586 -0.02814604
-0.19149458 -0.020714719 -0.028286729
-0.18453725 -0.021703493 -0.030435614
-0.02611593 -0.059798401 0.050936799
-0.02611593 -0.059798401 0.050936799
-0.02611593 -0.059798401 0.050936799
-0.02611593 -0.059798401 0.050936799
-0.17245758 -0.024836494 -0.025716849
-0.15641613 -0.027947675 -0.023072567
-0.21548925 -0.015611347 -0.028745331
-0.02611593 -0.059798401 0.050936799
-0.02611593 -0.059798401 0.050936799
-0.02611593 -0.059798401 0.050936799
-0.02611593 -0.059798401 0.050936799
-0.02611593 -0.059798401 0.050936799
-0.18540993 -0.022826359 -0.023437213
-0.1734239 -0.025868915 -0.023716755
-0.24449784 -0.0094721094 -0.030091625
-0.23053092 -0.012503753 -0.031408403
-0.02611593 -0.059798401 0.050936799
-0.02611593 -0.059798401 0.050936799
-0.02611593 -0.059798401 0.050936799
-0.02611593 -0.059798401 0.050936799
-0.21849266 -0.01660041 -0.028706979
-0.19947439 -0.020704096 -0.027136754
-0.26440361 -0.0054733683 -0.025645092
-0.25649175 -0.0084292153 -0.029848117
-0.02611593 -0.059798401 0.050936799
-0.02611593 -0.059798401 0.050936799
-0.02611593 -0.059798401 0.050936799
-0.02611593 -0.059798401 0.050936799
-0.24950086 -0.010453995 -0.030015685
-0.22649118 -0.016571699 -0.028556652
-0.97634256 0.1535906 -0.20549935
-0.96187836 0.14702636 -0.23289821
-0.02611593 -0.059798401 0.050936799
-0.02611593 -0.059798401 0.050936799
-0.99097633 0.15530041 -0.18618789
-0.97451633 0.14772917 -0.21364234
-0.02611593 -0.059798401 0.050936799
-0.25548887 -0.012450208 -0.028939322
-0.99757785 0.15594549 -0.16504546
-0.98914993 0.14943896 -0.19433087
-0.97167534 0.14084621 -0.22082245
-0.02611593 -0.059798401 0.050936799
-1.0141884 0.1586442 -0.14467873
-0.99673659 0.14906971 -0.17218801
-0.98531312 0.14155258 -0.20154779
-0.96385115 0.12994598 -0.22816861
-1.0177759 0.1582606 -0.12261102
-1.0203983 0.15284765 -0.15467072
-0.99591798 0.1412122 -0.18034822
-0.98250669 0.1306884 -0.20979966
-1.0213406 0.15885875 -0.09952563
-1.0179572 0.15040667 -0.13075246
-1.005523 0.14086822 -0.15916742
-0.99612969 0.13037686 -0.18954338
-1.0239282 0.15847155 -0.077476725
-1.0245439 0.15003383 -0.10862839
-1.015128 0.14052422 -0.13798665
-1.003739 0.12902588 -0.1684182
-1.0435156 0.1621628 -0.056035951
-1.0341263 0.1506716 -0.086429916
-1.0197004 0.1391263 -0.1149185
-1.0143478 0.12768567 -0.14723662
-1.0751116 0.16791484 -0.03533332
-1.0547322 0.15438451 -0.065970026
-1.0272869 0.13875705 -0.092775628
-1.0129064 0.12524828 -0.12329958
-1.0846901 0.16955242 -0.013116844
-1.0763233 0.15708308 -0.044509694
-1.0519149 0.14150257 -0.073258266
-1.020497 0.12387919 -0.10117474
-1.0992262 0.17217159 0.011210933
-1.0898634 0.15869884 -0.020218723
-1.0614825 0.14112242 -0.050078146
-1.0371007 0.12356033 -0.079862416
-1.1047866 0.17377675 0.034351923
-1.0954318 0.15830433 0.0028862283
-1.0860542 0.14381365 -0.027561784
-1.0637096 0.12629496 -0.059307799
-1.1232996 0.17739202 0.059772544
-1.1149631 0.16194129 0.027325977
-1.1046083 0.1464653 -0.0041585043
-1.0802718 0.12693973 -0.035978131
-1.1278641 0.17799374 0.082876727
-1.1085227 0.15948595 0.05116906
-1.0991529 0.14299564 0.02068501
-1.0858253 0.12552732 -0.011891544
-1.1353866 0.1795699 0.10805461
-1.1320533 0.16313729 0.075683981
-1.1247019 0.14667223 0.044237852
-1.1073829 0.12718987 0.011550091
-1.1618674 0.1861953 0.13467927
-1.1435751 0.16472779 0.10093703
-1.1322136 0.14623064 0.070379362
-1.1129175 0.12575935 0.036636345
-0.02611593 -0.059798401 0.050936799
-1.156074 0.16730362 0.12722655
-1.1427584 0.14683577 0.094595939
-1.1254472 0.12535377 0.061872147
-1.1957998 0.19332464 0.19046244
-1.1695583 0.16886511 0.15451652
-1.1502662 0.14739402 0.12075547
-1.1509626 0.12799436 0.087406285
-0.02611593 -0.059798401 0.050936799
-1.1800427 0.17041585 0.18175009
-1.1727446 0.14998765 0.14823255
-0.02611593 -0.059798401 0.050936799
-1.2256955 0.20040347 0.24816979
-1.2094522 0.17597984 0.21241176
-1.1862099 0.15153106 0.17652217
-1.1779425 0.12811787 0.14193213
-0.02611593 -0.059798401 0.050936799
-0.02611593 -0.059798401 0.050936799
-1.1887039 0.15105343 0.20356941
-0.02611593 -0.059798401 0.050936799
-1.2783951 0.213401 0.31541437
-1.2452905 0.1830259 0.27323079
-1.2240787 0.15560292 0.2363251
-1.2038624 0.12918335 0.19945621
-1.2599421 0.2098847 0.34001362
-1.2567 0.18450786 0.3044818
-0.02611593 -0.059798401 0.050936799
-0.02611593 -0.059798401 0.050936799
-0.02611593 -0.059798401 0.050936799
-1.2929692 0.19197001 0.3423087
-1.2698215 0.16259445 0.30233037
-0.02611593 -0.059798401 0.050936799
-1.357253 0.23371625 0.42629588
-1.2894268 0.19143467 0.37124246
-1.2941459 0.16605037 0.33786038
-0.02611593 -0.059798401 0.050936799
-3.1194313 0.62641037 0.99758565
-1.3504844 0.20380478 0.41962582
-0.02611593 -0.059798401 0.050936799
-0.02611593 -0.059798401 0.050936799
-3.0971658 0.62410504 1.06515
-3.1208894 0.55760652 0.98636454
-1.322829 0.16990906 0.40749079
-0.02611593 -0.059798401 0.050936799
-3.1602595 0.64258027 1.1636988
-3.0936141 0.55326563 1.0547986
-3.1242347 0.4887014 0.981179
-0.02611593 -0.059798401 0.050936799
-3.2034321 0.656039 1.2587829
-3.1557045 0.56771982 1.1542562
-3.0820341 0.48036161 1.04626
-3.1375833 0.41381511 0.97707295
-3.2197838 0.66354638 1.3452541
-3.2226968 0.58310145 1.2588242
-3.1560555 0.49278685 1.1499059
-3.0883729 0.40343246 1.0429862
-3.1884637 0.66115451 1.4156483
-3.2965152 0.59934515 1.3725387
-3.2289646 0.50510001 1.2595309
-3.1524343 0.41084078 1.1453542
-3.1581438 0.65876627 1.4860613
-3.3632975 0.61552763 1.4881209
-3.2849226 0.51538873 1.3668009
-3.2303171 0.42013621 1.2570183
-3.0862594 0.6476087 1.53453
-3.4388833 0.63356107 1.6139048
-3.3685558 0.53048766 1.4906819
-3.2951686 0.42834902 1.3704195
-3.0500531 0.64530754 1.5988324
-3.4886577 0.64766467 1.7301313
-3.4570155 0.54644144 1.6236718
-3.3708456 0.43743828 1.4930425
-3.007874 0.64100319 1.6619862
-3.4373386 0.64118373 1.8010774
-4.041585 0.65189058 2.0046532
-3.4691994 0.45131984 1.6321821
-2.9785836 0.64065433 1.7304546
-3.4246061 0.64247954 1.8928934
-4.0117068 0.64796346 2.1050568
-5.0631256 0.6857748 2.511564
-2.9492927 0.64030558 1.7989231
-3.4365649 0.6495927 2.0002825
-3.9966462 0.64692688 2.2147932
-4.9791427 0.67251074 2.6187878
-2.9209456 0.63990605 1.8704094
-3.3446965 0.63536394 2.0483215
-3.4811652 0.55804616 2.0394747
-4.6043301 0.61603904 2.5627301
-2.8689039 0.63469261 1.9263598
-3.3170874 0.63471472 2.1338217
-3.9535453 0.64482504 2.4330223
-3.4416952 0.44399437 2.0326705
-2.8228152 0.63146418 1.9844581
-3.1305318 0.60132056 2.1147184
-3.9097445 0.64092004 2.5291641
-4.632555 0.62062413 2.8694453
-2.6929142 0.6069836 1.9825824
-3.2371511 0.62958068 2.2902851
-3.1127446 0.50009227 2.1225569
-3.5620358 0.4630881 2.3313701
-2.7611701 0.63270128 2.1243737
-2.6002023 0.49847889 1.9338675
-4.2501407 0.71224487 3.0299971
-4.4007497 0.58894897 3.0225842
-2.7131047 0.62848395 2.181417
-2.8930905 0.56796789 2.2487147
-3.2309678 0.53010458 2.4254158
-2.6331861 0.32793033 1.9143934
-2.6689517 0.62720805 2.242588
-3.0949273 0.61996198 2.5155249
-2.779567 0.45053399 2.1914458
-2.7457685 0.34614128 2.0938914
-2.6297231 0.6258778 2.3078516
-3.0593152 0.62028396 2.6008928
-3.9599333 0.67599076 3.2579851
-2.7527106 0.34820119 2.2030957
-1.9056578 0.4429861 1.7537988
-2.3472688 0.4666017 2.0936093
-3.8636191 0.66533089 3.3290131
-2.70542 0.34377035 2.2721536
-1.8453258 0.43441036 1.7725205
-1.874951 0.36487004 1.7528106
-1.9104848 0.2992782 1.7372842
-2.3768563 0.29666233 2.0950899
-1.8105309 0.43251067 1.814849
-1.8253766 0.360116 1.7838069
-1.8559339 0.2935245 1.7671689
-1.8875215 0.22395515 1.7494957
-1.9796014 0.48862079 2.0681152
-1.9082365 0.38550755 1.9468729
-1.8269506 0.29146543 1.8196068
-1.831952 0.21817973 1.7803614
-2.1904445 0.55876112 2.384439
-2.0780952 0.43338743 2.2130096
-1.9979379 0.33044088 2.0806017
-1.9255605 0.23534082 1.9584849
-2.33619 0.61246336 2.655231
-2.2661324 0.48857436 2.5216329
-2.1989331 0.37660366 2.3933058
-2.0963211 0.26506454 2.2333128
-2.2704725 0.60650736 2.6939058
-2.6718752 0.59970355 3.1034369
-3.2851501 0.60578316 3.7322423
-3.348789 0.46914113 3.7249594
-2.2154756 0.60433686 2.7468548
-2.6096213 0.596255 3.1702316
-3.187001 0.59627873 3.7942538
-3.2466218 0.4596042 3.7878954
-2.160501 0.60118479 2.7987859
-2.5424616 0.59287882 3.2319341
-3.0986884 0.58966488 3.8645043
-3.1464131 0.45103806 3.8528864
-2.1045411 0.59904683 2.8497169
-2.4898903 0.59317601 3.3149831
-3.0054743 0.58212376 3.9296448
-3.0462229 0.4424901 3.9168777
-2.0514424 0.59879285 2.9077377
-2.889164 0.71595502 4.0259209
-2.9083362 0.57464063 3.9907115
-2.9499681 0.43590194 3.9839792
-1.9944829 0.59665138 2.9586499
-2.7931187 0.70856583 4.0820079
-2.8190196 0.56902307 4.0609612
-2.8488116 0.42838639 4.04597
-1.9326632 0.592619 3.0024345
-2.7019718 0.7031039 4.1432233
-2.7228961 0.56256151 4.1210651
-2.7515759 0.42181262 4.1120529
-1.8795266 0.59232873 3.0624547
-2.6088846 0.69668931 4.2013841
-2.6257725 0.55609632 4.18115
-2.6552982 0.41620609 4.1801724
-1.817643 0.59024173 3.1092741
-2.5167522 0.69224167 4.2615991
-2.5335131 0.55052221 4.2483449
-2.5551193 0.4096759 4.2431998
-1.7557821 0.58717287 3.155076
-2.080457 0.57946223 3.7092032
-2.4393432 0.54603124 4.3105216
-2.4539962 0.40319628 4.3032098
-1.6967216 0.58693355 3.2109849
-2.005295 0.57705724 3.7707734
-2.3412161 0.54056227 4.3706055
-2.3586731 0.39955688 4.373383
-1.6367401 0.5857631 3.2628582
-2.2383595 0.67789191 4.4421887
-2.2440698 0.53507888 4.4317088
-2.2564902 0.39401925 4.4363914
-1.5670718 0.58184665 3.2984953
-1.8482007 0.57143939 3.881768
-2.14592 0.53059155 4.4928102
-2.155266 0.389449 4.5014353
-1.4974035 0.57793021 3.334132
-2.0500166 0.66990978 4.5665598
-2.0487471 0.52708972 4.5549488
-2.0540421 0.38487858 4.5664792
-1.4305395 0.57584333 3.3798578
-1.9538999 0.6664657 4.6257186
-1.9524577 0.52448267 4.6231222
-1.9528093 0.38230792 4.6315594
-1.005284 0.4036825 2.5174892
-0.99771208 0.32377595 2.5098996
-0.99020708 0.24594139 2.4983475
-0.9816944 0.17010288 2.4868124
-0.92240369 0.3853792 2.4605873
-0.91001594 0.30663535 2.442925
-0.90142059 0.2327242 2.4354243
-0.89093786 0.15891436 2.4218884
-0.8425377 0.36810452 2.40276
-0.82911956 0.29233855 2.3861325
-0.81955391 0.22045961 2.3766499
-0.80988693 0.15048985 2.3722019
-0.77145231 0.35366267 2.3561521
-0.75410593 0.27895451 2.3354688
-0.73876208 0.20827094 2.3138955
-0.72527909 0.13946758 2.2993937
-0.69766009 0.3364819 2.2944386
-0.68118542 0.26566815 2.2798443
-0.66767579 0.19884634 2.2663782
-0.65214783 0.13199928 2.2538738
-0.63255095 0.32304332 2.2489612
-0.61318529 0.25332716 2.2283306
-0.59766811 0.18849784 2.2148628
-0.58305329 0.12458152 2.2064302
-0.56944144 0.30961192 2.2035213
-0.55006397 0.24289528 2.1829445
-0.53442669 0.17995706 2.1755109
-0.51603329 0.11724328 2.1550252
-0.50934613 0.29720926 2.157156
-0.49165308 0.23420966 2.1526835
-0.47229734 0.17152838 2.1301796
-0.45379859 0.11172368 2.1147463
-0.45399871 0.28658897 2.1239166
-0.43260989 0.22286457 2.1033564
-0.41503209 0.16399091 2.0919583
-0.39637575 0.10604113 2.0845582
-0.39976346 0.27608085 2.0846977
-0.37919411 0.21519674 2.0732071
-0.36062741 0.15833719 2.0608268
-0.33829004 0.10068058 2.0363574
-0.35023859 0.26731896 2.0606036
-0.32773662 0.2084997 2.0451131
-0.30630544 0.15075622 2.0256608
-0.28659612 0.096765973 2.0203133
-0.29992375 0.25775266 2.0254767
-0.27912882 0.20166874 2.0250726
-0.2628226 0.15113141 2.0508621
-0.24457689 0.099641338 2.073597
-0.25855681 0.25724372 2.0446994
-0.23914276 0.20558727 2.0764122
-0.22162685 0.15584722 2.1131968
-0.20042697 0.1023829 2.1338401
-0.22046888 0.26307869 2.1011109
-0.1989803 0.21134271 2.136785
-0.17751044 0.1596248 2.171459
-0.15408231 0.10693605 2.2040787
-0.18026899 0.26879793 2.1634829
-0.15482251 0.21608393 2.1970644
-0.02611593 -0.059798401 0.050936799
-0.26595354 0.46417889 6.8802204
-0.13695341 0.27539772 2.2318146
-0.19549063 0.51990527 4.6051378
-0.16071902 0.49966022 5.5544424
-0.1009499 0.46359527 6.932138
-0.14001945 0.53982425 3.9872501
-0.093146637 0.51617801 4.6231604
-0.030053988 0.49752453 5.5889688
0.06482999 0.45105684 6.8147678
-0.053439975 0.53793693 4.0176053
0.011257097 0.51338899 4.6441622
0.098925412 0.49304414 5.5874729
0.22102988 0.43304971 6.61445
0.032794628 0.53437555 4.0299301
0.1167582 0.51150584 4.6701617
0.23094298 0.49457857 5.6400466
0.36817524 0.41512918 6.4113016
0.12020147 0.53164756 4.0512519
0.22251445 0.51238704 4.7092109
0.36090738 0.49111256 5.6375499
0.50317693 0.39839625 6.2003999
0.20870566 0.52982545 4.0775704
0.32732582 0.50715578 4.6991506
0.53192174 0.52892232 6.0551734
0.6304087 0.38247478 6.0016623
0.30021328 0.5289923 4.1038513
0.4368262 0.50525826 4.7250748
0.64743841 0.50269341 5.8204565
0.75285524 0.36837202 5.8140507
0.39173955 0.52814114 4.1311316
0.54612064 0.50355971 4.7400031
0.77294898 0.49261427 5.7418976
-0.02611593 -0.059798401 0.050936799
0.48624659 0.52729732 4.1573558
0.65972167 0.50355709 4.7708869
-0.02611593 -0.059798401 0.050936799
0.97647542 0.34255737 5.477283
-0.02611593 -0.059798401 0.050936799
-0.02611593 -0.059798401 0.050936799
0.99441135 0.46097913 5.4510803
1.08154 0.33193958 5.3220711
0.16679123 0.099044301 1.1845826
-0.02611593 -0.059798401 0.050936799
0.26392999 0.070608392 1.4093257
0.29065746 0.040661298 1.4002805
-0.02611593 -0.059798401 0.050936799
0.2681407 0.10049849 1.4147894
1.189849 0.4314732 5.1587887
1.2730176 0.31244633 5.0300345
0.26937068 0.13038127 1.4213091
-0.02611593 -0.059798401 0.050936799
1.2780881 0.41673625 5.0138211
1.3591645 0.30282423 4.8791971
-0.02611593 -0.059798401 0.050936799
-0.02611593 -0.059798401 0.050936799
1.364448 0.40389764 4.8749247
1.4499817 0.29655391 4.7633438
-0.02611593 -0.059798401 0.050936799
1.3561633 0.49854347 4.8417807
1.4533435 0.39354479 4.7640352
1.5325116 0.28858405 4.6326098
1.1761636 0.51382178 4.255228
1.445313 0.48593763 4.7448506
1.5318584 0.38158992 4.6333051
-0.02611593 -0.059798401 0.050936799
1.2983673 0.5192287 4.317059
1.5282915 0.47251642 4.6390181
1.6064715 0.37055886 4.5076656
0.3816587 0.019997571 1.0840958
1.4151666 0.52203387 4.3579369
1.6019454 0.45743531 4.516325
-0.02611593 -0.059798401 0.050936799
0.49552169 0.036927134 1.2853384
1.524274 0.52051622 4.3628683
-0.02611593 -0.059798401 0.050936799
0.49888146 0.061658867 1.2997278
1.8316876 0.26584098 4.1644382
-0.02611593 -0.059798401 0.050936799
0.49287537 0.083767101 1.2952386
1.8252839 0.34558111 4.1810064
1.9016662 0.26150098 4.057013
0.46085009 0.098925143 1.2380929
1.8169024 0.42129296 4.1995392
1.8901315 0.3363685 4.0675874
1.9666646 0.25716093 3.9506822
0.5148415 0.10479311 1.2892056
1.8808546 0.4099758 4.0921006
1.9541557 0.32899633 3.9632199
2.0306857 0.25380617 3.8453867
1.8564712 0.47972798 4.1118259
1.9439046 0.39957151 3.9896972
2.0162175 0.32159519 3.860889
2.0979722 0.25118721 3.7540488
1.9195989 0.46523392 4.0143485
2.0039699 0.38816011 3.8883319
2.0835903 0.31688613 3.7745135
2.1601436 0.24769492 3.6567888
1.9787166 0.45277202 3.915983
2.0661964 0.37959635 3.7949803
2.1448286 0.3113254 3.6812348
2.2204542 0.24608283 3.5665998
2.0461552 0.44097376 3.8344793
2.1275167 0.37094566 3.706646
2.2061417 0.30569232 3.5919545
2.2776675 0.24357216 3.4714508
2.1023483 0.42845029 3.7401686
2.1878226 0.36331654 3.6173484
2.2634225 0.30110961 3.5007682
2.3400941 0.24284419 3.3872404
2.1627133 0.41674948 3.6547978
2.2461846 0.35564029 3.5310876
2.3228149 0.29641122 3.4155424
2.3964429 0.24121025 3.2991259
2.2190456 0.40609896 3.5675209
2.2984319 0.3470943 3.4389238
2.3771336 0.29180306 3.326412
2.4497733 0.23960526 3.2100682
2.2733593 0.39547381 3.4792819
2.3548357 0.34038892 3.3547177
2.4304936 0.2881622 3.2393174
2.5062425 0.23986247 3.1279879
2.3257294 0.38480154 3.3940794
2.4144118 0.33450979 3.2794704
2.4890254 0.28534043 3.161144
2.5617075 0.23912346 3.0459082
2.3822567 0.37596986 3.3168352
2.4627008 0.32694179 3.189399
2.5394235 0.28167409 3.0761054
2.6161954 0.23936976 2.9648652
2.4356868 0.36623952 3.2346308
2.5151885 0.32217801 3.109303
2.5929189 0.27890646 2.9960265
2.6686654 0.23964137 2.8828597
2.4881775 0.35745841 3.1554623
2.5738246 0.31724805 3.0370915
2.6454554 0.27710599 2.9179838
2.7160757 0.23898533 2.7979314
2.5427275 0.3496156 3.0792737
2.6212301 0.31057489 2.9530547
2.6979697 0.27432385 2.8389235
2.7747581 0.24103606 2.7268457
2.5922186 0.3408452 3.0001614
2.6676626 0.30588698 2.8700726
2.7505248 0.27250528 2.7618806
2.8191731 0.24139063 2.6419919
2.6437922 0.33399495 2.9250464
2.7253401 0.3019242 2.7998972
2.7939696 0.27082759 2.6790087
2.8646252 0.24170542 2.5591185
2.689265 0.32525703 2.8450098
2.772866 0.29714224 2.7218945
2.8394475 0.26810673 2.5980809
2.9690907 0.24885195 2.5282815
2.7449539 0.31928372 2.7758358
2.819396 0.29336369 2.6439285
2.8961411 0.2681469 2.5279963
3.0186245 0.25107974 2.4493675
2.7812788 0.31072274 2.6879711
2.863904 0.28861055 2.5649827
2.9914467 0.27247101 2.4892766
3.0711961 0.25326052 2.3723965
2.8349497 0.3047747 2.6178348
2.9551792 0.28996757 2.5252848
3.03391 0.27077878 2.4074235
3.1228046 0.2554087 2.2974439
2.8815238 0.2979424 2.5428138
3.0088282 0.288055 2.4532208
3.0875709 0.27186573 2.3354139
3.1703393 0.25764361 2.2185676
2.976907 0.29817671 2.5090206
3.0635102 0.28510284 2.3831201
3.1371303 0.27105778 2.2584453
3.2178967 0.26086029 2.1407089
3.0254664 0.29235515 2.4329805
3.1131036 0.28325894 2.3081329
3.1857135 0.2712352 2.1825132
3.2634127 0.26312047 2.0608706
3.0659666 0.28561667 2.3540738
3.1556156 0.27951282 2.2292423
3.2363183 0.27238715 2.1075613
4.6866784 0.40059704 2.7799537
3.1145673 0.2807588 2.2800508
3.2102644 0.27759668 2.1571603
3.28492 0.2725465 2.0326288
4.7738695 0.40803117 2.6814222
3.1743009 0.27673459 2.2128365
3.2588575 0.27575633 2.0821917
4.6724648 0.40683666 2.7143106
4.7205815 0.40135983 2.5082407
3.2229013 0.27187666 2.1388137
4.6793075 0.41206291 2.8113096
4.8000984 0.41369313 2.6390193
4.6371193 0.39195943 2.3265719
3.2613912 0.26716316 2.0589807
4.7472944 0.40972981 2.7039583
4.5912805 0.38900697 2.3893979
4.7072344 0.39852718 2.2243431
4.6775823 0.3947027 2.776016
4.8142853 0.40840009 2.5966437
4.658381 0.39158615 2.2871535
5.0093346 0.42740205 2.2212086
4.7718821 0.39196876 2.6851704
4.6105862 0.38056982 2.3538716
4.9343457 0.41366404 2.2783833
4.941143 0.42069414 2.0533068
4.7166076 0.3742522 2.514827
4.6938262 0.38094723 2.2592883
4.8883567 0.40667817 2.1210647
5.6318874 0.48871627 2.1796474
4.6291103 0.35586768 2.333071
5.0131235 0.40354505 2.2677217
5.0904088 0.42288747 2.0655558
5.6753821 0.49397454 2.0448825
4.691165 0.35148409 2.229795
4.8935056 0.38640183 2.0795872
5.8534803 0.49132541 2.2085557
5.6856236 0.49558714 1.89767
4.9852118 0.36639008 2.226558
5.1630621 0.40488189 2.0498645
5.893867 0.49268568 2.0687766
5.6889076 0.49818856 1.7526064
4.9150224 0.3506546 2.0605314
6.1818438 0.48877704 2.2783854
5.9382334 0.49404964 1.9279231
5.735466 0.50538146 1.6208203
5.1734982 0.36222953 2.0278902
6.2774296 0.49074078 2.1485872
5.9987392 0.49822897 1.7938204
5.7247262 0.50605154 1.474984
6.8175702 0.48380044 2.4714582
