# .PCD v0.7 - Point Cloud Data file format
VERSION 0.7
FIELDS x y z
SIZE 4 4 4
TYPE F F F
COUNT 1 1 1
WIDTH 1388
HEIGHT 1
VIEWPOINT 0 0 0 1 0 0 0
POINTS 1388
DATA ascii
0.59726048 0.59388953 1.2705034
0.63183016 0.58823425 1.3547826
0.67563069 0.58432919 1.4509244
0.58647257 0.59765804 1.1747411
0.61884761 0.59019119 1.2490251
0.65842021 0.58551776 1.3332281
0.71038872 0.58643842 1.4373071
0.61228848 0.59974527 1.1642921
0.65183151 0.59710771 1.2465318
0.68711531 0.58570307 1.3166887
0.74306834 0.58762729 1.4197109
0.63401836 0.59891975 1.1498654
0.67129487 0.59052551 1.2190391
0.71581447 0.58688819 1.3001672
0.77364296 0.58591431 1.3970997
0.65777457 0.60006857 1.1364368
0.70115924 0.59556174 1.2105681
0.7434684 0.58611351 1.2816292
0.80528533 0.58714306 1.3775229
0.67846715 0.5992828 1.1200297
0.72070533 0.59090686 1.1871101
0.77214873 0.58731675 1.2641079
0.83690494 0.58739001 1.3569283
0.70222723 0.60143149 1.1066191
0.75363708 0.59887749 1.1816359
0.79672432 0.58562535 1.2416096
0.86440521 0.58576018 1.3303751
0.72289729 0.59966403 1.0891942
0.76904112 0.59136409 1.1512011
0.82540864 0.58782846 1.2241066
0.89400649 0.58603233 1.3088185
0.74461639 0.60085618 1.0738039
0.79888672 0.59641838 1.1417305
0.8510294 0.58809692 1.2036247
0.92461163 0.58730078 1.287261
0.76529026 0.60008854 1.0563971
0.81635833 0.59184307 1.1143115
0.87458652 0.58642715 1.1801455
0.94703394 0.58476138 1.2567849
0.78596818 0.60032064 1.0390081
0.84208059 0.59402072 1.098864
0.90018862 0.58671373 1.1586642
0.9766205 0.58605158 1.2342469
0.80360126 0.59860015 1.0196403
0.85959351 0.59040904 1.073462
0.92785436 0.58893853 1.1401801
1.0041699 0.58738506 1.2097467
0.82323802 0.5978722 1.000253
0.88530093 0.59360462 1.0570332
0.94833714 0.58735186 1.1127586
1.0286185 0.58682007 1.1802689
0.84391975 0.59910423 0.98288214
0.90385896 0.5919528 1.0336478
0.97394705 0.58963811 1.0913132
1.0561678 0.58815348 1.1557689
0.86462027 0.60031807 0.96651101
0.93365234 0.59806126 1.0211962
0.99038529 0.58610231 1.0619316
1.0816804 0.58953035 1.1293072
0.88427961 0.60057187 0.94814128
0.9450649 0.59256178 0.9908728
1.0139543 0.58743209 1.0385064
1.1041292 0.58897257 1.0998666
0.9039616 0.60180748 0.93078923
0.97382104 0.59871 0.97644073
1.0354781 0.58680546 1.0130835
1.1265782 0.58841479 1.0704265
0.917494 0.59819204 0.90646225
0.98320746 0.59123623 0.94511926
1.0621145 0.59106976 0.99265492
1.1469899 0.58790034 1.0390242
0.93920219 0.60140198 0.89010835
1.0140125 0.60034055 0.9327029
1.077538 0.58855551 0.96231043
1.1704504 0.59033847 1.0096191
0.94965237 0.59587008 0.86180305
1.0223655 0.59390634 0.89941889
1.0970476 0.58895403 0.93594342
1.1888627 0.58983123 0.97825468
0.96831977 0.59812707 0.84348816
1.0460172 0.59716338 0.88002843
1.1165423 0.59037048 0.90859473
1.2072749 0.58932394 0.94689012
0.98694181 0.59842068 0.82313788
1.0513667 0.5897401 0.84678268
1.1350521 0.59077263 0.88224661
1.2256722 0.58983457 0.91454393
1.0066129 0.60167408 0.80482221
1.0841793 0.60083693 0.83436489
1.1515207 0.59021831 0.85391861
1.2420847 0.58933455 0.88321692
1.0201906 0.60002208 0.78253061
1.0895475 0.59339559 0.80211884
1.166975 0.59068549 0.82462776
1.2635307 0.5927977 0.85286778
1.0388206 0.60231537 0.76221639
1.1121846 0.59767413 0.78176546
1.1814253 0.59015638 0.79533774
1.2779063 0.59234101 0.81957906
1.0533834 0.60167766 0.73892432
1.1246355 0.59715223 0.75251305
1.1999242 0.59257621 0.76802593
1.2942894 0.59387678 0.78628886
1.0709946 0.60399264 0.71762925
1.1442276 0.59947807 0.73018068
1.2133373 0.59208697 0.73675537
1.3086687 0.59441984 0.75301814
1.0845615 0.60435843 0.69437397
1.1546936 0.59794545 0.70194751
1.2298326 0.59351414 0.70946306
1.3200073 0.59401011 0.71778655
1.0991281 0.60472065 0.67109996
1.1813457 0.60620892 0.68159097
1.2422684 0.59401011 0.6792289
1.3384353 0.59750217 0.68649405
1.1147172 0.60606098 0.64882475
1.1796739 0.59782904 0.64745921
1.2597488 0.5964517 0.65093619
1.3457519 0.59612495 0.65031987
1.1262431 0.60547036 0.62358975
1.2022814 0.6041435 0.62514257
1.2691627 0.59597677 0.61974078
1.3571131 0.59669697 0.61610597
1.1387913 0.60585785 0.59935355
1.2036583 0.59871614 0.59300774
1.2816025 0.59747255 0.58952475
1.3695008 0.59924692 0.58290887
1.1523433 0.60724157 0.57511663
1.2252245 0.60407048 0.56869256
1.2910017 0.59801555 0.55734766
1.3788663 0.60082585 0.54875058
1.1618469 0.60567635 0.54890156
1.2236021 0.59865397 0.53661406
1.3014419 0.59951854 0.52716917
1.382161 0.5984813 0.51163381
1.1642836 0.60119098 0.5197649
1.24315 0.60403359 0.5113368
1.3068151 0.59809434 0.49403155
1.3915304 0.60106015 0.47749352
1.1849103 0.60749447 0.49848551
1.2435535 0.60059142 0.4802565
1.3303554 0.6064772 0.46773356
1.4008961 0.60263908 0.44333518
1.18334 0.60102379 0.46938795
1.2610793 0.60499644 0.45399913
1.3226551 0.60015464 0.43175113
1.4062436 0.60425043 0.4082523
1.2059553 0.60933787 0.44710743
1.2635052 0.60252893 0.42389888
1.3431545 0.60758466 0.40349215
1.4126096 0.60584021 0.37415028
1.2033852 0.60287082 0.41802865
1.2729644 0.60401744 0.39473885
1.3344545 0.60126567 0.36752856
1.4109092 0.60451341 0.33714557
1.2239783 0.6102103 0.394768
1.2814238 0.60550952 0.36559755
1.350932 0.60772824 0.33832705
1.2564523 0.53323257 0.27472687
1.2284453 0.60869926 0.36664748
1.2929091 0.60897243 0.3374356
1.3422545 0.60239106 0.30338115
1.1282624 0.47363952 0.22403176
1.2419864 0.61210066 0.34144697
1.295339 0.60750467 0.30735338
1.1396401 0.50334162 0.23836088
1.1367708 0.47809491 0.19694388
1.2384018 0.60665512 0.31140542
1.2917435 0.60407686 0.27634817
1.1300755 0.4978995 0.20943172
0.89432275 0.36699203 0.14345528
1.2519281 0.61107457 0.28522322
1.1424531 0.52759808 0.22374204
1.0201197 0.44604141 0.1695388
0.71833986 0.28630331 0.10827865
1.2453586 0.60462183 0.25621966
0.9872871 0.4490146 0.17821023
0.71154898 0.29616395 0.11758733
0.72701693 0.29059598 0.090187714
1.1373039 0.54682994 0.2121824
0.91354817 0.41086209 0.14689006
0.72124851 0.30143473 0.10049527
0.72868747 0.29291406 0.072192274
-0.02611593 -0.059798401 0.050936799
0.71646118 0.31228799 0.10978438
0.71890789 0.30076766 0.082520932
0.72735453 0.29424304 0.054235183
0.72274756 0.32804665 0.12195586
0.71814251 0.31258833 0.092752561
0.7266078 0.30604562 0.065466464
0.72403687 0.29456133 0.037297316
0.71541089 0.32338017 0.10500307
0.72085023 0.31486663 0.076737642
0.72628951 0.30635312 0.048472226
0.72871459 0.2988683 0.019281538
0.71811467 0.32465863 0.08897014
0.72453517 0.31615964 0.059686266
0.73599303 0.31262374 0.031398192
0.73138887 0.30218264 0.001285322
0.72482568 0.32792243 0.072898082
0.72523934 0.31744531 0.043690916
0.73367512 0.31293842 0.014441537
0.74005497 0.30849302 -0.017769244
0.72650695 0.32822278 0.055866264
0.73093563 0.32173058 0.026656007
0.73935264 0.31724182 -0.0035930313
0.74371427 0.31282169 -0.036765892
0.72820711 0.32850504 0.039834104
0.73863161 0.32600874 0.0095835179
0.73902351 0.31956711 -0.02155089
0.7453739 0.31715751 -0.055724964
0.72991109 0.32978708 0.023819963
0.73929828 0.32733056 -0.0084111542
0.74267882 0.32289591 -0.040565562
0.75103676 0.3224788 -0.07474117
0.73560351 0.33307257 0.0067670345
0.74096882 0.32964867 -0.026406597
0.74334943 0.3252176 -0.058542211
0.75367737 0.32682917 -0.09471868
0.73628896 0.33437631 -0.010227975
0.74765015 0.33494827 -0.044441935
0.74600893 0.32954982 -0.077520072
0.75033009 0.32918325 -0.11361985
0.74296635 0.33867615 -0.028281331
0.74533224 0.33526298 -0.061398592
0.74967217 0.33487836 -0.096498705
0.76097023 0.33852211 -0.13465726
0.74365181 0.33997989 -0.045276348
0.74899155 0.33959165 -0.080395237
0.75333136 0.33920696 -0.11549535
0.75361973 0.33989075 -0.15350126
0.74832571 0.34328705 -0.063310146
0.75465429 0.34491292 -0.099411465
0.76295298 0.34856752 -0.13751362
0.62171078 0.27606785 -0.13517986
0.74899638 0.34560868 -0.081286788
0.75330663 0.34725991 -0.11835018
0.76360887 0.35190713 -0.15647194
0.59053439 0.26330799 -0.14182922
0.74866331 0.34693414 -0.099262685
0.75197363 0.34858888 -0.13630728
0.69048864 0.3181749 -0.15571284
0.19992442 0.059705272 -0.025159378
0.75332236 0.35125923 -0.11827811
0.76459867 0.35893854 -0.15836392
0.59354258 0.2703141 -0.14275911
0.2018048 0.062824205 -0.032140523
0.75198936 0.35258821 -0.13623521
0.72636646 0.34124076 -0.16697115
0.26464596 0.096863665 -0.047706619
-0.02611593 -0.059798401 0.050936799
0.76260698 0.36094534 -0.15829031
0.59453934 0.27432793 -0.14370549
0.20579714 0.065827437 -0.033161297
0.17175922 0.049934078 -0.031811051
0.72938555 0.34622914 -0.16693744
-0.02611593 -0.059798401 0.050936799
-0.02611593 -0.059798401 0.050936799
-0.02611593 -0.059798401 0.050936799
0.58259684 0.26929948 -0.13957146
0.21077448 0.069844969 -0.035182498
0.18070626 0.055973116 -0.035870705
0.15267514 0.042057902 -0.034597162
0.20093995 0.063701004 -0.025106095
-0.02611593 -0.059798401 0.050936799
-0.02611593 -0.059798401 0.050936799
-0.02611593 -0.059798401 0.050936799
0.20083156 0.06480936 -0.031086039
0.17874013 0.054944288 -0.03385181
0.15568243 0.044046789 -0.034617499
0.1296775 0.032105967 -0.032345846
-0.02611593 -0.059798401 0.050936799
-0.02611593 -0.059798401 0.050936799
-0.02611593 -0.059798401 0.050936799
-0.02611593 -0.059798401 0.050936799
0.17476653 0.051922981 -0.031831384
0.15767118 0.046057355 -0.035618708
0.13762079 0.037148762 -0.036404721
0.10870217 0.023128597 -0.029114425
-0.02611593 -0.059798401 0.050936799
-0.02611593 -0.059798401 0.050936799
-0.02611593 -0.059798401 0.050936799
-0.02611593 -0.059798401 0.050936799
0.14972398 0.040014736 -0.03157784
0.13565074 0.0351201 -0.034403853
0.11465667 0.026160823 -0.032172099
0.09664727 0.018208697 -0.030978348
-0.02611593 -0.059798401 0.050936799
-0.02611593 -0.059798401 0.050936799
-0.02611593 -0.059798401 0.050936799
-0.02611593 -0.059798401 0.050936799
0.1296923 0.031088054 -0.031364199
0.11664151 0.027171563 -0.033191312
0.10162069 0.021226414 -0.033017565
0.085633568 0.014248852 -0.030843727
-0.02611593 -0.059798401 0.050936799
-0.02611593 -0.059798401 0.050936799
-0.02611593 -0.059798401 0.050936799
-0.02611593 -0.059798401 0.050936799
0.10971285 0.021107258 -0.028169595
0.1036016 0.021237325 -0.034054812
0.091573291 0.018298998 -0.034883048
0.076608643 0.01229958 -0.031710315
-0.02611593 -0.059798401 0.050936799
-0.02611593 -0.059798401 0.050936799
-0.02611593 -0.059798401 0.050936799
-0.02611593 -0.059798401 0.050936799
0.098661706 0.017183591 -0.030034289
0.096524067 0.020334981 -0.037939943
0.07957457 0.013324821 -0.033747986
0.067579776 0.0093504842 -0.032594912
-0.02611593 -0.059798401 0.050936799
-0.02611593 -0.059798401 0.050936799
-0.02611593 -0.059798401 0.050936799
-0.02611593 -0.059798401 0.050936799
0.085659236 0.011213182 -0.028898463
0.080570467 0.012321402 -0.033784796
0.069560699 0.0093613956 -0.033632159
0.059569459 0.0063796961 -0.032498639
-0.02611593 -0.059798401 0.050936799
-0.02611593 -0.059798401 0.050936799
-0.02611593 -0.059798401 0.050936799
-0.02611593 -0.059798401 0.050936799
0.077611461 0.008278586 -0.030801512
0.071556397 0.0083543872 -0.033687755
0.059565533 0.0053798729 -0.032516658
0.048607998 0.0013657612 -0.02938306
-0.02611593 -0.059798401 0.050936799
-0.02611593 -0.059798401 0.050936799
-0.02611593 -0.059798401 0.050936799
-0.02611593 -0.059798401 0.050936799
0.065631479 0.0032863219 -0.028666798
0.061546449 0.0053907842 -0.033553906
0.0555101 0.005448496 -0.03544049
0.044537775 0.0024523037 -0.03328852
-0.02611593 -0.059798401 0.050936799
-0.02611593 -0.059798401 0.050936799
-0.02611593 -0.059798401 0.050936799
-0.02611593 -0.059798401 0.050936799
0.060572293 0.0023587029 -0.031589851
0.05552097 0.0034307456 -0.034476865
0.046533484 0.0014452953 -0.033344124
0.037564717 -0.00055824395 -0.031211726
-0.02611593 -0.059798401 0.050936799
-0.02611593 -0.059798401 0.050936799
-0.02611593 -0.059798401 0.050936799
-0.02611593 -0.059798401 0.050936799
0.051576957 -0.0016264049 -0.030493144
0.048495661 0.0014742956 -0.03538103
0.042478044 0.001513918 -0.036267944
0.031561889 -0.0015365373 -0.031117
-0.02611593 -0.059798401 0.050936799
-0.02611593 -0.059798401 0.050936799
-0.02611593 -0.059798401 0.050936799
-0.02611593 -0.059798401 0.050936799
0.041619234 -0.0056441016 -0.027378336
0.043455213 0.00052859122 -0.037304413
0.035471473 -0.00046062085 -0.03617245
0.027506452 -0.0014679146 -0.034040824
-0.02611593 -0.059798401 0.050936799
-0.02611593 -0.059798401 0.050936799
-0.02611593 -0.059798401 0.050936799
-0.02611593 -0.059798401 0.050936799
0.037578598 -0.0065933987 -0.029320508
0.036448643 -0.0014459476 -0.037208915
0.029483436 -0.0024568303 -0.035096083
0.01958189 -0.0065287985 -0.028982278
-0.02611593 -0.059798401 0.050936799
-0.02611593 -0.059798401 0.050936799
-0.02611593 -0.059798401 0.050936799
-0.02611593 -0.059798401 0.050936799
0.032538138 -0.0075391065 -0.031243902
0.027524259 -0.0065032421 -0.032131582
0.024446908 -0.0024027075 -0.037001446
0.015549108 -0.0054784338 -0.030888427
-0.02611593 -0.059798401 0.050936799
-0.02611593 -0.059798401 0.050936799
-0.02611593 -0.059798401 0.050936799
-0.02611593 -0.059798401 0.050936799
0.024583992 -0.010564151 -0.028148651
0.022521248 -0.007485128 -0.032055646
0.018458871 -0.0043989243 -0.035925083
0.010546092 -0.0064603202 -0.030812491
-0.02611593 -0.059798401 0.050936799
-0.02611593 -0.059798401 0.050936799
-0.02611593 -0.059798401 0.050936799
-0.02611593 -0.059798401 0.050936799
0.02154709 -0.010517206 -0.030091595
0.018469738 -0.0064166747 -0.034961458
0.014422159 -0.0043483907 -0.037849247
0.0065281061 -0.0064278748 -0.031736981
-0.02611593 -0.059798401 0.050936799
-0.02611593 -0.059798401 0.050936799
-0.02611593 -0.059798401 0.050936799
-0.02611593 -0.059798401 0.050936799
0.015544266 -0.011495503 -0.029996868
0.012481702 -0.0084128883 -0.033885095
0.008471569 -0.0063807853 -0.034773555
0.0015773292 -0.0084638549 -0.028680086
-0.02611593 -0.059798401 0.050936799
-0.02611593 -0.059798401 0.050936799
-0.02611593 -0.059798401 0.050936799
-0.02611593 -0.059798401 0.050936799
-0.02611593 -0.059798401 0.050936799
0.0075122104 -0.010430783 -0.031827848
0.0044348575 -0.0063302517 -0.036697712
-0.0015039501 -0.0053631552 -0.033567972
-0.02611593 -0.059798401 0.050936799
-0.02611593 -0.059798401 0.050936799
-0.02611593 -0.059798401 0.050936799
-0.02611593 -0.059798401 0.050936799
-0.02611593 -0.059798401 0.050936799
0.0034794249 -0.0093804225 -0.033733997
-0.00053070998 -0.0073483158 -0.034622457
-0.0054549058 -0.0074027274 -0.03052986
-0.02611593 -0.059798401 0.050936799
-0.02611593 -0.059798401 0.050936799
-0.02611593 -0.059798401 0.050936799
-0.02611593 -0.059798401 0.050936799
-0.02611593 -0.059798401 0.050936799
-0.00055728736 -0.009329888 -0.035658155
-0.0035636798 -0.0063015409 -0.036547385
-0.0095212106 -0.0053163543 -0.034417309
-0.02611593 -0.059798401 0.050936799
-0.02611593 -0.059798401 0.050936799
-0.02611593 -0.059798401 0.050936799
-0.02611593 -0.059798401 0.050936799
-0.02611593 -0.059798401 0.050936799
-0.0045565581 -0.0093155326 -0.035582993
-0.00761519 -0.0052330876 -0.039453194
-0.012554178 -0.004269579 -0.036342237
-0.02611593 -0.059798401 0.050936799
-0.02611593 -0.059798401 0.050936799
-0.02611593 -0.059798401 0.050936799
-0.02611593 -0.059798401 0.050936799
-0.02611593 -0.059798401 0.050936799
-0.0085932715 -0.0092649991 -0.037507158
-0.011633179 -0.0052006422 -0.040377691
-0.017486226 -0.0063236523 -0.032285672
-0.02611593 -0.059798401 0.050936799
-0.02611593 -0.059798401 0.050936799
-0.02611593 -0.059798401 0.050936799
-0.02611593 -0.059798401 0.050936799
-0.02611593 -0.059798401 0.050936799
-0.012592538 -0.0092506437 -0.037431996
-0.016613541 -0.0052007865 -0.03928408
-0.02611593 -0.059798401 0.050936799
-0.02611593 -0.059798401 0.050936799
-0.02611593 -0.059798401 0.050936799
-0.02611593 -0.059798401 0.050936799
-0.02611593 -0.059798401 0.050936799
-0.02611593 -0.059798401 0.050936799
-0.016591806 -0.0092362873 -0.037356835
-0.020579292 -0.0062224399 -0.037227612
-0.02611593 -0.059798401 0.050936799
-0.02611593 -0.059798401 0.050936799
-0.02611593 -0.059798401 0.050936799
-0.02611593 -0.059798401 0.050936799
-0.02611593 -0.059798401 0.050936799
-0.02611593 -0.059798401 0.050936799
-0.02611593 -0.059798401 0.050936799
-0.02457856 -0.0062080845 -0.037152451
-0.02611593 -0.059798401 0.050936799
-0.02611593 -0.059798401 0.050936799
-0.02611593 -0.059798401 0.050936799
-0.02611593 -0.059798401 0.050936799
-0.02611593 -0.059798401 0.050936799
-0.02611593 -0.059798401 0.050936799
-0.025556643 -0.010239992 -0.035206411
-0.027611529 -0.0051613087 -0.039077383
-0.031531978 -0.0042194785 -0.034985557
-0.02611593 -0.059798401 0.050936799
-0.02611593 -0.059798401 0.050936799
-0.02611593 -0.059798401 0.050936799
-0.02611593 -0.059798401 0.050936799
-0.02611593 -0.059798401 0.050936799
-0.028556094 -0.010229225 -0.03515004
-0.031558558 -0.0062010507 -0.036021251
-0.03447919 -0.0052628098 -0.03194822
-0.02611593 -0.059798401 0.050936799
-0.02611593 -0.059798401 0.050936799
-0.02611593 -0.059798401 0.050936799
-0.02611593 -0.059798401 0.050936799
-0.02611593 -0.059798401 0.050936799
-0.03255536 -0.01021487 -0.035074878
-0.035505585 -0.0072407927 -0.032965131
-0.038459733 -0.0052665435 -0.030873388
-0.02611593 -0.059798401 0.050936799
-0.02611593 -0.059798401 0.050936799
-0.02611593 -0.059798401 0.050936799
-0.02611593 -0.059798401 0.050936799
-0.02611593 -0.059798401 0.050936799
-0.036535908 -0.010218604 -0.034000058
-0.039571889 -0.0051544197 -0.036852576
-0.042522114 -0.0021803393 -0.034742821
-0.02611593 -0.059798401 0.050936799
-0.02611593 -0.059798401 0.050936799
-0.02611593 -0.059798401 0.050936799
-0.02611593 -0.059798401 0.050936799
-0.02611593 -0.059798401 0.050936799
-0.040549971 -0.0091863321 -0.034906533
-0.043552436 -0.0051581534 -0.035777748
-0.046469137 -0.0032200851 -0.031686693
-0.02611593 -0.059798401 0.050936799
-0.02611593 -0.059798401 0.050936799
-0.02611593 -0.059798401 0.050936799
-0.02611593 -0.059798401 0.050936799
-0.02611593 -0.059798401 0.050936799
-0.044545311 -0.0081721414 -0.034813352
-0.047499459 -0.0061978954 -0.032721624
-0.049464662 -0.0022094841 -0.031612303
-0.02611593 -0.059798401 0.050936799
-0.02611593 -0.059798401 0.050936799
-0.02611593 -0.059798401 0.050936799
-0.02611593 -0.059798401 0.050936799
-0.02611593 -0.059798401 0.050936799
-0.049525674 -0.0081722867 -0.033719741
-0.051494803 -0.0051837093 -0.032628447
-0.053445209 -0.0022132176 -0.030537475
-0.02611593 -0.059798401 0.050936799
-0.02611593 -0.059798401 0.050936799
-0.02611593 -0.059798401 0.050936799
-0.02611593 -0.059798401 0.050936799
-0.02611593 -0.059798401 0.050936799
-0.053506222 -0.0081760194 -0.03264492
-0.055471417 -0.0041876119 -0.031535599
-0.057407029 -0.0022350401 -0.028462995
-0.02611593 -0.059798401 0.050936799
-0.02611593 -0.059798401 0.050936799
-0.02611593 -0.059798401 0.050936799
-0.02611593 -0.059798401 0.050936799
-0.02611593 -0.059798401 0.050936799
-0.056468222 -0.0082014315 -0.030589215
-0.060500097 -0.0021338279 -0.033404931
-0.062450502 0.00083666004 -0.031313971
-0.02611593 -0.059798401 0.050936799
-0.02611593 -0.059798401 0.050936799
-0.02611593 -0.059798401 0.050936799
-0.02611593 -0.059798401 0.050936799
-0.059479456 -0.011190156 -0.030586895
-0.062492792 -0.005144231 -0.032421749
-0.064480647 -0.0021375613 -0.032330111
-0.065412506 0.00081124873 -0.029258281
-0.02611593 -0.059798401 0.050936799
-0.02611593 -0.059798401 0.050936799
-0.02611593 -0.059798401 0.050936799
-0.02611593 -0.059798401 0.050936799
-0.064470693 -0.0091725541 -0.030456908
-0.068521284 -0.0030868617 -0.034272287
-0.069505386 0.00091604958 -0.034181423
-0.07043726 0.0038648597 -0.03110959
-0.02611593 -0.059798401 0.050936799
-0.02611593 -0.059798401 0.050936799
-0.02611593 -0.059798401 0.050936799
-0.02611593 -0.059798401 0.050936799
-0.06843251 -0.0091943769 -0.028382428
-0.072512694 -0.0010728451 -0.034161087
-0.073448487 0.0008761381 -0.031107277
-0.074399076 0.0038430374 -0.02903511
-0.02611593 -0.059798401 0.050936799
-0.02611593 -0.059798401 0.050936799
-0.02611593 -0.059798401 0.050936799
-0.02611593 -0.059798401 0.050936799
-0.073446393 -0.0081585087 -0.029270124
-0.079522282 0.00097002782 -0.034993179
-0.080487661 0.0049548466 -0.033902653
-0.077357158 0.0048174565 -0.026961397
-0.02611593 -0.059798401 0.050936799
-0.02611593 -0.059798401 0.050936799
-0.02611593 -0.059798401 0.050936799
-0.02611593 -0.059798401 0.050936799
-0.07738556 -0.0071985936 -0.026177958
-0.083498895 0.0019661214 -0.033900335
-0.085460164 0.0069543561 -0.032773003
-0.084377609 0.0088780802 -0.02875711
-0.02611593 -0.059798401 0.050936799
-0.02611593 -0.059798401 0.050936799
-0.02611593 -0.059798401 0.050936799
-0.02611593 -0.059798401 0.050936799
-0.08136218 -0.0062024961 -0.025085114
-0.090504557 0.0050088246 -0.034714408
-0.091466017 0.0099934777 -0.033605866
-0.08835423 0.0098741772 -0.027664267
-0.02611593 -0.059798401 0.050936799
-0.02611593 -0.059798401 0.050936799
-0.02611593 -0.059798401 0.050936799
-0.02611593 -0.059798401 0.050936799
-0.089401178 -0.0021201947 -0.027861696
-0.09546227 0.0059904219 -0.032603119
-0.096442439 0.010993157 -0.032494236
-0.096389294 0.014956301 -0.030422837
-0.02611593 -0.059798401 0.050936799
-0.02611593 -0.059798401 0.050936799
-0.02611593 -0.059798401 0.050936799
-0.02611593 -0.059798401 0.050936799
-0.096392035 -9.5418422e-05 -0.027694128
-0.1014346 0.0079935277 -0.031454675
-0.10241085 0.013996094 -0.031327773
-0.10032846 0.015916221 -0.027330667
-0.02611593 -0.059798401 0.050936799
-0.02611593 -0.059798401 0.050936799
-0.02611593 -0.059798401 0.050936799
-0.02611593 -0.059798401 0.050936799
-0.10337504 0.0039290264 -0.027490515
-0.10842153 0.011018135 -0.031269088
-0.10838317 0.015999198 -0.030179329
-0.10834874 0.019980434 -0.029107589
-0.02611593 -0.059798401 0.050936799
-0.02611593 -0.059798401 0.050936799
-0.02611593 -0.059798401 0.050936799
-0.02611593 -0.059798401 0.050936799
-0.1113618 0.0069572222 -0.027286138
-0.11337532 0.012999563 -0.029139765
-0.116366 0.020027233 -0.029956933
-0.11328381 0.021943763 -0.025978621
-0.02611593 -0.059798401 0.050936799
-0.02611593 -0.059798401 0.050936799
-0.02611593 -0.059798401 0.050936799
-0.02611593 -0.059798401 0.050936799
-0.12035924 0.012006765 -0.028026599
-0.12436847 0.019056113 -0.029824622
-0.12534863 0.024058849 -0.029715739
-0.12331457 0.028032903 -0.02868158
-0.02611593 -0.059798401 0.050936799
-0.02611593 -0.059798401 0.050936799
-0.02611593 -0.059798401 0.050936799
-0.02611593 -0.059798401 0.050936799
-0.13337074 0.018088575 -0.029673528
-0.13536161 0.025112659 -0.030509487
-0.13432735 0.029090295 -0.029456533
-0.13227849 0.032046437 -0.027440742
-0.02611593 -0.059798401 0.050936799
-0.02611593 -0.059798401 0.050936799
-0.02611593 -0.059798401 0.050936799
-0.02611593 -0.059798401 0.050936799
-0.14030151 0.021058932 -0.026488956
-0.14532533 0.029129773 -0.029249836
-0.14631639 0.036150265 -0.030104585
-0.1412572 0.037077885 -0.027181536
-0.02611593 -0.059798401 0.050936799
-0.02611593 -0.059798401 0.050936799
-0.02611593 -0.059798401 0.050936799
-0.02611593 -0.059798401 0.050936799
-0.15126112 0.026079465 -0.025192507
-0.16335374 0.040264856 -0.03271205
-0.15528031 0.040163793 -0.028863732
-0.15324625 0.044137847 -0.027829569
-0.02611593 -0.059798401 0.050936799
-0.02611593 -0.059798401 0.050936799
-0.02611593 -0.059798401 0.050936799
-0.02611593 -0.059798401 0.050936799
-0.17025191 0.037181962 -0.026636608
-0.17530534 0.047288645 -0.031360775
-0.16621728 0.046166074 -0.026549604
-0.16519782 0.051161632 -0.026478302
-0.02611593 -0.059798401 0.050936799
-0.02611593 -0.059798401 0.050936799
-0.02611593 -0.059798401 0.050936799
-0.02611593 -0.059798401 0.050936799
-0.18924266 0.048284456 -0.028080702
-0.19427735 0.058373049 -0.03180521
-0.19124348 0.062343519 -0.030789848
-0.17816402 0.059206933 -0.026089877
-0.02611593 -0.059798401 0.050936799
-0.02611593 -0.059798401 0.050936799
-0.02611593 -0.059798401 0.050936799
-0.02611593 -0.059798401 0.050936799
-0.21318722 0.061368383 -0.027395491
-0.21018685 0.066374846 -0.028361436
-0.20417616 0.069352813 -0.02842012
-0.19914657 0.072316252 -0.027460355
-0.02611593 -0.059798401 0.050936799
-0.02611593 -0.059798401 0.050936799
-0.02611593 -0.059798401 0.050936799
-0.02611593 -0.059798401 0.050936799
-0.23912354 0.076459147 -0.02663666
-0.23312765 0.080455005 -0.027676996
-0.22309203 0.080382936 -0.02586557
-0.22010647 0.086407334 -0.027813163
-0.02611593 -0.059798401 0.050936799
-0.02611593 -0.059798401 0.050936799
-0.02611593 -0.059798401 0.050936799
-0.02611593 -0.059798401 0.050936799
-0.26201209 0.089485206 -0.02297125
-0.25902653 0.095509589 -0.024918832
-0.25203475 0.098502062 -0.025995973
-0.24302855 0.10046942 -0.026129056
-0.02611593 -0.059798401 0.050936799
-0.02611593 -0.059798401 0.050936799
-0.02611593 -0.059798401 0.050936799
-0.02611593 -0.059798401 0.050936799
-0.97981077 0.53852499 -0.19746862
-0.97598243 0.56677717 -0.21203417
-1.0614223 0.65684497 -0.25181875
-0.26290679 0.11146696 -0.021556396
-0.98938143 0.54216218 -0.17521608
-1.0707896 0.62616241 -0.21218494
-1.0679866 0.65745384 -0.228677
-0.02611593 -0.059798401 0.050936799
-0.99894804 0.5467993 -0.15294555
-1.1174275 0.65409112 -0.19780169
-1.0725362 0.65703762 -0.20459117
-1.0286715 0.65800619 -0.21239755
-1.0145166 0.55547529 -0.13148984
-1.121936 0.65463859 -0.17169856
-1.0821108 0.65967512 -0.18235669
-1.0332626 0.65662634 -0.19032907
-1.1141651 0.61673337 -0.12351336
-1.1294771 0.65623283 -0.14752029
-1.0796628 0.65421653 -0.15749282
-1.0408827 0.65729308 -0.17016754
-1.1787004 0.65567058 -0.10559468
-1.1279798 0.65374112 -0.12058428
-1.0872375 0.65684676 -0.1352959
-1.0394681 0.65287417 -0.14726619
-1.1711596 0.65010369 -0.075826466
-1.1284927 0.65327448 -0.094574317
-1.0897915 0.65542352 -0.11126567
-1.0480654 0.65452623 -0.12606817
-1.1716502 0.65061867 -0.048798814
-1.1290286 0.65182602 -0.069582
-1.0883356 0.65196824 -0.086346999
-1.0536633 0.65616757 -0.10492648
-1.1691263 0.650105 -0.020845883
-1.124554 0.64834183 -0.043720052
-1.0959065 0.65559834 -0.064132057
-1.0552588 0.65377712 -0.08293239
-1.1656065 0.64858794 0.0070702359
-1.128055 0.65088534 -0.017599627
-1.0984565 0.65517491 -0.040083811
-1.0608418 0.65440053 -0.060809091
-1.1611056 0.64708537 0.033967905
-1.1275868 0.65043312 0.0073918998
-1.092028 0.64972007 -0.016294785
-1.0654252 0.6550203 -0.038704582
-1.1576005 0.64658618 0.060902379
-1.1261228 0.64897746 0.032346617
-1.0895829 0.64827901 0.0076414868
-1.0680127 0.6546331 -0.016655669
-1.1561102 0.64711207 0.086892799
-1.118649 0.64548254 0.058152214
-1.0901374 0.64684862 0.031634118
-1.0676086 0.65223557 0.0053008348
-1.1446222 0.64258492 0.11360488
-1.119177 0.6460337 0.083180547
-1.0897068 0.64643258 0.054626323
-1.0721879 0.65385514 0.027423371
-1.1381406 0.64109325 0.1394653
-1.1177239 0.64659584 0.10717164
-1.0902532 0.6470018 0.078655005
-1.0717613 0.6524393 0.05039756
-1.1366382 0.64461863 0.16550978
-1.1082917 0.64213008 0.13092232
-1.0878456 0.64559692 0.10059194
-1.0703576 0.65003806 0.072335273
-1.1301526 0.64412677 0.19138822
-1.1058202 0.64267051 0.15589428
-1.0844008 0.6441521 0.12450942
-1.0639849 0.64463753 0.093125321
-1.121671 0.64262789 0.21721107
-1.1013716 0.64222205 0.179811
-1.0819703 0.64372891 0.14746404
-1.0695376 0.64824235 0.11630235
-1.1132084 0.6411472 0.24203426
-1.0969002 0.64275521 0.20474538
-1.0775484 0.64129889 0.17034504
-1.06713 0.64683735 0.13823929
-1.101769 0.6386739 0.2657834
-1.0914519 0.64230317 0.22864328
-1.0760914 0.64286077 0.19435416
-1.0617307 0.64342195 0.16008383
-1.0982709 0.64119226 0.29177225
-1.0840077 0.64084411 0.2524856
-1.0716654 0.64143056 0.21725318
-1.0632958 0.64401299 0.18313164
-1.0858277 0.63971525 0.31552061
-1.0785593 0.64039207 0.27638352
-1.0682353 0.64100373 0.24018902
-1.0608844 0.6436078 0.20508659
-1.0734071 0.63725656 0.33825129
-1.0691342 0.63894385 0.29918858
-1.0657973 0.64258021 0.26317969
-1.0664142 0.64819437 0.22928128
-1.0659324 0.63877875 0.36314735
-1.0637006 0.63950968 0.32210484
-1.0603714 0.64114636 0.28605992
-1.0550464 0.64177597 0.24995938
-1.053508 0.63731986 0.38589603
-1.0532757 0.63805789 0.34489113
-1.0539418 0.64070874 0.30893937
-1.0546081 0.6433596 0.2729876
-1.0411022 0.63587904 0.40764505
-1.0428697 0.63662428 0.36667776
-1.0485083 0.64127457 0.33185565
-1.0472093 0.63993704 0.29479456
-1.0306696 0.63642693 0.4304674
-1.0364175 0.63716841 0.39057487
-1.0401057 0.6388483 0.35366184
-1.0437793 0.63951021 0.3177304
-1.0182598 0.63598585 0.45223445
-1.0230572 0.63376039 0.4102698
-1.0356718 0.63941771 0.3765969
-1.0383681 0.63909435 0.33962899
-1.0078272 0.63653374 0.47505677
-1.0136282 0.63331205 0.43309289
-1.0242885 0.63699871 0.39734703
-1.0309842 0.63668972 0.36045432
-0.99444014 0.63510746 0.49578735
-1.0051913 0.63486707 0.45597082
-1.0158821 0.63557225 0.41917127
-1.0265542 0.63625932 0.38337135
-0.97907251 0.63369197 0.5154807
-0.99479979 0.63445133 0.47677577
-1.0094674 0.63615257 0.44106904
-1.0221165 0.63782853 0.40632442
-0.96073174 0.63028419 0.534082
-0.98538572 0.63502085 0.49861723
-1.0000571 0.63572234 0.4628925
-1.0127368 0.63441688 0.42709416
-0.95030993 0.63284981 0.55594063
-0.97102159 0.63260913 0.51831132
-0.99164283 0.63629544 0.48475271
-1.007322 0.63500082 0.44901076
-0.93791503 0.63342673 0.57672608
-0.9586494 0.63220429 0.53807908
-0.98225522 0.63488346 0.50555849
-0.99989259 0.63455969 0.47187141
-0.92058897 0.63104039 0.59436446
-0.94823152 0.63377011 0.55991977
-0.97186387 0.63446772 0.52636343
-0.99050498 0.63314766 0.49267718
-0.9081862 0.63361698 0.61518598
-0.92600483 0.62543923 0.57335746
-0.96147257 0.63405192 0.54716843
-0.98506749 0.63471335 0.51561147
-0.8899017 0.63026345 0.63078827
-0.92051023 0.6319679 0.59838122
-0.94908547 0.63262916 0.56791782
-0.97665703 0.63428664 0.53745365
-0.87061346 0.6279062 0.64638972
-0.90813792 0.63156313 0.61814892
-0.93573594 0.63123894 0.58664906
-0.96726942 0.63287467 0.55825943
-0.86018384 0.6324715 0.66828448
-0.89378476 0.63116914 0.63687938
-0.92631793 0.63280839 0.60850853
-0.95785522 0.63344419 0.58010089
-0.84091818 0.62913251 0.68286836
-0.88142729 0.63178217 0.65566546
-0.91394573 0.63240355 0.62827623
-0.95437193 0.63698047 0.60510814
-0.8196944 0.62482262 0.69539726
-0.86214298 0.628425 0.67124903
-0.90157342 0.63199866 0.64804399
-0.93509936 0.63062394 0.6206376
-0.80535209 0.62644643 0.71316409
-0.84976286 0.63001996 0.69105273
-0.88329279 0.62764531 0.66362828
-0.92371219 0.62920469 0.6414057
-0.79098707 0.62905198 0.73194861
-0.83542448 0.6306439 0.70880163
-0.87387085 0.63021463 0.68550575
-0.90838975 0.62582588 0.6590637
-0.77173239 0.62773073 0.74556887
-0.81911308 0.62927914 0.72547722
-0.86149466 0.63080955 0.70529151
-0.89795303 0.62737358 0.68190402
-0.75248158 0.6254096 0.75917107
-0.79888904 0.62497288 0.73802489
-0.8481186 0.63140088 0.72505856
-0.886558 0.62795395 0.7027083
-0.73422277 0.62509173 0.7728281
-0.78454673 0.62659663 0.75579172
-0.83083397 0.62805104 0.74067956
-0.87516296 0.6285345 0.72351241
-0.71794093 0.62576282 0.78754044
-0.77018577 0.62820244 0.77455831
-0.81354141 0.6267007 0.75633669
-0.86179078 0.62812608 0.74326134
-0.69479239 0.62151819 0.79603314
-0.74995774 0.62489593 0.78712404
-0.80409282 0.63125151 0.77924985
-0.8474189 0.62771404 0.76299155
-0.68044221 0.62514162 0.81383598
-0.73367977 0.62456715 0.80181831
-0.77993745 0.62398571 0.78866941
-0.83306575 0.62732011 0.78172207
-0.66026652 0.62288934 0.82342082
-0.71540231 0.62423128 0.81647497
-0.76655757 0.62557685 0.80845439
-0.81869388 0.62690812 0.80145216
-0.63909495 0.61963362 0.83296871
-0.70203322 0.62784028 0.83529633
-0.75024217 0.62521195 0.82514799
-0.80138266 0.62553972 0.81810898
-0.62085086 0.62033367 0.84564412
-0.68083894 0.62556618 0.84586197
-0.73294961 0.62386167 0.84080505
-0.78798783 0.62611306 0.83887559
-0.60455722 0.62400419 0.86041045
-0.66258407 0.62424856 0.85950094
-0.71660769 0.62547839 0.8585344
-0.76674539 0.62178516 0.85240412
-0.58342308 0.6207847 0.86795908
-0.6414125 0.62099284 0.86904895
-0.69737566 0.62317532 0.8711369
-0.75529712 0.62632877 0.87527978
-0.56519777 0.62150282 0.8796348
-0.62217259 0.62068945 0.88168746
-0.67814362 0.62087238 0.88373947
-0.73991758 0.62791276 0.89502722
-0.54601401 0.62125373 0.88927436
-0.6039325 0.6203897 0.89434481
-0.66180164 0.62248898 0.90146869
-0.71965212 0.62457019 0.90959227
-0.52585316 0.62001938 0.89787751
-0.58570719 0.62110788 0.90602058
-0.64156586 0.6211822 0.91407043
-0.6964888 0.61930758 0.91906655
-0.50570703 0.61980289 0.90549904
-0.56550884 0.61983728 0.91662306
-0.6232844 0.62184614 0.92874515
-0.68108654 0.62187338 0.93983167
-0.48554218 0.61956823 0.91412008
-0.54435199 0.61759949 0.92518938
-0.60404837 0.62054294 0.94136572
-0.65790051 0.61759257 0.9503237
-0.46544138 0.61738831 0.91970623
-0.52608138 0.6202811 0.93890041
-0.58380872 0.62023598 0.95398551
-0.64445263 0.6221289 0.9731617
-0.44625369 0.61813903 0.92936379
-0.50594312 0.61806494 0.94648588
-0.56359154 0.61894733 0.96558762
-0.6212666 0.6178481 0.98365366
-0.42517176 0.61597353 0.93393147
-0.48575956 0.61781228 0.95610666
-0.5443477 0.61964381 0.97824419
-0.5990538 0.61555243 0.99520022
-0.4041273 0.61384428 0.93649989
-0.46748891 0.62049389 0.96981776
-0.5231269 0.61935139 0.98984557
-0.58168942 0.61814725 1.0139284
-0.38591287 0.61658019 0.94721192
-0.44443399 0.61633968 0.97331214
-0.50194746 0.61809528 0.99942952
-0.56040847 0.6188004 1.0285467
-0.36293671 0.61149848 0.94668967
-0.42426521 0.61710495 0.9819513
-0.48072663 0.61780292 1.0110309
-0.53630149 0.61358845 1.0350033
-0.34380519 0.61230344 0.95334834
-0.40314588 0.61490327 0.98851824
-0.45956588 0.61656481 1.0196153
-0.51308495 0.61228907 1.046549
-0.32371524 0.61214125 0.9579708
-0.38204125 0.61371958 0.99410367
-0.43645081 0.61335617 1.0261266
-0.49378097 0.61393106 1.0622226
-0.30457979 0.61394608 0.96464747
-0.36184987 0.61546654 1.0037605
-0.41524482 0.61408162 1.0367463
-0.46964738 0.61070073 1.0697149
-0.28451249 0.61280215 0.9682523
-0.33887371 0.61038488 1.0032382
-0.39408016 0.61384344 1.0453486
-0.44931707 0.61432076 1.0864053
-0.26346409 0.61167264 0.97083867
-0.31867835 0.61313164 1.012913
-0.37282878 0.6165325 1.0580037
-0.42611921 0.61303931 1.0969515
-0.24438876 0.61253196 0.97449827
-0.29755113 0.6129297 1.0195161
-0.34976989 0.61337805 1.061516
-0.40289089 0.61473948 1.1085513
-0.22429487 0.61336958 0.97913873
-0.27643871 0.61374557 1.0251374
-0.32762414 0.61315435 1.0691
-0.37968916 0.61445791 1.1191154
-0.20431031 0.61029834 0.97870892
-0.25445452 0.61066717 1.02467
-0.30354276 0.61097819 1.0736113
-0.35554773 0.61322725 1.1266437
-0.18329936 0.60920507 0.97929597
-0.2333234 0.61146498 1.031291
-0.28237024 0.61273962 1.0822498
-0.33048916 0.61006564 1.1301185
-0.16420138 0.61104602 0.98397326
-0.21231636 0.6093719 1.03186
-0.25832632 0.61059964 1.0847616
-0.30443475 0.60590076 1.1335565
-0.14514475 0.6119234 0.98663324
-0.19022678 0.6092025 1.036445
-0.2370898 0.61430645 1.0964352
-0.2821157 0.61153126 1.1492457
-0.12419389 0.60988456 0.98420334
-0.16908777 0.61199999 1.043102
-0.21208742 0.61119914 1.096911
-0.25603464 0.60934788 1.1537195
-0.10511462 0.61174369 0.98788095
-0.14711839 0.60993946 1.0416529
-0.18910341 0.6081171 1.0964247
-0.23011914 0.60330981 1.1501237
-0.085186236 0.60872674 0.98445213
-0.12611136 0.60784638 1.042222
-0.16596872 0.60990763 1.1030262
-0.20675492 0.61090028 1.1678296
-0.065171167 0.60863686 0.98507595
-0.10405529 0.60871297 1.0448257
-0.14289802 0.60975271 1.1065925
-0.18166983 0.60972035 1.1723402
-0.046170719 0.60956842 0.98473698
-0.083017752 0.60960126 1.0464483
-0.11882754 0.60959423 1.1101402
-0.15562232 0.6085729 1.1748326
-0.027174197 0.60950023 0.98437995
-0.061961509 0.61047143 1.0490707
-0.095835663 0.60851187 1.10969
-0.12955219 0.60840726 1.1783428
-0.0072645321 0.60650134 0.97995144
-0.039969459 0.60939258 1.0486393
-0.071761243 0.60935318 1.1132559
-0.10350471 0.60725981 1.1808351
0.010672081 0.60549116 0.97659618
-0.017992206 0.60933179 1.0472263
-0.047769561 0.60826719 1.1127868
-0.0774533 0.60711223 1.1833456
0.030676277 0.60741913 0.97625637
0.0019627605 0.60829639 1.0448331
-0.024773771 0.60818464 1.1123546
-0.051379241 0.6079464 1.1868737
0.049635358 0.60738713 0.97390008
0.022894895 0.60627562 1.0414034
-0.0018006302 0.60712045 1.1109047
-0.025429297 0.60588962 1.1843498
0.068635806 0.60831875 0.97356105
0.044849496 0.60523295 1.0389729
0.022130957 0.60508889 1.1074187
-0.00046045333 0.60381842 1.1828443
0.086467028 0.60439944 0.96515346
0.065766834 0.60423011 1.0345615
0.045108024 0.60502452 1.105987
0.025621463 0.60665214 1.1864083
0.10543003 0.60536724 0.96281517
0.086766914 0.60515457 1.0341849
0.069126278 0.60592008 1.1065536
0.051552687 0.60461348 1.1828849
0.12437037 0.60535336 0.95945913
0.10766554 0.60416985 1.028774
0.091956586 0.60198289 1.098052
0.077363707 0.60068363 1.1733273
0.14337477 0.6072849 0.95913815
0.12858288 0.603167 1.0243628
0.11595611 0.60289657 1.0976191
0.10442279 0.60253209 1.1758549
0.16123255 0.60534716 0.95176631
0.14956425 0.60410953 1.0229865
0.13885438 0.60190469 1.0921705
0.1304259 0.60443848 1.1754024
0.17910907 0.60339153 0.94539404
0.16940293 0.60218287 1.0145774
0.16288048 0.60479999 1.0927733
0.15636103 0.60339963 1.1718969
0.19912112 0.60731906 0.94509029
0.19034292 0.60216171 1.0111839
0.18573737 0.6028443 1.0853075
0.18000694 0.5956223 1.1543076
0.21700156 0.60636318 0.93873608
0.21235462 0.60608214 1.0108424
0.20869963 0.60379779 1.0828941
0.20822439 0.60433942 1.1639401
0.23488593 0.60640711 0.93239987
0.23217067 0.60317367 1.0014156
0.23047395 0.59991854 1.0714122
0.23082909 0.59560204 1.1443523
0.25276637 0.60545117 0.92604566
0.25205073 0.60221052 0.99502385
0.25437987 0.60092264 1.065981
0.25781721 0.59852284 1.1428993
0.27065074 0.6054951 0.9197095
0.27295721 0.60322547 0.98964894
0.27730864 0.60291207 1.0615861
0.28476396 0.60047978 1.1394291
0.28858045 0.60750258 0.91540861
0.2938903 0.60622197 0.98530972
0.30019209 0.60293806 1.0551561
0.30750456 0.59763294 1.1259472
0.30857375 0.61144817 0.91410524
0.31268775 0.60333514 0.97490203
0.32099316 0.601044 1.0447288
0.33236894 0.59766984 1.1184798
0.32328925 0.60664845 0.89973807
0.33255306 0.60338998 0.96752864
0.34385791 0.60108805 1.037299
0.35823703 0.59870297 1.1110116
0.34015507 0.60671401 0.89242107
0.35244098 0.60442656 0.96117282
0.36568537 0.60117191 1.0278887
0.38521039 0.60264158 1.108577
0.35804337 0.60775781 0.8861028
0.37122372 0.60255772 0.94978356
0.3885954 0.6031794 1.0224942
0.40999988 0.60275084 1.0971111
0.37282291 0.60490346 0.87477064
0.39005175 0.60265237 0.94042957
0.40725398 0.59841961 1.0050528
0.40334105 0.55820566 1.0174029
0.39277878 0.60888529 0.87146789
0.40994358 0.60468876 0.93409187
0.43016794 0.60142708 0.99967641
0.45653403 0.60101658 1.0721999
0.40960717 0.60898703 0.8621515
0.42666656 0.6018815 0.91972315
0.44989431 0.59960878 0.98526931
0.47928253 0.60016942 1.0587542
0.42438668 0.60613269 0.85081935
0.44444948 0.60001624 0.90835249
0.47276694 0.60165256 0.97787559
0.50203109 0.59932226 1.0453084
0.44023791 0.60721987 0.84253937
0.46430391 0.60208887 0.90001553
0.49356103 0.60277599 0.96650267
0.52269709 0.59655482 1.0278654
0.45704755 0.60733968 0.83222336
0.48002708 0.59928513 0.88566554
0.51229155 0.60196126 0.95213234
0.54545343 0.59770727 1.0144557
0.47080857 0.60450703 0.81991029
0.49990413 0.60233951 0.87834615
0.53304034 0.60112125 0.93872416
0.56716466 0.59689987 0.9990294
0.4866184 0.60463053 0.80961299
0.51767617 0.60249197 0.86601198
0.55283469 0.60224819 0.92737013
0.59304839 0.60193229 0.99163324
0.50240952 0.60477203 0.79831612
0.53342199 0.60067004 0.85267973
0.57052404 0.60047334 0.91100132
0.61578602 0.6031028 0.97722387
0.52133209 0.60979348 0.79305089
0.55326158 0.60376054 0.84336102
0.58925837 0.60065842 0.896649
0.63031042 0.59748411 0.952842
0.53405583 0.60700059 0.77875733
0.56794757 0.60099667 0.82703048
0.60799283 0.60084349 0.88229668
0.65409309 0.60061461 0.94044912
0.54886585 0.60712755 0.76847887
0.58576483 0.60311264 0.81673169
0.6257087 0.60105026 0.86696357
0.6747936 0.60182846 0.92407799
0.56363446 0.606291 0.75618303
0.60458595 0.60622478 0.80643213
0.64648795 0.60319161 0.85460907
0.694453 0.60208231 0.90570831
0.58047467 0.6093924 0.74692065
0.61723083 0.60250437 0.78812182
0.66216284 0.60244191 0.83729619
0.7100451 0.59940529 0.88436067
0.59115732 0.60564291 0.73064733
0.63501072 0.60465652 0.77582383
0.67984128 0.6026848 0.81996369
0.72972703 0.60064083 0.86700869
0.60595256 0.60678792 0.71938723
0.64665979 0.60193962 0.75755036
0.69553488 0.60191697 0.8036505
0.7493903 0.6018945 0.84865701
0.62175161 0.60892916 0.70812631
0.66443962 0.60409176 0.74525219
0.7101686 0.60020709 0.78433901
0.76500905 0.60119897 0.82834506
0.63448316 0.60813588 0.69386882
0.67712986 0.6023348 0.72897732
0.72889596 0.60340983 0.76904112
0.78160888 0.60051805 0.80701476
0.64314353 0.60341197 0.67661536
0.6918276 0.60257041 0.71270084
0.74559718 0.60463804 0.75274515
0.79927629 0.60277867 0.7887187
0.6630137 0.6094839 0.66835034
0.71063375 0.60670048 0.70141965
0.75516778 0.60100079 0.73049259
0.81283534 0.60114485 0.76542735
0.67472672 0.60871226 0.65311188
0.71924204 0.60303068 0.68118525
0.77285409 0.60324335 0.71319622
0.83150661 0.60440171 0.74713051
0.68645847 0.60792267 0.63887316
0.7329399 0.60326988 0.66492754
0.78546941 0.6015588 0.69292265
0.84304327 0.60179335 0.72285908
0.70224267 0.61108184 0.62663066
0.74766415 0.60548705 0.64968687
0.80013353 0.60283047 0.67466486
0.8576287 0.60213745 0.70058465
0.71497816 0.61128843 0.61239117
0.75829464 0.60279173 0.63043255
0.81177169 0.60213119 0.65542781
0.87223667 0.60346335 0.67932796
0.72567266 0.61053848 0.59617186
0.76997411 0.60305619 0.61321276
0.82439488 0.60244632 0.63519037
0.88482243 0.6038146 0.65709114
0.73638594 0.60977054 0.58095217
0.78672463 0.60724771 0.59897017
0.83906299 0.60471773 0.61695063
0.89738941 0.60418397 0.63385469
0.7501291 0.61197323 0.56672996
0.79128826 0.60162878 0.57677555
0.84964514 0.60407645 0.5947333
0.9089604 0.60555691 0.61065495
0.76082355 0.61122334 0.55051064
0.80599773 0.60486388 0.56055319
0.86026871 0.60439873 0.57453346
0.91952401 0.60493356 0.58743805
0.76949573 0.60949886 0.53331125
0.81665868 0.60514998 0.54235262
0.87087351 0.60473913 0.55333388
0.93311733 0.60728091 0.56521845
0.78322417 0.61271954 0.5181073
0.82731968 0.60543609 0.52415204
0.87642604 0.6011343 0.53015685
0.94164753 0.60770082 0.54005784
0.79089659 0.61099857 0.50092667
0.83796191 0.60574031 0.50495178
0.89210582 0.60640162 0.5119524
0.94716674 0.6051321 0.51489949
0.80157626 0.61126661 0.48372576
0.85165673 0.60999691 0.48776653
0.89968854 0.60577106 0.48979151
0.95267093 0.60358119 0.48875958
0.81127489 0.61152017 0.46754327
0.85624701 0.60635954 0.4666076
0.90827495 0.60613674 0.46762982
0.96729457 0.60890639 0.46757492
0.81793267 0.61082077 0.44939983
0.86488962 0.60667092 0.44744495
0.91686147 0.60650235 0.44546816
0.97887361 0.61227882 0.44441128
0.83064252 0.61406308 0.43321502
0.87656218 0.60995299 0.42927963
0.92547047 0.60784978 0.42432421
0.9834007 0.61171329 0.41930777
0.84032238 0.6143347 0.41603288
0.88113761 0.60733348 0.40713906
0.93003511 0.60724807 0.40122002
0.99093515 0.61313665 0.39418393
0.8439315 0.61068279 0.39589244
0.89685863 0.61356443 0.39095196
0.94165534 0.61158419 0.38007373
0.99343991 0.61159652 0.36810035
0.85058922 0.6099835 0.37774897
0.90246052 0.61292291 0.36982828
0.94723839 0.61096078 0.35795042
1.0020233 0.61597961 0.34501109
0.85925454 0.61127663 0.359604
0.90303272 0.60931802 0.34774488
0.95986253 0.61629319 0.33680335
1.0035282 0.61444306 0.3189463
0.86894232 0.61354786 0.34245789
0.91469049 0.6136179 0.3285979
0.96242744 0.61569864 0.31373674
1.0060409 0.61490262 0.29289874
0.87558132 0.61286658 0.32331479
0.9233222 0.61594713 0.30847162
0.96297002 0.61412942 0.28969008
1.0095721 0.61534053 0.26783204
0.88324684 0.61416334 0.30518857
0.92792428 0.61530918 0.28736675
0.96854222 0.61552387 0.26660314
1.0161372 0.61974877 0.2437807
0.88686377 0.6125111 0.28508413
0.92850429 0.61370391 0.26531938
0.97211093 0.61592555 0.24353576
1.0116355 0.61623418 0.21779262
0.89452916 0.6138078 0.26695794
0.93108785 0.61309123 0.24325246
0.89622372 0.56387305 0.20700261
0.62721395 0.3660953 0.14043903
0.89915389 0.61415166 0.24687076
0.80692923 0.52334404 0.19993892
0.60325181 0.36514544 0.14287132
-0.02611593 -0.059798401 0.050936799
0.79611331 0.5362547 0.20737748
0.60139692 0.37805995 0.14814144
0.58889288 0.35450512 0.12594195
0.60652995 0.35378435 0.10659213
0.58751267 0.38301888 0.1534929
0.5840494 0.36541262 0.13223207
0.57054943 0.34286112 0.11006937
-0.02611593 -0.059798401 0.050936799
0.57218349 0.37034631 0.1385456
0.57574248 0.35871384 0.11726134
0.56226534 0.33714417 0.096116327
0.56984705 0.3314963 0.074865013
0.55885798 0.3586663 0.12357874
0.56545079 0.35100436 0.10330984
0.56099939 0.3364011 0.082121849
-0.02611593 -0.059798401 0.050936799
0.56263649 0.35986888 0.11152568
0.56117761 0.34827247 0.089335695
0.56075603 0.33663628 0.069126248
0.5673272 0.33300981 0.046930097
0.55234474 0.35215938 0.097574174
0.55792296 0.34551889 0.076342411
0.56049782 0.33788937 0.055149015
0.56207687 0.33126327 0.033992421
0.56514913 0.36032841 0.085478112
0.5626905 0.34873563 0.063306928
0.5642882 0.34209141 0.043149993
0.5628224 0.33351257 0.020014413
0.55186886 0.35061193 0.072546609
0.55342513 0.34300408 0.050372332
-0.02611593 -0.059798401 0.050936799
0.56357181 0.33676171 0.00605442
0.55063647 0.34883294 0.060533427
0.54818571 0.33923978 0.038398281
-0.02611593 -0.059798401 0.050936799
0.56530249 0.34002534 -0.0089240186
0.55440021 0.35105339 0.047498707
0.55496055 0.34444892 0.025361245
0.5645321 0.34582898 0.0021991543
0.58105105 0.35325518 -0.024985004
0.55118304 0.34826368 0.036504757
0.55772847 0.34767285 0.012363333
0.55627447 0.34209347 -0.010718189
0.58680046 0.36150357 -0.039948519
0.55394691 0.35048771 0.023488825
0.56148136 0.35191101 -0.0016350076
0.56903839 0.35431615 -0.02574116
-0.02611593 -0.059798401 0.050936799
0.56372923 0.35768577 0.010431454
0.56123799 0.35214618 -0.014630601
0.5737763 0.35956866 -0.040739939
0.61622703 0.38904253 -0.076013535
0.58550715 0.37387544 -0.0046885572
0.57199436 0.36237636 -0.029652026
0.58150661 0.36782804 -0.056740694
0.72278756 0.46835059 -0.11558744
0.58524501 0.3741287 -0.018683814
0.56774384 0.36062622 -0.0426085
0.58825594 0.37607285 -0.071722999
0.86318177 0.57378536 -0.16932701
0.57000256 0.36438322 -0.02957841
0.5834924 0.37385601 -0.058669481
0.71180439 0.46737212 -0.1143991
0.93063647 0.62925553 -0.20960018
0.56775558 0.36362571 -0.042554446
0.60221481 0.39011067 -0.076732099
0.92607498 0.62583989 -0.18556842
0.92223382 0.6316818 -0.23140639
0.57949317 0.37387037 -0.05859432
0.7377401 0.49041966 -0.12247052
0.92464542 0.63127667 -0.20945141
0.91282755 0.63311195 -0.2532118
0.59022689 0.38311875 -0.074633427
0.92505336 0.62987894 -0.18747689
0.91525 0.63068908 -0.23029318
0.20901167 0.11579007 -0.031317078
0.75373209 0.50341421 -0.12553592
0.91866136 0.63028032 -0.20835705
0.90786195 0.63209385 -0.25113654
0.19297533 0.1058492 -0.031196617
0.92107987 0.62685764 -0.18545645
0.91026568 0.6296891 -0.22921762
0.21201898 0.11777896 -0.03133741
-0.02611593 -0.059798401 0.050936799
0.91268021 0.62526661 -0.20633505
0.90387756 0.63109028 -0.25007972
0.19397907 0.10684543 -0.031197388
0.16491368 0.088952571 -0.030976795
0.91328382 0.62966025 -0.2282743
0.20503807 0.11276876 -0.029296651
-0.02611593 -0.059798401 0.050936799
-0.02611593 -0.059798401 0.050936799
0.90091074 0.62504786 -0.24713248
0.19099049 0.10483845 -0.030177392
0.17386071 0.094991609 -0.035036452
0.14385168 0.077048078 -0.03179808
0.21101131 0.11578289 -0.031354658
-0.02611593 -0.059798401 0.050936799
-0.02611593 -0.059798401 0.050936799
-0.02611593 -0.059798401 0.050936799
0.18700902 0.099817462 -0.028193004
0.16789834 0.089959733 -0.032014813
0.14484757 0.076044649 -0.031834889
0.12181944 0.06311132 -0.030637279
-0.02611593 -0.059798401 0.050936799
