# .PCD v0.7 - Point Cloud Data file format
VERSION 0.7
FIELDS x y z
SIZE 4 4 4
TYPE F F F
COUNT 1 1 1
WIDTH 1419
HEIGHT 1
VIEWPOINT 0 0 0 1 0 0 0
POINTS 1419
DATA ascii
-0.67224276 0.60738957 1.5196006
-0.70008111 0.6013996 1.6360528
-0.73261511 0.596138 1.7686119
-0.77257025 0.59436172 1.9313829
-0.64193392 0.60597456 1.536013
-0.66573554 0.59993404 1.6543896
-0.6970855 0.59850538 1.7959987
-0.72723067 0.59185684 1.9494948
-0.60874569 0.60265768 1.5463352
-0.6294691 0.59753394 1.668672
-0.65772212 0.59700376 1.8152411
-0.68380392 0.59228635 1.9716971
-0.57941014 0.60322785 1.5638022
-0.59609681 0.59805351 1.688063
-0.61647534 0.59460378 1.8284298
-0.63942271 0.59074867 1.9918453
-0.54809749 0.60280907 1.580214
-0.55980772 0.59663504 1.7033633
-0.57804775 0.59505117 1.850726
-0.59305674 0.59022176 2.0109739
-0.51682627 0.6014266 1.5946083
-0.526398 0.59711844 1.7247536
-0.53863913 0.59551299 1.8720038
-0.5467695 0.58876747 2.0260863
-0.48555112 0.601044 1.6090207
-0.4901011 0.5976997 1.7400899
-0.49549025 0.5921964 1.8801386
-0.5004409 0.58827674 2.0432158
-0.45321602 0.60160339 1.6264313
-0.45284963 0.59631383 1.7533718
-0.45411935 0.59268737 1.8993795
-0.45311254 0.58778244 2.0603263
-0.41908425 0.59833723 1.6337357
-0.41563964 0.59396428 1.7646365
-0.41188365 0.59230149 1.9115858
-0.40762216 0.59015018 2.0855265
-0.38678664 0.59893274 1.649147
-0.37838429 0.59357822 1.7779365
-0.36871609 0.58896673 1.9207205
-0.35589167 0.58118212 2.072391
-0.35353059 0.59856105 1.6625222
-0.34018922 0.59224302 1.7882007
-0.32643902 0.58954448 1.9349443
-0.30068019 0.56467146 2.0330453
-0.31939483 0.5962947 1.6698445
-0.30105442 0.58995873 1.7954291
-0.28324485 0.58819139 1.9451145
-0.25516325 0.56902069 2.0592806
-0.28613877 0.59592301 1.6832198
-0.26371634 0.59149992 1.8127638
-0.23912574 0.58690697 1.9512672
-0.21194339 0.58474553 2.1207767
-0.25189766 0.59656566 1.6955945
-0.22449486 0.59214282 1.8240449
-0.19588631 0.58751732 1.9634728
-0.1627011 0.58633423 2.1328876
-0.21676214 0.59429562 1.7028981
-0.18533741 0.5908401 1.832291
-0.15176724 0.58623296 1.9696258
-0.11268459 0.58311909 2.1338935
-0.18247966 0.59590197 1.7172902
-0.14521763 0.58957016 1.838519
-0.1067498 0.58303583 1.9707254
-0.061660387 0.58190006 2.1349163
-0.14631775 0.59561002 1.7256106
-0.10599615 0.59021294 1.8498001
-0.06268689 0.58180571 1.9738792
-0.012496926 0.58256119 2.1430104
-0.11109556 0.5962671 1.736967
-0.065872401 0.58994275 1.8560462
-0.017443877 0.58340865 1.9860653
0.03638871 0.57947636 2.1370375
-0.07499373 0.59502959 1.7422704
-0.024850328 0.58775979 1.8572391
0.026645619 0.58416021 1.9902549
0.086417004 0.57926071 2.1380973
-0.037892088 0.59378844 1.747555
0.015292136 0.58747154 1.8644848
0.071588159 0.58103532 1.9873558
0.13742641 0.57905954 2.1381385
-0.0017676242 0.59353262 1.7538762
0.055401087 0.58821923 1.8697491
0.11665481 0.58080149 1.9905089
0.18735716 0.57793456 2.134182
0.034255382 0.59136748 1.7551631
0.097505733 0.58796 1.8749578
0.16154511 0.57873076 1.984629
-0.02611593 -0.059798401 0.050936799
0.072402135 0.59208626 1.7624643
0.13741173 0.58488929 1.8701534
-0.02611593 -0.059798401 0.050936799
0.14438012 0.28623977 1.180387
0.11054496 0.59180516 1.7697475
0.1794415 0.58470237 1.8713636
0.13762638 0.3151333 1.1880387
0.33601856 0.57468969 2.1153336
0.14755298 0.59065443 1.770034
-0.02611593 -0.059798401 0.050936799
0.16012266 0.30750436 1.1624708
0.2581709 0.37758979 1.4700071
-0.02611593 -0.059798401 0.050936799
0.26352367 0.58531034 1.8748015
0.18714039 0.30838919 1.1629812
0.43579823 0.57552969 2.1024766
0.21765636 0.57118082 1.7253542
-0.02611593 -0.059798401 0.050936799
0.34312019 0.50803733 1.7608749
0.4834781 0.57264733 2.085526
0.26257634 0.58718801 1.7708181
0.20674242 0.34286284 1.1882463
0.4331091 0.57511693 1.9594707
0.53334183 0.57359433 2.0776067
0.28490707 0.55559081 1.6878003
0.21182503 0.30956212 1.0925163
0.47902972 0.576024 1.9546257
0.58210421 0.57263577 2.064672
0.31408983 0.54020941 1.6469617
0.23355797 0.30471921 1.0790173
0.5227704 0.57410157 1.9407673
0.62769479 0.57085085 2.0427787
0.37957364 0.58674997 1.7696191
0.25961724 0.30657127 1.0815638
0.5665338 0.57316089 1.9279267
0.67652124 0.57183754 2.0328789
0.41846505 0.58470082 1.7638519
0.27927566 0.30180785 1.0641035
0.61351824 0.57600975 1.9260978
0.72214925 0.5700165 2.012985
-0.02611593 -0.059798401 0.050936799
0.30427504 0.30271795 1.0636518
0.65720278 0.57414162 1.9092405
-0.02611593 -0.059798401 0.050936799
-0.02611593 -0.059798401 0.050936799
0.32925957 0.30464599 1.0622185
-0.02611593 -0.059798401 0.050936799
-0.02611593 -0.059798401 0.050936799
-0.02611593 -0.059798401 0.050936799
0.35419884 0.30461052 1.0587497
0.38974619 0.28182894 1.0386653
0.53089941 0.33551058 1.2480645
-0.02611593 -0.059798401 0.050936799
0.38126186 0.30745885 1.0612954
0.45027614 0.31023732 1.1140714
0.90778971 0.57162958 1.9385133
0.35621297 0.32265458 1.0560374
0.40304402 0.30557922 1.0498496
0.83317804 0.57446516 1.8529326
0.95026451 0.56896418 1.9106604
0.37906986 0.32069901 1.0485716
0.55451137 0.40713495 1.3199425
0.87164974 0.57081425 1.8251368
0.99486703 0.57018232 1.88884
0.39875093 0.31691727 1.032129
0.80555785 0.57713205 1.7664685
0.91744322 0.57284778 1.8133122
1.0363686 0.56950212 1.8620416
0.5670467 0.43868843 1.342286
0.84728801 0.57723457 1.7516842
0.95905715 0.57205904 1.7925117
1.0819936 0.57169843 1.8412199
0.78045857 0.58330262 1.7070299
0.88383502 0.57351846 1.7279246
1.0006977 0.57325178 1.7727469
1.1203982 0.57011956 1.8094617
0.81715912 0.58044165 1.6912857
0.92870748 0.57648307 1.7201353
1.0433339 0.57344115 1.7529454
1.1608437 0.56949723 1.779683
0.86000544 0.58143193 1.6824986
0.9693591 0.57566172 1.7013531
1.0818509 0.57175374 1.727185
1.1982526 0.56892174 1.7479614
0.90079194 0.58148372 1.6707318
1.0079736 0.5748837 1.680609
1.1203532 0.57108432 1.7004429
1.2407992 0.57020146 1.7231796
0.93946266 0.58065146 1.6529866
1.0465879 0.57410568 1.6598649
1.1650571 0.57421172 1.6836569
1.2761296 0.56870562 1.687479
0.97608835 0.57786286 1.6332438
1.0903256 0.57620066 1.645079
1.1984025 0.57170522 1.6489755
1.3135422 0.56913 1.6557754
1.0168188 0.57796901 1.6184782
1.1258205 0.57354236 1.6183573
1.2379458 0.57199585 1.6242321
1.3519773 0.57053256 1.6250708
1.0564932 0.57813293 1.6007323
1.1644202 0.57378221 1.5966315
1.2815564 0.57521719 1.6024665
1.3883715 0.57097864 1.5923864
1.0951264 0.57733685 1.5809879
1.2039822 0.57405472 1.5728878
1.3139207 0.57269627 1.5688034
1.4237471 0.57144636 1.5587211
1.1337782 0.57652265 1.5622432
1.2435856 0.5752908 1.5511612
1.3514122 0.5740481 1.5411165
1.4570855 0.57195747 1.5230942
1.1713555 0.57578444 1.5395185
1.2831478 0.57556331 1.5274174
1.3898847 0.57541448 1.5124112
1.4914238 0.572465 1.4874482
1.2079289 0.57404995 1.5167947
1.3196728 0.57588273 1.5017306
1.420216 0.57393676 1.4768045
1.518662 0.57108837 1.4468997
1.2536927 0.57811928 1.5030068
1.3520786 0.57432544 1.4700849
1.4566474 0.5743466 1.4461195
1.5530041 0.57259566 1.4112719
1.2912326 0.57741719 1.4782829
1.3916072 0.575634 1.4443599
1.4879824 0.573865 1.410512
1.5822871 0.57317537 1.3727211
1.3318319 0.57764989 1.4565196
1.4280949 0.5759896 1.4166738
1.5223995 0.57530004 1.3788829
1.6126114 0.5747152 1.3361688
1.3703755 0.5779441 1.4317949
1.4625267 0.5764066 1.3860261
1.5537384 0.5758183 1.3432934
1.638835 0.57436013 1.2946572
1.4089189 0.57823825 1.4070703
1.5030403 0.57872945 1.3593007
1.5850773 0.57633656 1.307704
1.6671034 0.57596135 1.2551435
1.4474477 0.57955039 1.3813637
1.5364498 0.57816833 1.3276544
1.6113532 0.57492727 1.2691734
1.6943681 0.57656628 1.2156307
1.4859351 0.57989883 1.3536402
1.5637441 0.57673752 1.2901046
1.6416733 0.57546729 1.2326032
1.7175734 0.57624006 1.1731759
1.5234226 0.58025086 1.3259354
1.599161 0.57816893 1.2584566
1.6740197 0.57798171 1.197031
1.7428237 0.57787019 1.132719
1.5588543 0.58066428 1.2952689
1.6305146 0.57766926 1.2238489
1.699281 0.57759398 1.1575376
1.7670554 0.57952201 1.0912812
1.5932635 0.58009958 1.2636037
1.6598351 0.57821286 1.1872973
1.727568 0.57917714 1.1190236
1.7933092 0.58214825 1.0508232
1.6266356 0.5795747 1.2299581
1.6962558 0.58064044 1.1556487
1.7558513 0.57976043 1.0804915
1.8145189 0.58282906 1.0084243
1.6630296 0.58002079 1.1972737
1.7295983 0.58215129 1.1200397
1.7800978 0.58039433 1.0400354
1.837732 0.58450246 0.96600556
1.6943645 0.57953924 1.1616664
1.7538369 0.58078551 1.0795474
1.802326 0.58105338 0.99861711
1.8599494 0.5871793 0.92362356
1.7358031 0.58193076 1.1309233
1.7902054 0.5842672 1.0449179
1.8366613 0.58557826 0.96204364
1.869037 0.58501226 0.87539786
1.7681417 0.58244544 1.095315
1.8225105 0.58581787 1.0073283
1.8528079 0.58433163 0.9167034
1.8922769 0.58866721 0.83401483
1.8014616 0.58297467 1.0586884
1.8376532 0.58357501 0.96198881
1.8790804 0.58693987 0.87724537
1.9114532 0.59039128 0.78967202
1.8377887 0.58549273 1.0220413
1.8709621 0.58612198 0.92439854
1.8982491 0.58666414 0.83286643
1.9195638 0.58920944 0.74248278
1.8720934 0.58703631 0.98441422
1.8941714 0.58679557 0.88196176
1.9174256 0.58838809 0.78852355
1.9377444 0.59193689 0.69817668
1.8983129 0.58568138 0.94288474
1.9203988 0.58744031 0.84046835
1.9406427 0.59106141 0.74612284
1.9478812 0.59272945 0.65198559
1.9305619 0.58728629 0.90229619
1.9456117 0.58910656 0.79801202
1.9557934 0.59081811 0.70081943
1.9620585 0.59447134 0.60773671
1.9607887 0.58791673 0.86072761
1.9687834 0.58981633 0.75357598
1.970948 0.59157473 0.65553403
1.9691732 0.59429306 0.56058425
1.9930415 0.59052151 0.82015717
1.9909594 0.59152961 0.70917672
1.9850839 0.59235293 0.60926771
1.9803138 0.59608185 0.51439238
2.0131497 0.58929664 0.77274245
2.0201793 0.59518111 0.66668135
2.0012422 0.59410584 0.56398153
1.9854512 0.59689248 0.46829519
2.0433433 0.59096313 0.72919244
2.0352926 0.59497404 0.61937857
2.0093567 0.59392387 0.51681042
1.9895666 0.59672487 0.42119917
2.0664735 0.59070915 0.68273908
2.0514243 0.59474528 0.5730567
2.0214932 0.59470928 0.47058171
1.9927006 0.59654278 0.37512159
2.0986745 0.59436804 0.63918757
2.0655191 0.59455997 0.52477306
2.0326109 0.59551644 0.42337215
1.188653 0.33549827 0.21740001
2.1177454 0.59318304 0.58979237
2.088665 0.5983054 0.47839177
2.0417292 0.5963307 0.37620017
-0.02611593 -0.059798401 0.050936799
2.14889 0.59689975 0.54326081
2.0977383 0.59715617 0.42918441
2.055877 0.60010844 0.32998794
1.0361283 0.28535149 0.14732482
2.1669464 0.59673613 0.49290264
2.1228878 0.60189426 0.38278353
-0.02611593 -0.059798401 0.050936799
1.048715 0.29072002 0.12417843
2.1850071 0.59757239 0.44256258
2.1239166 0.59881032 0.33169115
1.0691262 0.28623286 0.14672275
1.0562721 0.29312509 0.10007228
2.2090702 0.59938699 0.39212775
-0.02611593 -0.059798401 0.050936799
1.0796641 0.28864527 0.12156057
1.0488161 0.2915847 0.076175913
2.2231085 0.59925586 0.34084517
1.1752977 0.30574051 0.15108928
1.079196 0.28909749 0.096569031
1.0093043 0.2791791 0.051682971
2.2381134 0.6001572 0.28756249
1.1898013 0.30917457 0.12387064
1.0847307 0.290528 0.071482792
0.9167912 0.24991232 0.030878603
2.2551405 0.60203308 0.23525991
1.1992831 0.31164482 0.095728263
1.0882473 0.29198381 0.045434453
0.90538836 0.2473322 0.010038363
2.2671232 0.60196334 0.18101591
1.1957328 0.31018052 0.066758424
0.93767422 0.24492826 0.025395606
0.88100952 0.2407632 -0.008630354
2.2841165 0.60487521 0.12673202
2.1762598 0.6060648 0.028739689
1.0743164 0.28891751 -0.0033767335
0.91262013 0.2530624 -0.032007635
2.3040946 0.60879427 0.07141012
2.1773231 0.60696203 -0.021280944
1.0478402 0.28144634 -0.027024202
1.0801058 0.31113699 -0.072106495
2.322088 0.61170256 0.017107438
2.1933436 0.61185902 -0.074510351
1.0593671 0.28587288 -0.0531688
1.0286965 0.2956664 -0.090430044
2.3280156 0.6117087 -0.040022802
-0.02611593 -0.059798401 0.050936799
1.045927 0.28333607 -0.075970776
0.90444583 0.25522697 -0.094836727
2.3059585 0.60478032 -0.094753705
1.0571696 0.26900956 -0.060435161
0.93860716 0.24992485 -0.085569084
0.86312532 0.24364741 -0.10927746
-0.02611593 -0.059798401 0.050936799
0.99575049 0.25057542 -0.078624837
0.92021644 0.24535209 -0.10531417
0.8577705 0.24400906 -0.12817706
1.042943 0.24419068 -0.067620181
0.9982897 0.25301653 -0.10363671
0.93975735 0.25374931 -0.13153704
1.0049781 0.29740956 -0.18198545
1.0304841 0.2416684 -0.091440625
1.0587165 0.27240941 -0.13842906
1.0510436 0.29215485 -0.17794162
0.92379707 0.27179512 -0.18593022
-0.02611593 -0.059798401 0.050936799
1.0582298 0.27287975 -0.16442025
0.97379881 0.26959795 -0.18590611
0.87256032 0.25716162 -0.19523878
-0.02611593 -0.059798401 0.050936799
0.97696322 0.24935538 -0.17332727
0.90060955 0.24697234 -0.1909468
0.83930242 0.24749878 -0.2067948
1.0300235 0.24307576 -0.16943297
0.95358801 0.24378264 -0.19199675
0.90717459 0.25138068 -0.21499816
0.8319667 0.24784951 -0.22465715
1.0215491 0.24155702 -0.19431022
0.95512748 0.24622738 -0.21698982
0.89579433 0.24978229 -0.23482068
0.18879895 0.017715715 -0.023710128
1.0579115 0.2530736 -0.23079506
0.96263617 0.25068635 -0.24405894
0.90134478 0.25521213 -0.25983489
0.2016329 0.023848925 -0.033842914
1.0374647 0.24856225 -0.25350153
0.95620668 0.25112393 -0.26693842
0.20365036 0.018806424 -0.031971261
-0.02611593 -0.059798401 0.050936799
1.0289942 0.24804336 -0.27836075
0.20368688 0.013753003 -0.029062368
0.20055334 0.017907806 -0.036931217
0.17756844 0.015972599 -0.035535406
1.027474 0.24955328 -0.30631444
0.20655918 0.014868691 -0.03609835
-0.02611593 -0.059798401 0.050936799
-0.02611593 -0.059798401 0.050936799
0.1976191 0.0058120694 -0.031093098
-0.02611593 -0.059798401 0.050936799
0.16755754 0.0079917619 -0.034491979
0.15456386 0.009038249 -0.034229688
0.1905603 0.0048916363 -0.033978567
0.17354861 0.00597056 -0.034640763
-0.02611593 -0.059798401 0.050936799
-0.02611593 -0.059798401 0.050936799
-0.02611593 -0.059798401 0.050936799
-0.02611593 -0.059798401 0.050936799
0.14156835 5.0254166e-05 -0.032148257
0.13552898 0.0041253739 -0.034962427
0.16153418 -0.0030029234 -0.033577789
0.15249145 8.3132414e-05 -0.036353607
-0.02611593 -0.059798401 0.050936799
-0.02611593 -0.059798401 0.050936799
-0.02611593 -0.059798401 0.050936799
-0.02611593 -0.059798401 0.050936799
0.12752168 -0.0028628111 -0.033938561
0.1145615 -0.0028523332 -0.031694967
0.14149947 -0.0079122093 -0.034291722
0.13842212 -0.0038116779 -0.039161589
-0.02611593 -0.059798401 0.050936799
-0.02611593 -0.059798401 0.050936799
-0.02611593 -0.059798401 0.050936799
-0.02611593 -0.059798401 0.050936799
0.10954277 -0.0078335423 -0.031691108
0.10253318 -0.0057906695 -0.032523204
0.12348312 -0.012846759 -0.034043584
0.11447784 -0.0097968811 -0.034820084
-0.02611593 -0.059798401 0.050936799
-0.02611593 -0.059798401 0.050936799
-0.02611593 -0.059798401 0.050936799
-0.02611593 -0.059798401 0.050936799
0.097514458 -0.010771874 -0.032519344
0.090519674 -0.009746925 -0.032369792
0.10647053 -0.016785067 -0.033796217
0.10541547 -0.011709971 -0.037685987
-0.02611593 -0.059798401 0.050936799
-0.02611593 -0.059798401 0.050936799
-0.02611593 -0.059798401 0.050936799
-0.02611593 -0.059798401 0.050936799
0.086485967 -0.013713796 -0.033366352
0.082479753 -0.010681862 -0.034236804
0.092461303 -0.019734308 -0.03358721
0.089436188 -0.016687877 -0.035476115
-0.02611593 -0.059798401 0.050936799
-0.02611593 -0.059798401 0.050936799
-0.02611593 -0.059798401 0.050936799
-0.02611593 -0.059798401 0.050936799
0.076476023 -0.016677398 -0.033232503
0.075454459 -0.012638313 -0.035140973
0.082436554 -0.021679992 -0.034435004
0.08041127 -0.018637149 -0.036342695
-0.02611593 -0.059798401 0.050936799
-0.02611593 -0.059798401 0.050936799
-0.02611593 -0.059798401 0.050936799
-0.02611593 -0.059798401 0.050936799
0.069435924 -0.017615929 -0.035118323
0.063482322 -0.015630912 -0.032970209
0.07046441 -0.024672592 -0.032264259
0.069405429 -0.020597331 -0.03617204
-0.02611593 -0.059798401 0.050936799
-0.02611593 -0.059798401 0.050936799
-0.02611593 -0.059798401 0.050936799
-0.02611593 -0.059798401 0.050936799
0.059463415 -0.020615708 -0.03298514
0.059422959 -0.016562119 -0.035912056
0.064405411 -0.025596622 -0.035168517
0.063365147 -0.021539446 -0.038076628
-0.02611593 -0.059798401 0.050936799
-0.02611593 -0.059798401 0.050936799
-0.02611593 -0.059798401 0.050936799
-0.02611593 -0.059798401 0.050936799
0.050475933 -0.022601156 -0.031852409
0.049469177 -0.019579984 -0.032779217
0.053433102 -0.028592814 -0.033016544
0.054358937 -0.023506807 -0.037943553
-0.02611593 -0.059798401 0.050936799
-0.02611593 -0.059798401 0.050936799
-0.02611593 -0.059798401 0.050936799
-0.02611593 -0.059798401 0.050936799
0.042506989 -0.024608281 -0.029738795
0.038549092 -0.023630276 -0.027646296
0.046430457 -0.029567521 -0.032903031
0.047352366 -0.025481343 -0.037848059
-0.02611593 -0.059798401 0.050936799
-0.02611593 -0.059798401 0.050936799
-0.02611593 -0.059798401 0.050936799
-0.02611593 -0.059798401 0.050936799
0.038451552 -0.024539657 -0.032662611
0.037426073 -0.021500401 -0.034589097
0.037461683 -0.031571057 -0.03077063
0.04134953 -0.02645964 -0.037753329
-0.02611593 -0.059798401 0.050936799
-0.02611593 -0.059798401 0.050936799
-0.02611593 -0.059798401 0.050936799
-0.02611593 -0.059798401 0.050936799
0.031482421 -0.026550375 -0.030567795
0.031456761 -0.023514707 -0.03251306
0.033406254 -0.031502433 -0.033694454
0.036294281 -0.026387429 -0.040658362
-0.02611593 -0.059798401 0.050936799
-0.02611593 -0.059798401 0.050936799
-0.02611593 -0.059798401 0.050936799
-0.02611593 -0.059798401 0.050936799
0.027408261 -0.026463661 -0.034491286
0.025453931 -0.024493001 -0.032418337
0.027384697 -0.032462645 -0.034599397
0.031257749 -0.026333306 -0.042563736
-0.02611593 -0.059798401 0.050936799
-0.02611593 -0.059798401 0.050936799
-0.02611593 -0.059798401 0.050936799
-0.02611593 -0.059798401 0.050936799
0.021457672 -0.028496057 -0.031415593
0.022417035 -0.024446055 -0.034361295
0.023347985 -0.032412108 -0.036523551
0.021393649 -0.030441448 -0.034450617
-0.02611593 -0.059798401 0.050936799
-0.02611593 -0.059798401 0.050936799
-0.02611593 -0.059798401 0.050936799
-0.02611593 -0.059798401 0.050936799
0.017420964 -0.028445523 -0.03333975
-0.02611593 -0.059798401 0.050936799
-0.02611593 -0.059798401 0.050936799
0.017356941 -0.030390916 -0.036374774
-0.02611593 -0.059798401 0.050936799
-0.02611593 -0.059798401 0.050936799
-0.02611593 -0.059798401 0.050936799
-0.02611593 -0.059798401 0.050936799
-0.02611593 -0.059798401 0.050936799
-0.02611593 -0.059798401 0.050936799
-0.02611593 -0.059798401 0.050936799
0.013320225 -0.030340381 -0.038298938
-0.02611593 -0.059798401 0.050936799
-0.02611593 -0.059798401 0.050936799
-0.02611593 -0.059798401 0.050936799
-0.02611593 -0.059798401 0.050936799
0.0093475357 -0.028344456 -0.037188072
-0.02611593 -0.059798401 0.050936799
-0.02611593 -0.059798401 0.050936799
0.0073173945 -0.031318679 -0.038204212
-0.02611593 -0.059798401 0.050936799
-0.02611593 -0.059798401 0.050936799
-0.02611593 -0.059798401 0.050936799
-0.02611593 -0.059798401 0.050936799
-0.02611593 -0.059798401 0.050936799
-0.02611593 -0.059798401 0.050936799
-0.02611593 -0.059798401 0.050936799
-0.02611593 -0.059798401 0.050936799
-0.02611593 -0.059798401 0.050936799
-0.02611593 -0.059798401 0.050936799
-0.02611593 -0.059798401 0.050936799
-0.02611593 -0.059798401 0.050936799
-0.02611593 -0.059798401 0.050936799
-0.02611593 -0.059798401 0.050936799
-0.02611593 -0.059798401 0.050936799
-0.02611593 -0.059798401 0.050936799
-0.02611593 -0.059798401 0.050936799
-0.02611593 -0.059798401 0.050936799
-0.02611593 -0.059798401 0.050936799
-0.02611593 -0.059798401 0.050936799
-0.02611593 -0.059798401 0.050936799
-0.02611593 -0.059798401 0.050936799
-0.02611593 -0.059798401 0.050936799
-0.02611593 -0.059798401 0.050936799
-0.02611593 -0.059798401 0.050936799
-0.02611593 -0.059798401 0.050936799
-0.02611593 -0.059798401 0.050936799
-0.02611593 -0.059798401 0.050936799
-0.02611593 -0.059798401 0.050936799
-0.02611593 -0.059798401 0.050936799
-0.02611593 -0.059798401 0.050936799
-0.02611593 -0.059798401 0.050936799
-0.02611593 -0.059798401 0.050936799
-0.02611593 -0.059798401 0.050936799
-0.02611593 -0.059798401 0.050936799
-0.02611593 -0.059798401 0.050936799
-0.02611593 -0.059798401 0.050936799
-0.02611593 -0.059798401 0.050936799
-0.02611593 -0.059798401 0.050936799
-0.02611593 -0.059798401 0.050936799
-0.02611593 -0.059798401 0.050936799
-0.02611593 -0.059798401 0.050936799
-0.02611593 -0.059798401 0.050936799
-0.02611593 -0.059798401 0.050936799
-0.02611593 -0.059798401 0.050936799
-0.02611593 -0.059798401 0.050936799
-0.02611593 -0.059798401 0.050936799
-0.02611593 -0.059798401 0.050936799
-0.02611593 -0.059798401 0.050936799
-0.02611593 -0.059798401 0.050936799
-0.02611593 -0.059798401 0.050936799
-0.02611593 -0.059798401 0.050936799
-0.02611593 -0.059798401 0.050936799
-0.02611593 -0.059798401 0.050936799
-0.02611593 -0.059798401 0.050936799
-0.02611593 -0.059798401 0.050936799
-0.02611593 -0.059798401 0.050936799
-0.02611593 -0.059798401 0.050936799
-0.02611593 -0.059798401 0.050936799
-0.02611593 -0.059798401 0.050936799
-0.02611593 -0.059798401 0.050936799
-0.02611593 -0.059798401 0.050936799
-0.02611593 -0.059798401 0.050936799
-0.02611593 -0.059798401 0.050936799
-0.02611593 -0.059798401 0.050936799
-0.02611593 -0.059798401 0.050936799
-0.02611593 -0.059798401 0.050936799
-0.02611593 -0.059798401 0.050936799
-0.02611593 -0.059798401 0.050936799
-0.02611593 -0.059798401 0.050936799
-0.02611593 -0.059798401 0.050936799
-0.02611593 -0.059798401 0.050936799
-0.02611593 -0.059798401 0.050936799
-0.02611593 -0.059798401 0.050936799
-0.02611593 -0.059798401 0.050936799
-0.02611593 -0.059798401 0.050936799
-0.02611593 -0.059798401 0.050936799
-0.02611593 -0.059798401 0.050936799
-0.02611593 -0.059798401 0.050936799
-0.02611593 -0.059798401 0.050936799
-0.02611593 -0.059798401 0.050936799
-0.02611593 -0.059798401 0.050936799
-0.02611593 -0.059798401 0.050936799
-0.02611593 -0.059798401 0.050936799
-0.02611593 -0.059798401 0.050936799
-0.02611593 -0.059798401 0.050936799
-0.02611593 -0.059798401 0.050936799
-0.02611593 -0.059798401 0.050936799
-0.02611593 -0.059798401 0.050936799
-0.02611593 -0.059798401 0.050936799
-0.02611593 -0.059798401 0.050936799
-0.02611593 -0.059798401 0.050936799
-0.02611593 -0.059798401 0.050936799
-0.02611593 -0.059798401 0.050936799
-0.02611593 -0.059798401 0.050936799
-0.02611593 -0.059798401 0.050936799
-0.02611593 -0.059798401 0.050936799
-0.02611593 -0.059798401 0.050936799
-0.02611593 -0.059798401 0.050936799
-0.02611593 -0.059798401 0.050936799
-0.02611593 -0.059798401 0.050936799
-0.02611593 -0.059798401 0.050936799
-0.02611593 -0.059798401 0.050936799
-0.02611593 -0.059798401 0.050936799
-0.02611593 -0.059798401 0.050936799
-0.02611593 -0.059798401 0.050936799
-0.02611593 -0.059798401 0.050936799
-0.02611593 -0.059798401 0.050936799
-0.02611593 -0.059798401 0.050936799
-0.02611593 -0.059798401 0.050936799
-0.02611593 -0.059798401 0.050936799
-0.02611593 -0.059798401 0.050936799
-0.02611593 -0.059798401 0.050936799
-0.02611593 -0.059798401 0.050936799
-0.02611593 -0.059798401 0.050936799
-0.02611593 -0.059798401 0.050936799
-0.02611593 -0.059798401 0.050936799
-0.02611593 -0.059798401 0.050936799
-0.02611593 -0.059798401 0.050936799
-0.02611593 -0.059798401 0.050936799
-0.02611593 -0.059798401 0.050936799
-0.02611593 -0.059798401 0.050936799
-0.02611593 -0.059798401 0.050936799
-0.02611593 -0.059798401 0.050936799
-0.02611593 -0.059798401 0.050936799
-0.02611593 -0.059798401 0.050936799
-0.02611593 -0.059798401 0.050936799
-0.02611593 -0.059798401 0.050936799
-0.02611593 -0.059798401 0.050936799
-0.02611593 -0.059798401 0.050936799
-0.02611593 -0.059798401 0.050936799
-0.02611593 -0.059798401 0.050936799
-0.02611593 -0.059798401 0.050936799
-0.02611593 -0.059798401 0.050936799
-0.02611593 -0.059798401 0.050936799
-0.02611593 -0.059798401 0.050936799
-0.02611593 -0.059798401 0.050936799
-0.02611593 -0.059798401 0.050936799
-0.02611593 -0.059798401 0.050936799
-0.02611593 -0.059798401 0.050936799
-0.02611593 -0.059798401 0.050936799
-0.02611593 -0.059798401 0.050936799
-0.02611593 -0.059798401 0.050936799
-0.02611593 -0.059798401 0.050936799
-0.02611593 -0.059798401 0.050936799
-0.02611593 -0.059798401 0.050936799
-0.02611593 -0.059798401 0.050936799
-0.02611593 -0.059798401 0.050936799
-0.02611593 -0.059798401 0.050936799
-0.02611593 -0.059798401 0.050936799
-0.02611593 -0.059798401 0.050936799
-0.02611593 -0.059798401 0.050936799
-0.02611593 -0.059798401 0.050936799
-0.02611593 -0.059798401 0.050936799
-0.02611593 -0.059798401 0.050936799
-0.02611593 -0.059798401 0.050936799
-0.02611593 -0.059798401 0.050936799
-0.070581667 -0.028111611 -0.03268585
-0.082606032 -0.03005011 -0.033496059
-0.080635995 -0.028021453 -0.03549692
-0.02611593 -0.059798401 0.050936799
-0.02611593 -0.059798401 0.050936799
-0.02611593 -0.059798401 0.050936799
-0.02611593 -0.059798401 0.050936799
-0.079632252 -0.027025212 -0.035497695
-0.073562391 -0.028118933 -0.031629812
-0.087582476 -0.029050428 -0.032384429
-0.08663097 -0.02700009 -0.035366159
-0.02611593 -0.059798401 0.050936799
-0.02611593 -0.059798401 0.050936799
-0.02611593 -0.059798401 0.050936799
-0.02611593 -0.059798401 0.050936799
-0.08256074 -0.028086632 -0.031460695
-0.079557367 -0.027097568 -0.031499051
-0.091525577 -0.029090341 -0.029310282
-0.090574078 -0.027040001 -0.03229202
-0.02611593 -0.059798401 0.050936799
-0.02611593 -0.059798401 0.050936799
-0.02611593 -0.059798401 0.050936799
-0.02611593 -0.059798401 0.050936799
-0.087537177 -0.027086947 -0.030349057
-0.082519367 -0.02712298 -0.029443357
-0.098539092 -0.028047297 -0.030160382
-0.098620921 -0.024957361 -0.03510464
-0.02611593 -0.059798401 0.050936799
-0.02611593 -0.059798401 0.050936799
-0.02611593 -0.059798401 0.050936799
-0.02611593 -0.059798401 0.050936799
-0.091480277 -0.027126858 -0.027274918
-0.089532882 -0.026079938 -0.030293457
-0.10246347 -0.028105298 -0.02608658
-0.10256403 -0.024997272 -0.032030497
-0.02611593 -0.059798401 0.050936799
-0.02611593 -0.059798401 0.050936799
-0.02611593 -0.059798401 0.050936799
-0.02611593 -0.059798401 0.050936799
-0.098493792 -0.026083816 -0.028125025
-0.097561017 -0.024015386 -0.032106433
-0.1104916 -0.026040748 -0.027899537
-0.11159196 -0.022929138 -0.033824664
-0.02611593 -0.059798401 0.050936799
-0.02611593 -0.059798401 0.050936799
-0.02611593 -0.059798401 0.050936799
-0.02611593 -0.059798401 0.050936799
-0.10548858 -0.025058862 -0.027975474
-0.099470958 -0.025098486 -0.02708856
-0.12454822 -0.02191883 -0.031563047
-0.11856803 -0.021922274 -0.032675453
-0.02611593 -0.059798401 0.050936799
-0.02611593 -0.059798401 0.050936799
-0.02611593 -0.059798401 0.050936799
-0.02611593 -0.059798401 0.050936799
-0.11553114 -0.021969218 -0.030732498
-0.107503 -0.024033764 -0.02891954
-0.13150164 -0.019930225 -0.029396147
-0.12450685 -0.020955175 -0.029545695
-0.02611593 -0.059798401 0.050936799
-0.02611593 -0.059798401 0.050936799
-0.02611593 -0.059798401 0.050936799
-0.02611593 -0.059798401 0.050936799
-0.12047406 -0.022005539 -0.02763956
-0.11549369 -0.022005396 -0.028733179
-0.14352509 -0.016851489 -0.031115934
-0.1355305 -0.01788003 -0.03128428
-0.02611593 -0.059798401 0.050936799
-0.02611593 -0.059798401 0.050936799
-0.02611593 -0.059798401 0.050936799
-0.02611593 -0.059798401 0.050936799
-0.13149771 -0.01893039 -0.029378127
-0.12653607 -0.018912159 -0.031471413
-0.15146354 -0.015877215 -0.027948607
-0.14853504 -0.014815794 -0.031985607
-0.02611593 -0.059798401 0.050936799
-0.02611593 -0.059798401 0.050936799
-0.02611593 -0.059798401 0.050936799
-0.02611593 -0.059798401 0.050936799
-0.14046948 -0.016916523 -0.028173324
-0.13349734 -0.018923216 -0.029340547
-0.16343085 -0.012852745 -0.026669398
-0.16152088 -0.011769651 -0.031687275
-0.02611593 -0.059798401 0.050936799
-0.02611593 -0.059798401 0.050936799
-0.02611593 -0.059798401 0.050936799
-0.02611593 -0.059798401 0.050936799
-0.15144089 -0.014895474 -0.026930925
-0.1414545 -0.017930854 -0.027172886
-0.17639402 -0.0088248625 -0.025353391
-0.17045523 -0.0097919563 -0.02848313
-0.02611593 -0.059798401 0.050936799
-0.02611593 -0.059798401 0.050936799
-0.02611593 -0.059798401 0.050936799
-0.02611593 -0.059798401 0.050936799
-0.1573649 -0.014946296 -0.022819538
-0.14940774 -0.015938658 -0.024987202
-0.19437107 -0.003761109 -0.024925068
-0.18542197 -0.0067567229 -0.027147561
-0.02611593 -0.059798401 0.050936799
-0.02611593 -0.059798401 0.050936799
-0.02611593 -0.059798401 0.050936799
-0.02611593 -0.059798401 0.050936799
-0.17436089 -0.0098680463 -0.023409672
-0.15128024 -0.017057937 -0.017970011
-0.22340925 0.0044139633 -0.028234638
-0.21246049 0.0014111754 -0.030494716
-0.02611593 -0.059798401 0.050936799
-0.02611593 -0.059798401 0.050936799
-0.02611593 -0.059798401 0.050936799
-0.02611593 -0.059798401 0.050936799
-0.1933604 -0.0057824487 -0.023980234
-0.17937867 -0.0098320125 -0.02431538
-0.2493583 0.011487993 -0.026620287
-0.2334183 0.0064676031 -0.029010363
-0.02611593 -0.059798401 0.050936799
-0.02611593 -0.059798401 0.050936799
-0.02611593 -0.059798401 0.050936799
-0.02611593 -0.059798401 0.050936799
-0.22541282 0.0034213108 -0.028215073
-0.20542525 -0.0036673639 -0.027717348
-0.95943946 0.2349138 -0.22635183
-0.2643812 0.014577498 -0.028283708
-0.02611593 -0.059798401 0.050936799
-0.02611593 -0.059798401 0.050936799
-0.96504521 0.23455545 -0.20524621
-0.02611593 -0.059798401 0.050936799
-0.24735169 0.0084632421 -0.025712274
-0.22837876 0.0023960688 -0.026177403
-0.97967494 0.23726508 -0.18591671
-0.9692809 0.23178735 -0.21722105
-0.02611593 -0.059798401 0.050936799
-0.02611593 -0.059798401 0.050936799
-0.99330485 0.23997112 -0.16660604
-0.98289603 0.23347551 -0.19692869
-0.96546286 0.22391911 -0.22543763
-0.2633971 0.010574593 -0.028374575
-1.0009063 0.24061979 -0.14544481
-0.99852949 0.23518889 -0.17759845
-0.97608244 0.2245966 -0.20521969
-0.02611593 -0.059798401 0.050936799
-1.0165131 0.24431473 -0.12507887
-1.0041353 0.23483054 -0.15649283
-0.97867787 0.22220978 -0.1832068
-0.97334695 0.21480462 -0.2174522
-1.0241146 0.24496345 -0.10391765
-1.0187463 0.23752208 -0.13616368
-0.99029732 0.2228909 -0.1629701
-0.98796582 0.21549648 -0.19715908
-1.0266834 0.24455816 -0.080869071
-1.0203192 0.2361134 -0.11315192
-1.0089263 0.22561488 -0.14356545
-0.98754698 0.21208097 -0.17422092
-1.040272 0.24822782 -0.059541062
-1.0359114 0.23879044 -0.091804333
-1.0115216 0.22322801 -0.12155256
-0.99915165 0.21174417 -0.15300256
-1.0528646 0.25089413 -0.038249828
-1.0364844 0.23737818 -0.068811357
-1.0221038 0.22386937 -0.099335313
-1.0087606 0.21040036 -0.1318398
-1.0624205 0.25351346 -0.015015662
-1.0360616 0.23496245 -0.045855194
-1.0367 0.22554301 -0.078024529
-1.0193427 0.2110417 -0.10962253
-1.0929862 0.2622433 0.0067218915
-1.056645 0.23965707 -0.024377614
-1.0372732 0.2241307 -0.055031545
-1.0249188 0.20864752 -0.086553618
-1.0985506 0.26284859 0.029844858
-1.07521 0.24432647 -0.0019379631
-1.0548649 0.22681493 -0.033646382
-1.0305058 0.2082711 -0.064448342
-1.1090834 0.2664533 0.054115493
-1.0957747 0.24900299 0.02053928
-1.0714194 0.22945938 -0.010280691
-1.0550923 0.21198027 -0.042913608
-1.132621 0.27312219 0.077684805
-1.1192974 0.25465402 0.045090228
-1.0969832 0.23415388 0.0122905
-1.0806788 0.21569304 -0.021360107
-1.1531255 0.27874431 0.10317904
-1.1458155 0.26131558 0.069715574
-1.1075239 0.2357589 0.036525104
-1.0902276 0.21529478 0.0028196722
-1.16264 0.28232729 0.12843055
-1.1533381 0.26289177 0.094893456
-1.1310318 0.24039194 0.062057693
-1.1077445 0.21790665 0.028203476
-1.2020425 0.29394424 0.15838856
-1.166837 0.26547116 0.12120177
-1.1365813 0.23997934 0.086162306
-1.1262797 0.22054018 0.052606419
-0.02611593 -0.059798401 0.050936799
-1.1783363 0.2680434 0.1474725
-1.1630622 0.24660473 0.11278696
-1.1457963 0.22315925 0.078027815
-1.2399359 0.30606896 0.21533667
-1.196785 0.27360407 0.17592815
-1.1755463 0.24816266 0.14005813
-0.02611593 -0.059798401 0.050936799
-1.2453988 0.30858353 0.24349397
-0.02611593 -0.059798401 0.050936799
-1.194999 0.25272709 0.16851455
-1.1877499 0.22933558 0.13294363
-1.2807084 0.32009563 0.27837512
-1.2296761 0.28169349 0.23370986
-0.02611593 -0.059798401 0.050936799
-0.02611593 -0.059798401 0.050936799
-1.2881297 0.32358101 0.30858734
-1.2460692 0.2871927 0.26512691
-1.2268795 0.25879517 0.22724111
-1.2166389 0.23339324 0.19157779
-0.02611593 -0.059798401 0.050936799
-1.2843635 0.29769769 0.30104607
-0.02611593 -0.059798401 0.050936799
-0.02611593 -0.059798401 0.050936799
-0.02611593 -0.059798401 0.050936799
-1.2947654 0.30117574 0.33231434
-1.2706071 0.26977885 0.29328087
-0.02611593 -0.059798401 0.050936799
-1.3282163 0.33995593 0.40766767
-1.3280046 0.31160849 0.37113854
-1.2919428 0.27524173 0.32779086
-0.02611593 -0.059798401 0.050936799
-2.3221576 0.64903271 0.73397839
-1.3125136 0.30806676 0.39779347
-1.3072877 0.27868345 0.36215204
-1.2493473 0.2363292 0.31328455
-2.3230891 0.65302593 0.7900871
-1.3536685 0.32045552 0.44080269
-1.3047264 0.2781336 0.39210427
-0.02611593 -0.059798401 0.050936799
-2.3091366 0.65205681 0.84082556
-2.5031798 0.65182561 0.84045422
-0.02611593 -0.059798401 0.050936799
-0.02611593 -0.059798401 0.050936799
-2.2961614 0.65207297 0.89260048
-2.4930918 0.65174395 0.89828348
-2.7468119 0.6594553 0.91417873
-1.3450338 0.25654265 0.43348241
-2.2692981 0.64812994 0.93904197
-2.4720771 0.64767778 0.95283496
-2.7504845 0.66220635 0.984321
-3.0540802 0.66597128 1.0080813
-2.2513647 0.64716446 0.98870552
-2.4689014 0.6505484 1.0148485
-2.7213709 0.65500349 1.0446661
-3.0525973 0.66554207 1.0870725
-2.2284782 0.64421755 1.0362399
-2.4528368 0.64946347 1.0715473
-2.6902916 0.64882934 1.1029923
-3.0501328 0.6651274 1.1650454
-2.2095599 0.64426643 1.084903
-2.4317999 0.64637905 1.1271164
-2.6869695 0.65055549 1.172985
-3.0446169 0.66364777 1.2459427
-2.1856918 0.64133412 1.1314188
-2.4167125 0.64627945 1.1848518
-2.6667826 0.64732993 1.2365702
-3.0063744 0.656286 1.3131162
-2.1697321 0.64235729 1.1821557
-2.3966489 0.64518023 1.2414755
-2.6475689 0.64608955 1.30121
-2.9810278 0.65087998 1.3855686
-2.1448376 0.6414029 1.2296886
-2.3567994 0.6381911 1.2876184
-2.6332796 0.64479476 1.3699423
-2.9487236 0.64448535 1.4558718
-2.123924 0.64044476 1.278296
-2.343648 0.64004403 1.3484266
-2.6081083 0.64256912 1.432452
-2.9292896 0.64202803 1.5324895
-2.0901554 0.63656718 1.3196077
-2.3206036 0.63895208 1.4039942
-2.586895 0.6413216 1.4970541
-2.9207249 0.64350098 1.6153839
-2.0712149 0.63759774 1.3692886
-2.2926204 0.63689673 1.4564508
-2.5547516 0.63708937 1.5583966
-2.9032302 0.6419965 1.6950562
-2.0384233 0.63470542 1.4116367
-2.2587018 0.63287425 1.5057597
-2.534497 0.63680893 1.6250349
-2.8678813 0.63755441 1.7673384
-2.0115895 0.63279819 1.4561149
-2.2336576 0.63177508 1.5612898
-2.5053265 0.63456911 1.6874695
-2.851326 0.63699907 1.8500465
-1.9807752 0.63089484 1.4995183
-2.2086282 0.63169402 1.6158382
-2.4800761 0.63327092 1.7539958
-2.8110383 0.63159347 1.9192178
-1.9529377 0.6299839 1.5439956
-2.1727064 0.6286642 1.6651274
-2.4400089 0.62908238 1.8111892
-2.6740794 0.60301614 1.9211373
-1.9201423 0.62809139 1.5863616
-2.1377845 0.62563813 1.7144356
-2.4117932 0.62880951 1.8756777
-2.7550488 0.62950885 2.0781858
-1.8942444 0.62813324 1.6338937
-2.1028812 0.62263012 1.7627441
-2.3756802 0.62659878 1.9349818
-2.7196729 0.62704843 2.1515036
-1.8585284 0.62530249 1.6721867
-2.0709093 0.62257797 1.814162
-2.3365717 0.62337732 1.9942113
-2.6822567 0.62554443 2.2268014
-1.8434215 0.63020205 1.7300122
-1.9298708 0.58483458 1.7688231
-2.3004398 0.62114847 2.0545149
-2.6339853 0.6211282 2.2948408
-1.8106223 0.62930942 1.7723962
-1.8508396 0.56744546 1.7730304
-1.8743755 0.50181049 1.7572786
-1.9077559 0.43706661 1.7497299
-1.7572328 0.62070447 1.7942485
-1.8071518 0.56260437 1.8101375
-1.8267111 0.49597335 1.7932928
-1.8462968 0.42736083 1.7754122
-1.7146195 0.61593938 1.8273757
-1.9232254 0.61446214 2.0103166
-1.9124377 0.53128356 1.9615935
-1.8584273 0.43865424 1.8728766
-1.6857144 0.61797011 1.8748872
-1.8862921 0.61442834 2.0596411
-2.1036923 0.60274994 2.2555668
-2.0370576 0.49638385 2.149359
-1.6372784 0.61134666 1.8988687
-1.8483814 0.61340916 2.1079295
-2.093909 0.61203706 2.348583
-2.2858019 0.57664925 2.5225947
-1.6015173 0.61047947 1.9391972
-1.8065128 0.61141199 2.154125
-2.0360928 0.60701913 2.3924246
-2.3451071 0.60543299 2.7142906
-1.5667518 0.61061561 1.9795624
-1.7597427 0.60848755 2.1952102
-1.9861361 0.603903 2.4434502
-2.2849689 0.60110021 2.7751069
-1.5280327 0.60877395 2.017817
-1.7217681 0.6094138 2.2465334
-1.9400357 0.60367405 2.5016029
-2.2209065 0.59682554 2.8318496
-1.4863927 0.60599393 2.0519989
-1.6759565 0.60745651 2.289655
-1.8870795 0.60054719 2.552572
-2.1607268 0.59345633 2.8946831
-1.4525445 0.60806102 2.0964174
-1.626247 0.60357577 2.327667
-1.8370587 0.5993765 2.6066325
-2.105422 0.59299618 2.9636626
-1.4099422 0.60531366 2.1285813
-1.5813937 0.60258567 2.3728247
-1.7802155 0.59634364 2.6515288
-2.0393934 0.58975023 3.0183861
-1.3702339 0.60548621 2.1658535
-1.5336201 0.6006574 2.4139092
-1.7204332 0.59235466 2.6933515
-1.9762105 0.58737022 3.0811815
-1.3256694 0.60276783 2.1959801
-1.4848611 0.59974349 2.4539933
-1.6683714 0.59214032 2.7493918
-1.9111214 0.58507347 3.138941
-1.2810862 0.60003138 2.2271066
-1.434144 0.59785873 2.4920228
-1.6037436 0.58727819 2.7831054
-1.837229 0.58092558 3.1864986
-1.2393783 0.60019666 2.2643411
-1.3863102 0.59687608 2.5361242
-1.5429159 0.58524901 2.8269444
-1.7710575 0.58055252 3.2482736
-1.1947538 0.5984239 2.2974849
-1.3287708 0.5931294 2.5649889
-1.4869524 0.58411098 2.8778934
-1.7019653 0.57924128 3.3059762
-1.1491628 0.59768361 2.3286283
-1.2770312 0.59222281 2.604017
-1.4270606 0.58403081 2.9247866
-1.6251484 0.57515502 3.3494787
-1.1035758 0.59594339 2.3597541
-1.2243518 0.59036702 2.6400092
-1.3662103 0.58298337 2.9696436
-1.5502112 0.57296699 3.3990529
-1.0570078 0.59421766 2.3898611
-1.1639479 0.58573633 2.6618021
-1.3053226 0.5818997 3.0164995
-1.4743302 0.57082975 3.4456093
-1.0094734 0.5935244 2.417968
-1.1149675 0.58862275 2.7129545
-1.0316228 0.47038808 2.5401969
-1.008297 0.3906593 2.5193107
-0.96570581 0.5946281 2.4581823
-0.96131831 0.52599221 2.4918699
-0.93802619 0.44729942 2.4690027
-0.91462868 0.3715156 2.4511878
-0.90573341 0.58539629 2.4578924
-0.87658912 0.50280917 2.4278424
-0.85602951 0.42989096 2.4181354
-0.82975966 0.35522285 2.3932846
-0.82885301 0.56209719 2.4020123
-0.80054301 0.4833684 2.3800509
-0.77519023 0.41063118 2.3592536
-0.74792743 0.33897704 2.3334382
-0.75778729 0.54265618 2.3553145
-0.72658622 0.46502498 2.3273165
-0.69650036 0.39152324 2.2924118
-0.67013204 0.32278174 2.2716677
-0.69066453 0.52317524 2.3116906
-0.65380955 0.44384852 2.2655501
-0.62743729 0.3761068 2.2448239
-0.59909892 0.309394 2.222079
-0.62184972 0.50197691 2.2519984
-0.58965194 0.42835954 2.2230542
-0.56036985 0.36169744 2.1972914
-0.5329634 0.29793343 2.1776183
-0.55786151 0.48163366 2.2014155
-0.52655029 0.41292852 2.1775782
-0.49632066 0.34731686 2.1488159
-0.46886495 0.28651619 2.131196
-0.50058627 0.46706116 2.1650672
-0.46736902 0.39843926 2.136194
-0.43895492 0.33667138 2.116538
-0.40866819 0.2760227 2.089865
-0.44351017 0.44967011 2.1186681
-0.41202554 0.38681921 2.1029365
-0.38174284 0.32517067 2.0762451
-0.35233185 0.2674166 2.0556428
-0.3929933 0.43890494 2.0945194
-0.35687712 0.37338036 2.0596461
-0.32931209 0.31648853 2.0470967
-0.29884118 0.2596764 2.0294926
-0.34077334 0.42440468 2.0552661
-0.30655146 0.36179629 2.0254829
-0.27876475 0.30870479 2.0240016
-0.25241113 0.26109493 2.0516565
-0.29151151 0.41087884 2.0180867
-0.26328242 0.36037081 2.0396516
-0.23771088 0.31556499 2.0783756
-0.20922267 0.26882115 2.1130085
-0.25282484 0.41509041 2.0534503
-0.22322053 0.36923423 2.0940804
-0.19451849 0.32429105 2.1397455
-0.16470432 0.27923572 2.19139
-0.21456751 0.42577982 2.1179492
-0.18102401 0.37896371 2.1554873
-0.14924765 0.33393741 2.2050946
-0.17966825 0.5385083 3.846921
-0.17262222 0.43374476 2.1663246
-0.13669288 0.38955918 2.2238719
-0.13892214 0.54930919 3.4052038
-0.087910697 0.53337795 3.834106
-0.1301479 0.44722027 2.2417986
-0.11216189 0.56023169 3.0707872
-0.060831942 0.54692107 3.4097002
0.0046272203 0.53552264 3.8614216
-0.096332289 0.57016611 2.7935767
-0.042953789 0.55876708 3.0814683
0.017276999 0.54451489 3.4151962
0.095291361 0.53048635 3.8436267
-0.037126269 0.56773764 2.8044279
0.024235975 0.55732787 3.0911877
0.095352419 0.54314464 3.4187109
0.18644714 0.53099686 3.8509321
0.023199767 0.56719673 2.8212943
0.092384182 0.55492133 3.098871
0.17448381 0.54171652 3.4252055
0.27725416 0.52883333 3.840189
0.083488345 0.56669194 2.8361614
0.16255859 0.55448925 3.1075523
0.25363785 0.54127026 3.432718
0.36904222 0.5266844 3.8284278
0.14462304 0.56532842 2.8429945
0.23275174 0.554039 3.1172333
0.3334991 0.5380922 3.4251628
0.46216017 0.52722383 3.8336959
0.20673096 0.56197983 2.848773
0.30386588 0.55265778 3.1228788
0.41469809 0.53960216 3.4346731
-0.02611593 -0.059798401 0.050936799
0.2699441 0.56153667 2.859585
0.37490118 0.55034906 3.1245074
-0.02611593 -0.059798401 0.050936799
-0.02611593 -0.059798401 0.050936799
0.33305967 0.56018412 2.865381
-0.02611593 -0.059798401 0.050936799
0.57452989 0.53715491 3.4246328
-0.02611593 -0.059798401 0.050936799
-0.02611593 -0.059798401 0.050936799
0.5169462 0.54876727 3.1258199
0.65433896 0.53503096 3.4140968
0.28640568 0.15437043 1.4184232
0.46135068 0.55841738 2.879952
0.58890641 0.54652721 3.1234312
0.28351617 0.18237646 1.4189841
-0.02611593 -0.059798401 0.050936799
0.52750707 0.55801773 2.8877087
0.28178024 0.21123396 1.4275414
0.81614077 0.5346123 3.4020557
-0.02611593 -0.059798401 0.050936799
0.27389169 0.23925793 1.4281963
0.73593575 0.54594541 3.123668
0.89689732 0.53353888 3.3885195
1.0939651 0.52193916 3.7117298
0.65641159 0.55360967 2.8822136
0.80561155 0.54298407 3.1063042
0.97767657 0.53344715 3.3760016
1.1761103 0.5184378 3.6661129
0.72455287 0.55422074 2.8889511
0.88165772 0.54365689 3.1078928
1.0562423 0.53156185 3.3524883
1.2625475 0.51765037 3.6354699
0.79361123 0.55290091 2.8916354
0.95450938 0.54252172 3.0995054
1.1359657 0.531528 3.3369899
-0.02611593 -0.059798401 0.050936799
0.85952032 0.55173659 2.8863783
1.0262074 0.54053497 3.0831218
-0.02611593 -0.059798401 0.050936799
0.46808773 0.1358033 1.2436265
0.9285264 0.55147088 2.8860817
1.1031827 0.54227638 3.0807111
0.38665435 0.12435989 1.0638832
-0.02611593 -0.059798401 0.050936799
0.99637502 0.54935378 2.8777702
-0.02611593 -0.059798401 0.050936799
0.51312673 0.1677534 1.2923777
1.6010284 0.51779634 3.4980888
-0.02611593 -0.059798401 0.050936799
0.50326723 0.18873145 1.2959429
1.4512295 0.52900082 3.2420094
1.6811674 0.5173198 3.4515641
0.39073095 0.15839402 1.0614218
1.328482 0.54109859 3.0414584
1.5286909 0.52922732 3.212553
1.760325 0.51682878 3.4060578
0.52136511 0.20964517 1.2969828
1.3958546 0.5374341 3.0081191
1.6009169 0.52668941 3.1711409
1.8477963 0.52001894 3.3764675
1.2769039 0.54674357 2.8504615
1.4736573 0.53833485 2.996675
1.6846137 0.52967691 3.1536219
1.9383649 0.52410775 3.3518376
1.3497407 0.54662633 2.8410923
1.5482876 0.53840941 2.9762726
1.7578809 0.52809906 3.1142085
2.0267799 0.52734852 3.3192298
1.4204804 0.54560685 2.8267446
1.6177053 0.53670114 2.944931
1.8270364 0.52664405 3.0688717
2.1038485 0.527955 3.2687807
1.4890815 0.54272151 2.8054008
1.6912237 0.53688776 2.9185491
1.9054456 0.52792108 3.0364158
2.1747262 0.52776408 3.2084298
1.5629034 0.54361856 2.7950315
1.7668166 0.53699487 2.8961282
1.9787165 0.52734309 2.9970202
2.2394857 0.52570349 3.1421576
1.6366091 0.54362428 2.778646
1.8402976 0.53721768 2.8677466
2.0529954 0.52876109 2.9576418
2.3196588 0.52920812 3.0967047
1.7113146 0.54362649 2.7622418
1.9085804 0.53463989 2.8294086
2.1488366 0.53557819 2.9469671
2.3813436 0.52723074 3.0264902
1.7798033 0.54084963 2.7349
1.9840837 0.53583729 2.8020072
2.2343273 0.53875744 2.9184144
2.4410515 0.5262422 2.9573307
1.8564749 0.54188073 2.7164769
2.0523331 0.53429556 2.761688
2.3085124 0.54026598 2.874038
2.5078969 0.52710158 2.8950739
1.929027 0.54103494 2.6920948
2.1257017 0.5346269 2.7273088
2.3632507 0.53725952 2.8069358
2.5696685 0.52805126 2.828912
2.0015042 0.54026145 2.6637144
2.2123871 0.53962129 2.7087698
2.4292233 0.53699601 2.751677
2.6212468 0.5272181 2.7529054
2.0770409 0.5404228 2.6382945
2.2908151 0.54088032 2.6773136
2.4982746 0.53764927 2.7003787
2.6820185 0.52817136 2.6867623
2.1484396 0.53872555 2.6059163
2.3691719 0.5432114 2.6418767
2.56427 0.53836751 2.6461377
2.7366562 0.52827293 2.6137166
2.2198236 0.53804618 2.5725558
2.4495842 0.54548115 2.609401
2.612916 0.53547311 2.5741503
2.7913539 0.52932012 2.5436876
2.3166752 0.54284197 2.5628259
2.5125914 0.54419237 2.55618
2.6686993 0.53442651 2.5090649
2.8460519 0.53036726 2.4736588
2.4022593 0.54593074 2.5392716
2.5725195 0.54198694 2.4989989
2.7336617 0.53618443 2.4528613
2.8773825 0.52784133 2.3849967
2.4888248 0.54903394 2.5146987
2.6457052 0.54349911 2.4546409
2.7731926 0.53243095 2.3750267
2.9188876 0.52711642 2.3051791
2.5508614 0.54571307 2.4634597
2.7046003 0.54233319 2.3954971
2.8198466 0.53154343 2.3031127
2.975668 0.53008366 2.2391474
2.6454291 0.54978746 2.4387546
2.750299 0.53839546 2.3265469
2.8736157 0.53152198 2.2370834
3.0172184 0.53132224 2.1613653
2.6952126 0.54374522 2.3746912
2.8040977 0.53633821 2.2624807
2.9375632 0.53430134 2.1799171
3.0699434 0.53435814 2.0924101
2.7510822 0.54060864 2.314568
2.8721342 0.53801292 2.2102194
2.9923398 0.53627598 2.1139047
3.1317494 0.53928906 2.0273199
2.806947 0.53647214 2.254427
2.9340513 0.53781807 2.1520369
3.0501537 0.53820366 2.0498357
3.1449857 0.53591835 1.9339794
2.8780129 0.53610027 2.2040727
3.0020316 0.53954709 2.096777
3.0947895 0.53734136 1.9769597
3.1814997 0.53721106 1.8542922
2.9612377 0.53854012 2.1615443
3.0760562 0.54321808 2.0434394
3.1303329 0.53660172 1.8992544
3.2301958 0.54229712 1.7834485
3.0322466 0.53822249 2.108191
3.1207068 0.54133773 1.9715449
3.1891353 0.54054356 1.8342028
3.2626879 0.54262239 1.7028186
3.1204374 0.54168046 2.0635872
3.1804972 0.5422765 1.9064204
3.2297385 0.54073161 1.7594206
3.2921696 0.54497617 1.6212816
3.1822758 0.5405581 2.0013881
3.2342288 0.54229134 1.8383914
3.2794039 0.54283267 1.6875044
3.3206661 0.54631567 1.540745
3.2450769 0.53946841 1.9371707
3.2919822 0.54327345 1.7713052
3.3310914 0.54590839 1.6165682
3.3531659 0.54864061 1.4601512
3.3230364 0.5411796 1.880723
3.3476987 0.54429895 1.702257
3.3595841 0.54624808 1.5360135
3.3635271 0.54817158 1.3729192
3.3999217 0.54296666 1.8202953
3.4094408 0.54728442 1.6341321
3.4011533 0.54746854 1.4592313
3.4172487 0.55522138 1.3030173
3.4737508 0.54481882 1.756925
3.4570611 0.54742926 1.560218
3.4427264 0.54968882 1.382467
3.4205699 0.55381382 1.2138994
3.5445206 0.54573625 1.6905942
3.5137062 0.54952329 1.4871707
3.4913661 0.55482918 1.3086244
3.4410343 0.55621797 1.1315317
3.6081793 0.54678726 1.6183969
3.5633156 0.55167872 1.4122554
3.5138001 0.5542447 1.2251655
3.4655397 0.5595715 1.0511065
3.6798742 0.54777342 1.5480485
3.6118648 0.55289209 1.334342
3.5503218 0.55753708 1.1455144
3.475965 0.56104791 0.96690947
3.7394552 0.54791141 1.4719096
3.6684577 0.55604035 1.2583137
3.5778 0.55889827 1.0639968
3.4833903 0.56253511 0.88276875
3.7919207 0.54718322 1.3898865
3.7149549 0.55831498 1.1774567
3.5951786 0.55838597 0.97763288
3.5078998 0.56688833 0.80236137
3.8574672 0.54833555 1.3116536
3.7453499 0.55773813 1.0918484
3.6226459 0.5617649 0.89515185
3.5223653 0.56931406 0.72010648
3.9089179 0.54862881 1.2286675
3.7908289 0.56003445 1.0100106
3.6601713 0.56605339 0.81549984
3.5308361 0.57276118 0.63798249
3.9753931 0.55084985 1.1464353
3.8302522 0.5624066 0.92528671
3.6745355 0.56656992 0.72821063
3.539284 0.57522649 0.55484074
4.0348091 0.55215043 1.0613174
3.8686349 0.56381869 0.83856422
3.7130275 0.57189089 0.64655846
3.5427294 0.57670999 0.47177491
4.0851483 0.55255574 0.97235209
3.9090209 0.56622344 0.75182217
3.7223928 0.57242537 0.55936325
3.5401566 0.578233 0.38782215
4.1565361 0.55684888 0.88506365
3.9453704 0.56867868 0.66315597
3.7327614 0.57395601 0.47216725
