# .PCD v0.7 - Point Cloud Data file format
VERSION 0.7
FIELDS x y z
SIZE 4 4 4
TYPE F F F
COUNT 1 1 1
WIDTH 1369
HEIGHT 1
VIEWPOINT 0 0 0 1 0 0 0
POINTS 1369
DATA ascii
0.7202996 0.61677468 0.36230597
0.74472946 0.61622775 0.33182836
0.66505873 0.61625201 0.40334466
0.70158088 0.6205889 0.37673029
0.73002875 0.62000954 0.34717721
0.7514177 0.61850977 0.3147386
0.6767984 0.61746204 0.38914195
0.70622724 0.61689723 0.35857037
0.73570931 0.62029552 0.3300702
0.75709838 0.61879569 0.29763162
0.68854189 0.61967188 0.37495723
0.71394503 0.61713988 0.34342515
0.74038625 0.61958522 0.31296402
0.75573099 0.61614358 0.27860281
0.6942029 0.6149587 0.35776016
0.72062153 0.61642241 0.32628137
0.74303693 0.61690062 0.29485968
0.76344568 0.62040353 0.26252997
0.70592767 0.61718667 0.34257582
0.72730196 0.61670482 0.30915555
0.75175136 0.62115711 0.27876806
0.76410061 0.61872596 0.24448124
0.71464527 0.61742568 0.3274118
0.7360273 0.61894345 0.2940276
0.75641346 0.62146467 0.2606802
0.76575935 0.61804456 0.22643176
0.72232157 0.6167047 0.31024921
0.74068153 0.61725152 0.2759037
0.76009047 0.62075806 0.24359278
0.56400013 0.44385958 0.16803861
0.72696793 0.61301297 0.29208928
0.74939209 0.62050807 0.25979406
0.75569326 0.61513513 0.22356662
0.55368179 0.43416843 0.15305141
0.74173057 0.62021118 0.27793831
0.75405025 0.61981595 0.24168819
0.5670231 0.44984776 0.16809034
0.54639733 0.42844787 0.13907957
0.745381 0.61752301 0.25981516
0.75369358 0.61514235 0.2236042
0.5446263 0.42923778 0.15113111
0.52603078 0.41081208 0.12313648
0.75709498 0.62176865 0.24366717
0.56502348 0.44985494 0.16812792
0.544375 0.42747328 0.13809948
0.55394751 0.43387049 0.11402781
0.75165957 0.61116832 0.22257005
0.55367482 0.43718603 0.15210581
0.54312402 0.42571235 0.12508664
0.58789057 0.46390617 0.10493255
0.54687721 0.43099514 0.16412516
0.55440474 0.43543604 0.13805571
0.563981 0.44283304 0.11400207
0.61375147 0.48702604 0.092862472
0.55968159 0.43916416 0.1520291
0.55515331 0.43366793 0.12500529
0.58183068 0.45796496 0.10293785
0.63557869 0.50617898 0.079795837
-0.02611593 -0.059798401 0.050936799
0.56896532 0.44383311 0.11292648
0.61873579 0.48802599 0.091786884
0.64735758 0.51738727 0.065773308
0.57320797 0.44358358 0.12584691
0.58578855 0.45698687 0.10084535
0.63452178 0.50121963 0.077725217
0.63105118 0.50569999 0.051862478
0.5528335 0.42394814 0.10986777
0.62068617 0.48505551 0.089695923
0.62120014 0.49053943 0.062776372
0.62278581 0.49996489 0.038909093
0.58772719 0.45101696 0.09870033
0.62441248 0.48731217 0.074661881
0.61893445 0.48980004 0.048800681
0.63354611 0.51119488 0.023905687
0.61957216 0.47513312 0.085535884
0.64521325 0.50448704 0.060578339
0.61869109 0.49003521 0.035805088
0.63931042 0.51842535 0.0099238157
0.61727601 0.4714123 0.070506476
0.61784315 0.48085946 0.045658324
0.6224252 0.49429154 0.020807086
0.63002634 0.51271194 -0.0040104315
0.61799109 0.47068024 0.055474747
0.61958456 0.48210537 0.031643502
0.63819641 0.50850302 0.0057637766
0.60774291 0.49701077 -0.015881263
0.61672121 0.46893746 0.04146225
0.62532222 0.48735434 0.016625937
0.63691968 0.50977778 -0.0091943257
0.60748863 0.49926358 -0.029840492
0.61844003 0.46920159 0.026429752
0.66009665 0.51754916 -0.0014850758
0.61563206 0.49307314 -0.021101978
0.61426049 0.5084902 -0.043805119
0.64720684 0.49240112 0.0093050115
0.6347754 0.49687767 -0.014389291
0.61136675 0.49234086 -0.035040088
0.59099203 0.49177462 -0.054675519
0.64690334 0.49169067 -0.0067075826
0.61446881 0.48018754 -0.027315389
0.59409416 0.4796212 -0.046950821
0.58375686 0.48901737 -0.06659396
0.63159287 0.479 -0.020655215
0.60819608 0.47746274 -0.041251965
0.59283614 0.48087791 -0.060909264
0.590514 0.49926186 -0.081540242
0.61428285 0.46631646 -0.03456527
0.59292704 0.46573573 -0.053182252
0.58559704 0.47712076 -0.072845742
0.6931687 0.59756291 -0.11969697
0.59098774 0.44761935 -0.04647138
0.58665025 0.46201119 -0.067136832
0.5843429 0.47937721 -0.086786181
0.72083592 0.62889123 -0.1436564
0.58370334 0.4418987 -0.060443211
0.57140779 0.45226568 -0.078031451
0.7019217 0.58773124 -0.13104255
0.71555591 0.62918055 -0.15855736
0.56745309 0.43015715 -0.071355052
0.58813047 0.46852756 -0.096056476
0.74056619 0.62807286 -0.15804549
0.7102651 0.63148755 -0.17442195
0.58616072 0.44742984 -0.090399325
0.76854235 0.62799048 -0.15957129
0.73524886 0.6283983 -0.17494577
0.20029755 0.15468912 -0.023447622
0.77356738 0.6058678 -0.15406367
0.76719856 0.63133723 -0.17849198
0.72993153 0.6287238 -0.19184606
0.19621556 0.15277617 -0.02740714
0.79614013 0.62727004 -0.18110833
0.76185858 0.63068104 -0.19640997
0.2081877 0.15576877 -0.029577889
-0.02611593 -0.059798401 0.050936799
0.79375124 0.62865692 -0.2020456
0.2111823 0.14974093 -0.028742716
0.19313937 0.14282481 -0.029530272
0.1751191 0.13689043 -0.029300153
0.20717333 0.13772115 -0.026884444
0.19411564 0.13682224 -0.029657174
-0.02611593 -0.059798401 0.050936799
-0.02611593 -0.059798401 0.050936799
0.19709152 0.1308125 -0.029821657
-0.02611593 -0.059798401 0.050936799
0.1620695 0.11892206 -0.02838055
0.15204871 0.1179762 -0.029210322
-0.02611593 -0.059798401 0.050936799
0.16902292 0.11693345 -0.030547436
-0.02611593 -0.059798401 0.050936799
-0.02611593 -0.059798401 0.050936799
0.16402894 0.10389934 -0.027688749
-0.02611593 -0.059798401 0.050936799
0.14498413 0.10602146 -0.030294668
0.13500075 0.10503943 -0.029125124
-0.02611593 -0.059798401 0.050936799
0.14198284 0.095997743 -0.028419163
-0.02611593 -0.059798401 0.050936799
-0.02611593 -0.059798401 0.050936799
0.14096639 0.086984776 -0.027562879
-0.02611593 -0.059798401 0.050936799
0.12793617 0.093084671 -0.030209467
0.11795278 0.092102647 -0.029039923
-0.02611593 -0.059798401 0.050936799
0.12790868 0.086085863 -0.030335598
-0.02611593 -0.059798401 0.050936799
-0.02611593 -0.059798401 0.050936799
0.12488865 0.076080248 -0.029459752
-0.02611593 -0.059798401 0.050936799
0.11486575 0.084169045 -0.03212668
0.10491982 0.083150834 -0.02895781
-0.02611593 -0.059798401 0.050936799
0.11385325 0.076155908 -0.031252384
-0.02611593 -0.059798401 0.050936799
-0.02611593 -0.059798401 0.050936799
0.10685962 0.063128971 -0.028356101
-0.02611593 -0.059798401 0.050936799
0.099862732 0.073188581 -0.030043703
0.089912876 0.071170524 -0.026892859
-0.02611593 -0.059798401 0.050936799
0.098812781 0.065211609 -0.031168729
-0.02611593 -0.059798401 0.050936799
-0.02611593 -0.059798401 0.050936799
0.092822909 0.053180926 -0.028273221
-0.02611593 -0.059798401 0.050936799
0.084851868 0.060208444 -0.027996767
0.080872245 0.065221943 -0.027831513
-0.02611593 -0.059798401 0.050936799
0.084813513 0.055227377 -0.029086519
-0.02611593 -0.059798401 0.050936799
-0.02611593 -0.059798401 0.050936799
0.079827391 0.044192925 -0.026191786
-0.02611593 -0.059798401 0.050936799
0.07483013 0.054245349 -0.027916975
0.072854064 0.060251512 -0.027771283
-0.02611593 -0.059798401 0.050936799
0.076757893 0.050293114 -0.031025615
-0.02611593 -0.059798401 0.050936799
-0.02611593 -0.059798401 0.050936799
0.068797983 0.036233764 -0.026129238
-0.02611593 -0.059798401 0.050936799
0.065808222 0.048278674 -0.027855966
0.062861927 0.052252583 -0.025728196
-0.02611593 -0.059798401 0.050936799
0.063795879 0.040269114 -0.026962876
-0.02611593 -0.059798401 0.050936799
-0.02611593 -0.059798401 0.050936799
0.062749855 0.033291988 -0.028069872
-0.02611593 -0.059798401 0.050936799
0.058775067 0.044322558 -0.02879617
0.05483982 0.046282303 -0.025685985
-0.02611593 -0.059798401 0.050936799
0.055758987 0.035316769 -0.027902305
-0.02611593 -0.059798401 0.050936799
-0.02611593 -0.059798401 0.050936799
0.054716881 0.029339464 -0.028991286
-0.02611593 -0.059798401 0.050936799
0.05077561 0.039334029 -0.02773628
0.048810408 0.04332244 -0.026626963
-0.02611593 -0.059798401 0.050936799
0.048763275 0.031324487 -0.026843186
-0.02611593 -0.059798401 0.050936799
-0.02611593 -0.059798401 0.050936799
0.045732409 0.02333661 -0.026930958
-0.02611593 -0.059798401 0.050936799
0.041802 0.031313434 -0.024712324
0.042814523 0.039326563 -0.025586627
-0.02611593 -0.059798401 0.050936799
0.040745109 0.026354047 -0.026782952
-0.02611593 -0.059798401 0.050936799
-0.02611593 -0.059798401 0.050936799
0.037751678 0.018329997 -0.024871401
-0.02611593 -0.059798401 0.050936799
0.037746571 0.031382054 -0.027636148
0.034829866 0.033320121 -0.023545094
-0.02611593 -0.059798401 0.050936799
0.03473442 0.023376087 -0.026724264
-0.02611593 -0.059798401 0.050936799
-0.02611593 -0.059798401 0.050936799
0.028785929 0.012309046 -0.021811415
-0.02611593 -0.059798401 0.050936799
0.030780451 0.025353927 -0.024613742
0.027848952 0.028309911 -0.021504328
-0.02611593 -0.059798401 0.050936799
0.029723551 0.020394547 -0.02668437
-0.02611593 -0.059798401 0.050936799
-0.02611593 -0.059798401 0.050936799
0.02573031 0.01237408 -0.024754029
-0.02611593 -0.059798401 0.050936799
0.015978549 0.0081574069 -0.010642938
-0.02611593 -0.059798401 0.050936799
-0.02611593 -0.059798401 0.050936799
0.02274657 0.016384169 -0.024625581
-0.02611593 -0.059798401 0.050936799
-0.02611593 -0.059798401 0.050936799
0.021689666 0.011424783 -0.026696209
-0.02611593 -0.059798401 0.050936799
0.017837172 0.015311837 -0.019551344
-0.02611593 -0.059798401 0.050936799
-0.02611593 -0.059798401 0.050936799
0.017754426 0.013384532 -0.023586024
-0.02611593 -0.059798401 0.050936799
-0.02611593 -0.059798401 0.050936799
0.015697708 0.0084287431 -0.025637854
-0.02611593 -0.059798401 0.050936799
0.010908494 0.0092475377 -0.014529619
0.011898363 0.016278936 -0.016421605
-0.02611593 -0.059798401 0.050936799
0.013732506 0.012417147 -0.024528541
-0.02611593 -0.059798401 0.050936799
-0.02611593 -0.059798401 0.050936799
0.009739263 0.0043966863 -0.022598211
-0.02611593 -0.059798401 0.050936799
0.010763557 0.015409316 -0.023418456
-0.02611593 -0.059798401 0.050936799
-0.02611593 -0.059798401 0.050936799
0.0096957935 0.01246768 -0.026452705
-0.02611593 -0.059798401 0.050936799
-0.02611593 -0.059798401 0.050936799
0.0066875722 0.0054615508 -0.025522798
-0.02611593 -0.059798401 0.050936799
0.0067603653 0.014423842 -0.023361314
-0.02611593 -0.059798401 0.050936799
-0.02611593 -0.059798401 0.050936799
0.0047371658 0.0084320428 -0.023431841
-0.02611593 -0.059798401 0.050936799
-0.02611593 -0.059798401 0.050936799
0.0036506741 0.005508496 -0.02746575
-0.02611593 -0.059798401 0.050936799
0.0046976223 0.017502861 -0.02726832
-0.02611593 -0.059798401 0.050936799
-0.02611593 -0.059798401 0.050936799
0.00071917428 0.0084644873 -0.024356335
-0.02611593 -0.059798401 0.050936799
-0.02611593 -0.059798401 0.050936799
-0.00036731514 0.0055409404 -0.028390247
-0.02611593 -0.059798401 0.050936799
0.0016755204 0.016531892 -0.028229624
-0.02611593 -0.059798401 0.050936799
-0.02611593 -0.059798401 0.050936799
-0.0022989993 0.0084933434 -0.025299624
-0.02611593 -0.059798401 0.050936799
-0.02611593 -0.059798401 0.050936799
-0.0053555337 0.0035411348 -0.027332671
-0.02611593 -0.059798401 0.050936799
-0.0032791791 0.013496078 -0.025190741
-0.0022262067 0.017455626 -0.023138139
-0.02611593 -0.059798401 0.050936799
-0.0063169906 0.0085257879 -0.026224129
-0.02611593 -0.059798401 0.050936799
-0.02611593 -0.059798401 0.050936799
-0.0083885053 0.0045879101 -0.029257603
-0.02611593 -0.059798401 0.050936799
-0.0072971703 0.013528523 -0.026115246
-0.0062294016 0.016470158 -0.023080997
-0.02611593 -0.059798401 0.050936799
-0.010320186 0.0075403131 -0.026166987
-0.02611593 -0.059798401 0.050936799
-0.02611593 -0.059798401 0.050936799
-0.02611593 -0.059798401 0.050936799
-0.02611593 -0.059798401 0.050936799
-0.010300548 0.012539458 -0.026076894
-0.0092179868 0.014463175 -0.022061005
-0.02611593 -0.059798401 0.050936799
-0.013338361 0.0075691687 -0.027110275
-0.02611593 -0.059798401 0.050936799
-0.02611593 -0.059798401 0.050936799
-0.016405763 0.004634711 -0.030106947
-0.02611593 -0.059798401 0.050936799
-0.014288949 0.010536064 -0.025038105
-0.012247026 0.016509781 -0.023967914
-0.02611593 -0.059798401 0.050936799
-0.017326763 0.0055657742 -0.026071489
-0.02611593 -0.059798401 0.050936799
-0.02611593 -0.059798401 0.050936799
-0.02037544 0.0026132269 -0.02806849
-0.02611593 -0.059798401 0.050936799
-0.0172884 0.01054683 -0.02498173
-0.015276068 0.018556388 -0.025874831
-0.02611593 -0.059798401 0.050936799
-0.021336896 0.00759788 -0.026959948
-0.02611593 -0.059798401 0.050936799
-0.02611593 -0.059798401 0.050936799
-0.02611593 -0.059798401 0.050936799
-0.02611593 -0.059798401 0.050936799
-0.02611593 -0.059798401 0.050936799
-0.018294241 0.018585244 -0.026818115
-0.02611593 -0.059798401 0.050936799
-0.024355071 0.0076267361 -0.027903236
-0.02611593 -0.059798401 0.050936799
-0.02611593 -0.059798401 0.050936799
-0.02611593 -0.059798401 0.050936799
-0.02611593 -0.059798401 0.050936799
-0.02611593 -0.059798401 0.050936799
-0.022278717 0.017581671 -0.025761314
-0.02611593 -0.059798401 0.050936799
-0.027306208 0.0055835741 -0.024883918
-0.02611593 -0.059798401 0.050936799
-0.02611593 -0.059798401 0.050936799
-0.02611593 -0.059798401 0.050936799
-0.02611593 -0.059798401 0.050936799
-0.027364474 0.014672488 -0.029720064
-0.025237709 0.013538856 -0.02277803
-0.02611593 -0.059798401 0.050936799
-0.030353973 0.0076482692 -0.027790494
-0.02611593 -0.059798401 0.050936799
-0.02611593 -0.059798401 0.050936799
-0.034368951 0.0036633024 -0.027787406
-0.02611593 -0.059798401 0.050936799
-0.02611593 -0.059798401 0.050936799
-0.027296523 0.017617706 -0.026667021
-0.02611593 -0.059798401 0.050936799
-0.034304924 0.0056086965 -0.024752386
-0.02611593 -0.059798401 0.050936799
-0.02611593 -0.059798401 0.050936799
-0.02611593 -0.059798401 0.050936799
-0.02611593 -0.059798401 0.050936799
-0.033315063 0.012640093 -0.026644371
-0.031310584 0.018649988 -0.0275735
-0.02611593 -0.059798401 0.050936799
-0.038333785 0.0076588914 -0.026640508
-0.02611593 -0.059798401 0.050936799
-0.02611593 -0.059798401 0.050936799
-0.02611593 -0.059798401 0.050936799
-0.02611593 -0.059798401 0.050936799
-0.037314329 0.012654449 -0.02656921
-0.034310035 0.018660754 -0.027517129
-0.02611593 -0.059798401 0.050936799
-0.041314512 0.0076515693 -0.025584478
-0.02611593 -0.059798401 0.050936799
-0.02611593 -0.059798401 0.050936799
-0.046358898 0.0057060309 -0.027525883
-0.02611593 -0.059798401 0.050936799
-0.041324466 0.014686555 -0.027457669
-0.038324103 0.019693032 -0.028423607
-0.02611593 -0.059798401 0.050936799
-0.045343373 0.0097017642 -0.0274726
-0.02611593 -0.059798401 0.050936799
-0.02611593 -0.059798401 0.050936799
-0.050339445 0.0057022972 -0.026451062
-0.02611593 -0.059798401 0.050936799
-0.044323921 0.014697322 -0.027401298
-0.040245835 0.01561044 -0.023459796
-0.02611593 -0.059798401 0.050936799
-0.049323916 0.0096980305 -0.02639778
-0.02611593 -0.059798401 0.050936799
-0.02611593 -0.059798401 0.050936799
-0.054353509 0.0067345654 -0.027357541
-0.02611593 -0.059798401 0.050936799
-0.048289664 0.013675668 -0.025344834
-0.045304097 0.019700063 -0.027292415
-0.02611593 -0.059798401 0.050936799
-0.052304648 0.0096907085 -0.025341749
-0.02611593 -0.059798401 0.050936799
-0.02611593 -0.059798401 0.050936799
-0.057315513 0.0067091538 -0.025301851
-0.02611593 -0.059798401 0.050936799
-0.052333321 0.016743783 -0.028214596
-0.048288751 0.018692911 -0.026254401
-0.02611593 -0.059798401 0.050936799
-0.056266468 0.0096688857 -0.023267262
-0.02611593 -0.059798401 0.050936799
-0.02611593 -0.059798401 0.050936799
-0.062340263 0.0097627761 -0.02715316
-0.02611593 -0.059798401 0.050936799
-0.056313865 0.01674005 -0.027139775
-0.051265553 0.019685419 -0.025180355
-0.02611593 -0.059798401 0.050936799
-0.06233542 0.015779842 -0.028044708
-0.02611593 -0.059798401 0.050936799
-0.02611593 -0.059798401 0.050936799
-0.067350209 0.011798464 -0.028022829
-0.02611593 -0.059798401 0.050936799
-0.060320076 0.019771986 -0.028010216
-0.057319708 0.024778455 -0.028976165
-0.02611593 -0.059798401 0.050936799
-0.065316148 0.01577252 -0.026988678
-0.02611593 -0.059798401 0.050936799
-0.02611593 -0.059798401 0.050936799
-0.07234145 0.01381607 -0.027892839
-0.02611593 -0.059798401 0.050936799
-0.064315416 0.020786174 -0.027917035
-0.055112943 0.010520408 -0.015270751
-0.02611593 -0.059798401 0.050936799
-0.070307381 0.017790118 -0.026858687
-0.02611593 -0.059798401 0.050936799
-0.02611593 -0.059798401 0.050936799
-0.075284727 0.013772569 -0.02483749
-0.02611593 -0.059798401 0.050936799
-0.069306642 0.022803772 -0.027787045
-0.058093671 0.010513086 -0.014214713
-0.02611593 -0.059798401 0.050936799
-0.074283987 0.018786224 -0.025765847
-0.02611593 -0.059798401 0.050936799
-0.02611593 -0.059798401 0.050936799
-0.081286646 0.017811507 -0.02565233
-0.02611593 -0.059798401 0.050936799
-0.071224444 0.019721018 -0.022805218
-0.063133217 0.01458462 -0.01704767
-0.02611593 -0.059798401 0.050936799
-0.080304638 0.022843249 -0.027580347
-0.02611593 -0.059798401 0.050936799
-0.02611593 -0.059798401 0.050936799
-0.087292485 0.020850629 -0.026485194
-0.02611593 -0.059798401 0.050936799
-0.074190371 0.018695777 -0.020767543
-0.02611593 -0.059798401 0.050936799
-0.02611593 -0.059798401 0.050936799
-0.086295679 0.024864443 -0.02743157
-0.02611593 -0.059798401 0.050936799
-0.02611593 -0.059798401 0.050936799
-0.094294213 0.024893157 -0.027281247
-0.02611593 -0.059798401 0.050936799
-0.085309744 0.030896015 -0.029341567
-0.02611593 -0.059798401 0.050936799
-0.02611593 -0.059798401 0.050936799
-0.090253577 0.025842452 -0.025339071
-0.02611593 -0.059798401 0.050936799
-0.02611593 -0.059798401 0.050936799
-0.099262796 0.027892502 -0.026133578
-0.02611593 -0.059798401 0.050936799
-0.088253029 0.030852517 -0.026286218
-0.084279418 0.033873823 -0.028306648
-0.02611593 -0.059798401 0.050936799
-0.098262064 0.032906149 -0.027061936
-0.02611593 -0.059798401 0.050936799
-0.02611593 -0.059798401 0.050936799
-0.10624581 0.031916946 -0.025929969
-0.02611593 -0.059798401 0.050936799
-0.093210734 0.031834114 -0.024174929
-0.089255854 0.034873508 -0.027195014
-0.02611593 -0.059798401 0.050936799
-0.10526379 0.036948685 -0.027857993
-0.02611593 -0.059798401 0.050936799
-0.02611593 -0.059798401 0.050936799
-0.11118086 0.033880278 -0.022800993
-0.02611593 -0.059798401 0.050936799
-0.099197857 0.034855131 -0.024008133
-0.095239051 0.038894366 -0.027010195
-0.02611593 -0.059798401 0.050936799
-0.11020278 0.037912194 -0.024747036
-0.02611593 -0.059798401 0.050936799
-0.02611593 -0.059798401 0.050936799
-0.12118898 0.040951155 -0.024486288
-0.02611593 -0.059798401 0.050936799
-0.10619959 0.038897667 -0.024804179
-0.10021155 0.040893875 -0.025880545
-0.02611593 -0.059798401 0.050936799
-0.11616725 0.041914959 -0.023562562
-0.02611593 -0.059798401 0.050936799
-0.02611593 -0.059798401 0.050936799
-0.13117838 0.048003949 -0.025171909
-0.02611593 -0.059798401 0.050936799
-0.11216406 0.042900432 -0.023619704
-0.10719456 0.044918321 -0.02567694
-0.02611593 -0.059798401 0.050936799
-0.12818588 0.051010754 -0.026173886
-0.02611593 -0.059798401 0.050936799
-0.02611593 -0.059798401 0.050936799
-0.14013445 0.054017141 -0.023895025
-0.02611593 -0.059798401 0.050936799
-0.12215345 0.049953219 -0.024305329
-0.1141815 0.047942936 -0.025491349
-0.02611593 -0.059798401 0.050936799
-0.13714193 0.05702395 -0.024897002
-0.02611593 -0.059798401 0.050936799
-0.02611593 -0.059798401 0.050936799
-0.15110102 0.062055252 -0.023544181
-0.02611593 -0.059798401 0.050936799
-0.13415729 0.058031093 -0.025935013
-0.12011638 0.04990986 -0.022343587
-0.02611593 -0.059798401 0.050936799
-0.14610194 0.062037308 -0.023638133
-0.02611593 -0.059798401 0.050936799
-0.02611593 -0.059798401 0.050936799
-0.16808431 0.075150229 -0.024989821
-0.02611593 -0.059798401 0.050936799
-0.14412795 0.065065801 -0.025620978
-0.1341603 0.062048506 -0.026862606
-0.02611593 -0.059798401 0.050936799
-0.16411462 0.077171706 -0.027028263
-0.02611593 -0.059798401 0.050936799
-0.02611593 -0.059798401 0.050936799
-0.18102391 0.085177101 -0.023565702
-0.02611593 -0.059798401 0.050936799
-0.15911946 0.076153941 -0.027140237
-0.14613061 0.069090396 -0.026510987
-0.02611593 -0.059798401 0.050936799
-0.17906865 0.088223673 -0.026548203
-0.02611593 -0.059798401 0.050936799
-0.02611593 -0.059798401 0.050936799
-0.19797367 0.097236067 -0.023030039
-0.02611593 -0.059798401 0.050936799
-0.17106712 0.084177554 -0.025770947
-0.15608649 0.075107165 -0.025215309
-0.02611593 -0.059798401 0.050936799
-0.19299331 0.097236216 -0.02412365
-0.02611593 -0.059798401 0.050936799
-0.02611593 -0.059798401 0.050936799
-0.21890305 0.11430855 -0.022329122
-0.02611593 -0.059798401 0.050936799
-0.18600243 0.095211431 -0.024291221
-0.17004466 0.085155718 -0.024772055
-0.02611593 -0.059798401 0.050936799
-0.21693301 0.1163372 -0.024329994
-0.02611593 -0.059798401 0.050936799
-0.02611593 -0.059798401 0.050936799
-0.25083253 0.14045514 -0.023258671
-0.02611593 -0.059798401 0.050936799
-0.21097548 0.11535201 -0.026460074
-0.18498391 0.09518975 -0.023310352
-0.02611593 -0.059798401 0.050936799
-0.24386431 0.13744862 -0.024443913
-0.02611593 -0.059798401 0.050936799
-0.02611593 -0.059798401 0.050936799
-0.82896084 0.64653397 -0.17433131
-0.02611593 -0.059798401 0.050936799
-0.22787301 0.12635688 -0.022943445
-0.20793165 0.1122875 -0.023571514
-0.83562946 0.64925104 -0.15715148
-0.81716895 0.64668989 -0.18555307
-0.02611593 -0.059798401 0.050936799
-0.02611593 -0.059798401 0.050936799
-0.83829582 0.6479364 -0.13911922
-0.82384151 0.64840716 -0.16839126
-0.25877306 0.15046407 -0.021928497
-0.23687345 0.13542384 -0.024611484
-0.84296876 0.64964646 -0.121995
-0.83251375 0.65013158 -0.15119188
-0.02611593 -0.059798401 0.050936799
-0.02611593 -0.059798401 0.050936799
-0.84263963 0.64732122 -0.10403714
-0.83918625 0.65184885 -0.13403007
-0.82572091 0.65030545 -0.16231968
-0.25774366 0.14842464 -0.019984003
-0.84829366 0.6490168 -0.085894458
-0.84284854 0.6515376 -0.11596099
-0.83339733 0.65102643 -0.1451571
-0.02611593 -0.059798401 0.050936799
-0.84596884 0.64568454 -0.067992195
-0.84150875 0.64719099 -0.097058296
-0.84306544 0.65375435 -0.1279209
-0.82961184 0.64921147 -0.15626457
-0.84862733 0.64636946 -0.049923897
-0.84917718 0.64991164 -0.079859681
-0.84571695 0.65142179 -0.10890698
-0.84028369 0.65094304 -0.1390276
-0.84729838 0.6440407 -0.031984836
-0.85084766 0.64759362 -0.061864242
-0.8513788 0.65111768 -0.09080036
-0.84794521 0.65064615 -0.12088337
-0.85096753 0.64674699 -0.014861375
-0.85049981 0.64525026 -0.042906709
-0.8550263 0.6497885 -0.07174965
-0.8525964 0.64832079 -0.10183188
-0.85262626 0.64742845 0.0031881258
-0.85316229 0.64493543 -0.024856441
-0.85769272 0.6484738 -0.053717397
-0.85523319 0.6449703 -0.08183635
-0.85328907 0.64710641 0.021200817
-0.8548249 0.64461702 -0.0068249628
-0.8643465 0.65017307 -0.035555929
-0.86488646 0.64668018 -0.063618526
-0.85195225 0.64677721 0.039175924
-0.85148543 0.64026314 0.012040153
-0.86599833 0.6478368 -0.016560823
-0.87052971 0.64635801 -0.044512205
-0.84964216 0.64446282 0.056096543
-0.85414392 0.64094824 0.030108441
-0.8696419 0.64750749 0.0025079027
-0.87415844 0.64501077 -0.024461843
-0.84630966 0.64312661 0.074016057
-0.85480672 0.64062619 0.048121132
-0.86827934 0.64414269 0.022428278
-0.87978292 0.64467055 -0.0043558776
-0.84401441 0.64183027 0.089955032
-0.85646546 0.64130765 0.066170633
-0.87192291 0.64381331 0.041497
-0.88442624 0.64434475 0.014731646
-0.8476609 0.6455183 0.10809617
-0.8571431 0.64200354 0.083201677
-0.872567 0.64347321 0.06050935
-0.88805109 0.64399737 0.034800023
-0.84135556 0.6421898 0.12492361
-0.85481423 0.63967103 0.10112195
-0.87720245 0.64514714 0.079632893
-0.88966537 0.64162511 0.055794448
-0.8390376 0.64187509 0.14188027
-0.85645425 0.64033443 0.12017112
-0.87985706 0.64683193 0.097719207
-0.89328623 0.64227742 0.075880848
-0.83871144 0.6435672 0.15891054
-0.85511744 0.64000523 0.13814622
-0.88048637 0.64547396 0.11771321
-0.89591521 0.6409266 0.095912427
-0.83240604 0.6402387 0.17573798
-0.85278076 0.63967246 0.15610254
-0.87714303 0.64211994 0.13659634
-0.89853626 0.64157546 0.11598003
-0.82908833 0.63992041 0.19267583
-0.84945214 0.63733637 0.17400405
-0.8777644 0.64276159 0.15662636
-0.89815485 0.63819599 0.13691886
-0.82377487 0.63859516 0.20955811
-0.84908861 0.63899243 0.19303364
-0.87840849 0.64242154 0.17563871
-0.90274894 0.64083362 0.15805975
-0.81947607 0.63829136 0.22547753
-0.84774786 0.63966298 0.21102676
-0.87803012 0.64305961 0.19564995
-0.90532869 0.64244604 0.1801447
-0.82211488 0.64397544 0.24363591
-0.84241956 0.63731974 0.22889067
-0.87665582 0.64269418 0.21562439
-0.90593529 0.64206976 0.20115638
-0.81183684 0.63865101 0.25935248
-0.84008294 0.63698703 0.24684699
-0.87428564 0.64132535 0.23556201
-0.90155464 0.63867611 0.22202004
-0.80654216 0.63734388 0.27523509
-0.83574665 0.63664705 0.26476574
-0.86696565 0.63697541 0.25335228
-0.90116143 0.63829625 0.24301293
-0.80123955 0.63803631 0.29115373
-0.831433 0.63532531 0.28166679
-0.86955625 0.64060557 0.27447361
-0.90174156 0.63990146 0.26506031
-0.80088681 0.64170998 0.30921972
-0.82906985 0.63697422 0.30065882
-0.8671782 0.64123648 0.2944473
-0.89636105 0.63650417 0.28590518
-0.79062355 0.63740349 0.32395464
-0.82276052 0.63464534 0.31750426
-0.86083537 0.6378718 0.31327406
-0.89694118 0.63810951 0.30795252
-0.78432107 0.63809228 0.33985451
-0.82138926 0.63829744 0.3365511
-0.85645771 0.63849545 0.33321017
-0.89750242 0.63969666 0.33099958
-0.77408046 0.63280398 0.35357174
-0.81308419 0.63496178 0.35334098
-0.85011488 0.6351307 0.35203689
-0.89409113 0.63928795 0.35293573
-0.77174687 0.63648868 0.37060049
-0.80674827 0.63461459 0.37122214
-0.84376413 0.63376564 0.37089968
-0.88870275 0.63789034 0.37381667
-0.76544452 0.63717753 0.38650033
-0.79746211 0.63129336 0.38699353
-0.83838665 0.63438576 0.39081699
-0.88626468 0.63946676 0.39680731
-0.75419998 0.63288546 0.40021685
-0.79311806 0.63295311 0.40494829
-0.83500892 0.63501304 0.41077182
-0.87888062 0.63706207 0.41763264
-0.74888963 0.63557762 0.41617149
-0.78679687 0.63362384 0.42184782
-0.82470417 0.63167012 0.42752415
-0.87346965 0.63664621 0.43953124
-0.73963696 0.63329238 0.42996159
-0.77748811 0.63128436 0.4386369
-0.82327288 0.63626772 0.44958797
-0.86410862 0.63325262 0.45930129
-0.72940719 0.63002187 0.44271523
-0.77314013 0.63394397 0.4566097
-0.81394535 0.63391024 0.46737671
-0.85671669 0.63284761 0.48016262
-0.7231009 0.63171053 0.45863312
-0.76582313 0.63361132 0.47347242
-0.80459905 0.63153452 0.48616511
-0.85030591 0.63242811 0.50204241
-0.71284455 0.63042158 0.47242245
-0.75355613 0.63029736 0.48818779
-0.79822177 0.63215107 0.50606364
-0.84388727 0.63400835 0.52395827
-0.70163363 0.62716556 0.48415762
-0.74426216 0.62897587 0.50399518
-0.78691339 0.62980443 0.52281511
-0.83647668 0.63358521 0.54581928
-0.69532734 0.62885427 0.50007546
-0.7349683 0.62765437 0.51980263
-0.77953231 0.63141716 0.54271287
-0.82708514 0.63317305 0.56664306
-0.68606293 0.62956852 0.51391965
-0.72567034 0.62733263 0.53562808
-0.76822394 0.62907052 0.55946434
-0.8157205 0.63077211 0.58639359
-0.67385226 0.62630892 0.52563608
-0.71339953 0.62501854 0.55036151
-0.75691551 0.62672389 0.57621586
-0.79942483 0.62540805 0.602997
-0.66556895 0.62700874 0.54049867
-0.70607072 0.62768537 0.56727827
-0.74558449 0.62535894 0.59398508
-0.79691088 0.63192934 0.62907678
-0.65727776 0.62970811 0.55539727
-0.69577295 0.62736011 0.58308494
-0.73722231 0.62698621 0.61286432
-0.78063387 0.6265834 0.64468056
-0.64409387 0.62446338 0.56605917
-0.68547523 0.62703472 0.59889162
-0.72883761 0.62959522 0.6327613
-0.7712158 0.62815273 0.66654003
-0.63679856 0.6281662 0.58099467
-0.67322326 0.62473875 0.61262536
-0.71259803 0.62428534 0.64636576
-0.75687051 0.62575918 0.68523449
-0.62653434 0.62887686 0.59482002
-0.66291761 0.62641311 0.62846804
-0.70321345 0.62689072 0.66624391
-0.74254 0.62438351 0.70294738
-0.61138827 0.62366116 0.60344499
-0.65064287 0.62509888 0.64321947
-0.68894303 0.62456959 0.68093979
-0.73014504 0.62496036 0.72373277
-0.60114276 0.62438995 0.61627072
-0.63643259 0.62183201 0.65489829
-0.67760408 0.62520427 0.69874501
-0.71874601 0.62654066 0.744555
-0.59185177 0.62708575 0.6311506
-0.62514979 0.6225211 0.66970456
-0.66328835 0.62484652 0.71547616
-0.70341569 0.62516141 0.76224899
-0.57965583 0.62484407 0.64188534
-0.61287117 0.62220669 0.68447399
-0.6500138 0.62352872 0.73020875
-0.68610841 0.62279326 0.77888781
-0.56743342 0.62458396 0.65365577
-0.59863037 0.62192124 0.6972065
-0.63569415 0.62417084 0.74695796
-0.6707781 0.62141395 0.79658175
-0.55621082 0.62432736 0.66544503
-0.58830214 0.62457734 0.71406686
-0.61846566 0.62087512 0.75958008
-0.65643972 0.62203795 0.81433064
-0.54300719 0.62408179 0.67619699
-0.57115638 0.61935443 0.72265428
-0.60709625 0.62449127 0.77843899
-0.6391058 0.62165141 0.83200514
-0.5327391 0.62579221 0.69004041
-0.55887377 0.62003982 0.73744166
-0.58988643 0.62121367 0.79006147
-0.62572187 0.62424237 0.85180813
-0.51953542 0.62554663 0.70079243
-0.54462904 0.62075424 0.75019228
-0.57361257 0.61988515 0.80473775
-0.60934258 0.62582284 0.87153667
-0.5044229 0.62136692 0.70743608
-0.53038818 0.62046885 0.76292479
-0.55930763 0.62154514 0.82050526
-0.58524734 0.61761141 0.87793922
-0.49219257 0.62310642 0.71924257
-0.51710194 0.62215054 0.77771145
-0.54111683 0.61828202 0.83110923
-0.56792819 0.6182428 0.89463204
-0.47899288 0.62186092 0.72997659
-0.50094414 0.61993062 0.78637171
-0.52674788 0.62188745 0.84991181
-0.55252206 0.62180835 0.91541511
-0.46673992 0.62458217 0.74280077
-0.48474899 0.61767459 0.7970314
-0.50855309 0.6196242 0.86053377
-0.53035456 0.61754924 0.92492628
-0.45548674 0.62730706 0.75564373
-0.47147745 0.62037414 0.81083637
-0.49033564 0.6183427 0.87217349
-0.51107723 0.61720967 0.93956411
-0.44034758 0.62510878 0.76332301
-0.4562102 0.6220668 0.8245858
-0.47305006 0.62001008 0.88688499
-0.49179593 0.61786997 0.95422012
-0.42229953 0.61897284 0.76687539
-0.437121 0.61689091 0.83013666
-0.45389682 0.61677951 0.89547092
-0.47249195 0.61951202 0.96989369
-0.40811095 0.61974156 0.77662694
-0.4228684 0.61960495 0.84292322
-0.43567151 0.61749768 0.90714663
-0.45223352 0.61918706 0.98351312
-0.3968125 0.62442988 0.79150522
-0.40662399 0.62031221 0.85563618
-0.41743141 0.61719793 0.91980398
-0.42908102 0.61594218 0.99202383
-0.3816694 0.62323153 0.79920262
-0.38852283 0.61813945 0.86125988
-0.3992061 0.61791605 0.93147963
-0.40592456 0.61369717 1.0005525
-0.36652625 0.62203318 0.80690002
-0.3713387 0.61789751 0.87093711
-0.37713224 0.61374736 0.93599254
-0.38470373 0.61340469 1.0121539
-0.35133785 0.62279826 0.81663287
-0.35419595 0.61669189 0.8785969
-0.35699788 0.61053139 0.94355994
-0.36441478 0.61606109 1.0268271
-0.33525503 0.62065077 0.82129443
-0.33603466 0.61546475 0.88723761
-0.33681041 0.61127853 0.95319879
-0.34129578 0.6138522 1.0333564
-0.31915349 0.61848515 0.82695574
-0.31886533 0.61624074 0.89593315
-0.31858116 0.61299652 0.96489251
-0.3190712 0.61455613 1.044957
-0.30394241 0.62023205 0.83770615
-0.29976827 0.61306453 0.90152007
-0.29741651 0.6127584 0.97349483
-0.29495236 0.61234361 1.0514677
-0.28877273 0.62101513 0.8464393
-0.28159913 0.61383694 0.91019678
-0.27818748 0.61447275 0.98516983
-0.27085233 0.61014926 1.0569787
-0.27075428 0.61691505 0.8480283
-0.26345265 0.61362767 0.91785586
-0.2571016 0.61330712 0.98975551
-0.24768408 0.61090386 1.0655614
-0.2546488 0.6157493 0.85370767
-0.24441175 0.6105057 0.92044371
-0.23504254 0.61015636 0.99328673
-0.22451977 0.61065853 1.0741261
-0.23847537 0.61752874 0.86243999
-0.22528416 0.61031091 0.92708433
-0.21387395 0.61091793 1.0019071
-0.20045713 0.60850036 1.0776379
-0.22236596 0.61736274 0.8681373
-0.20711111 0.61208308 0.93577909
-0.19278809 0.60975236 1.0064927
-0.17632656 0.60928732 1.0842025
-0.20527938 0.61621147 0.87279814
-0.18802488 0.61092466 0.94040233
-0.17072117 0.60860121 1.01006
-0.15219596 0.61007446 1.0907671
-0.18819281 0.61506015 0.87745899
-0.16798022 0.60879904 0.94298947
-0.1495447 0.61136258 1.0187163
-0.12808801 0.60987979 1.0963142
-0.17203811 0.61685777 0.88519168
-0.14884873 0.609604 0.94964814
-0.12743641 0.61117506 1.0243009
-0.10405888 0.60875762 1.0978444
-0.15399309 0.61473918 0.88781637
-0.12977731 0.60946345 0.95328975
-0.10541084 0.60906023 1.0258509
-0.078905821 0.61052287 1.105408
-0.13690259 0.61458772 0.89249527
-0.10973266 0.60733777 0.95587689
-0.083339974 0.60890895 1.0294361
-0.054876693 0.60940075 1.1069384
-0.11976678 0.61639977 0.89920944
-0.089638777 0.6081754 0.96051741
-0.061201151 0.61170286 1.0360744
-0.029885193 0.60831118 1.1064506
-0.10171783 0.61528105 0.90185225
-0.070522062 0.60999829 0.96619439
-0.039149016 0.61156958 1.03866
-0.004852321 0.60818523 1.10798
-0.08364623 0.61514407 0.90551263
-0.050492201 0.60889047 0.96779984
-0.016138425 0.61046916 1.0392094
0.019139359 0.60709929 1.107511
-0.065619938 0.61304367 0.90713769
-0.029458595 0.60877895 0.96940458
0.0048085032 0.60743052 1.0367614
0.044029389 0.60410058 1.1019889
-0.04741244 0.61879712 0.91690415
-0.0094927642 0.60572577 0.96797502
0.027887041 0.60927522 1.0403639
0.069212958 0.6088472 1.1106063
-0.029450171 0.61475134 0.9154942
0.0096091572 0.6085667 0.97267044
0.049924389 0.61015993 1.041968
0.093043074 0.60490644 1.1020859
-0.010502871 0.61171985 0.91308379
0.029556267 0.60553151 0.97024119
0.072810851 0.60616851 1.0364654
0.11799713 0.60385305 1.0995989
0.0066368571 0.61453164 0.91981602
0.050676543 0.60834718 0.97589862
0.094765455 0.6051259 1.0340346
0.14301912 0.60574496 1.1001648
0.025629453 0.61346364 0.91944098
0.070586212 0.60534823 0.97147018
0.11771987 0.60407966 1.0315851
0.16693592 0.60473138 1.0956972
0.043622233 0.61239922 0.91908473
0.091601089 0.60525471 0.97207516
0.13970104 0.60501862 1.0301901
0.19187517 0.60469586 1.0922284
0.062656209 0.61229485 0.92072707
0.11260118 0.60617924 0.97169864
0.16263674 0.6039905 1.0267409
0.21573186 0.60273659 1.0847437
0.08171282 0.61317223 0.92338705
0.13255614 0.60514379 0.9693054
0.18455391 0.60298413 1.0223107
0.23963389 0.60274094 1.0792944
0.10062267 0.61017692 0.91897726
0.15353358 0.60508651 0.96791118
0.20758021 0.605883 1.0229323
0.26244938 0.59982175 1.0698112
0.11961919 0.61010873 0.91862023
0.17446963 0.6040656 0.96449953
0.22949736 0.60487652 1.0185022
0.28735512 0.60082233 1.0643612
0.13859306 0.6090588 0.91724557
0.19545099 0.60500807 0.96312332
0.25129431 0.60197902 1.0080382
0.31126103 0.60182643 1.0589299
0.15757087 0.60900873 0.91588891
0.21539117 0.6049906 0.95974857
0.27427924 0.6039142 1.0066425
0.33514822 0.60284865 1.0524991
0.17757113 0.60993677 0.91553116
0.23630852 0.60398775 0.95533729
0.29514042 0.60296559 0.99923217
0.35905415 0.60385281 1.0470678
0.19653021 0.60990477 0.91317475
0.25727114 0.6049484 0.95296133
0.31804261 0.60297346 0.99380165
0.38077232 0.6000278 1.0325871
0.21546273 0.6078912 0.90978271
0.27819633 0.60594529 0.94858611
0.33994889 0.60398483 0.98840803
0.40049082 0.59620994 1.0181439
0.23542553 0.60885537 0.90742564
0.29913634 0.60592413 0.94519258
0.36077261 0.6030724 0.97899842
0.42647219 0.60215175 1.0157642
0.25434324 0.60785973 0.90305197
0.31795257 0.6030193 0.93578458
0.38157371 0.60117835 0.96857119
0.44719446 0.59933019 1.0013202
0.27426472 0.60786033 0.89867747
0.33885902 0.60403419 0.93040967
0.40239742 0.60026586 0.95916164
0.46898445 0.59945017 0.9899106
0.29420093 0.60684294 0.89528465
0.35872042 0.60308915 0.92301816
0.42220259 0.59937519 0.94877118
0.49286079 0.60249013 0.98251611
0.31414503 0.60782534 0.89192784
0.37960812 0.60412216 0.91664362
0.4451353 0.60236448 0.94439435
0.51260984 0.60165375 0.96912664
0.33304793 0.60784757 0.8865726
0.40153316 0.60511535 0.91224962
0.46388054 0.60053182 0.93100572
0.53438109 0.6017918 0.95671731
0.35295066 0.60786623 0.88119847
0.4192934 0.6022684 0.8998614
0.48675314 0.60257554 0.923612
0.55102533 0.59805709 0.93833184
0.37178954 0.60594302 0.8728081
0.43916261 0.60332304 0.892506
0.50758469 0.60366279 0.91423845
0.57177806 0.59821683 0.92494172
0.39067373 0.60598332 0.86645311
0.45796406 0.60143608 0.88211632
0.52837491 0.60378641 0.90284759
0.59564352 0.60327458 0.91658354
0.41057646 0.60600203 0.86107898
0.47883701 0.60348707 0.87476015
0.54921043 0.60587353 0.8934921
0.61433256 0.60149622 0.9001959
0.42940056 0.60509682 0.85170698
0.4976424 0.60259992 0.86438847
0.56796354 0.60604048 0.88013947
0.63202584 0.60072118 0.88384509
0.45137483 0.60905337 0.84936643
0.51747411 0.60369074 0.85503376
0.58464515 0.60226959 0.86375332
0.64867789 0.59898615 0.86549568
0.4681313 0.60521013 0.83697891
0.53626078 0.60282171 0.84366238
0.60342091 0.60341829 0.85141844
0.66843867 0.60114914 0.85216033
0.48593688 0.60432661 0.82662606
0.55400634 0.60099262 0.83029252
0.61906928 0.60068703 0.83306986
0.68611312 0.60039228 0.83480984
0.50889224 0.60829765 0.82326698
0.57793182 0.60699594 0.82495141
0.63782245 0.60085398 0.81971717
0.70279181 0.60063875 0.81749618
0.52563393 0.60547233 0.80989796
0.59363621 0.60421032 0.80960178
0.65553826 0.60106069 0.80438411
0.71844792 0.5999071 0.79918361
0.54342067 0.60460687 0.79854536
0.61345321 0.60631907 0.79926544
0.67531776 0.60320568 0.79204834
0.73512655 0.60015357 0.78186989
0.56325251 0.60569769 0.78919059
0.63020277 0.60549337 0.78593236
0.69203383 0.60341597 0.77673399
0.75487244 0.60333461 0.76755291
0.58102065 0.60485035 0.77683848
0.64791471 0.60470039 0.77058119
0.70464128 0.59973174 0.75642443
0.76442432 0.59971541 0.74430072
0.59776622 0.60302478 0.7634874
0.66158211 0.60195816 0.75326985
0.72440606 0.6028946 0.74310708
0.78211057 0.60195798 0.72700429
0.61860174 0.60511196 0.75413191
0.68035793 0.60310686 0.74093485
0.74112588 0.60410482 0.72781074
0.79778939 0.60220808 0.70970941
0.63741499 0.60622448 0.74379629
0.69505167 0.60234255 0.72464043
0.75578231 0.60337669 0.709517
0.80939013 0.60154504 0.68847299
0.65516829 0.60639501 0.73046243
0.71483511 0.60548735 0.71232271
0.77148372 0.6046086 0.69323975
0.82200938 0.6008603 0.66821748
0.67087662 0.60460925 0.71513087
0.7284838 0.60276324 0.69401169
0.7861439 0.60488039 0.67496395
0.83768123 0.604128 0.64997697
0.68862993 0.60477984 0.70179701
0.74315882 0.60201705 0.67671764
0.80182672 0.60613024 0.65768719
0.84827816 0.60246867 0.62874144
0.70636457 0.60496849 0.68746352
0.763946 0.60615808 0.66439909
0.81241971 0.60347116 0.63643348
0.86090529 0.60378373 0.60852188
0.72614795 0.60811323 0.67514586
0.77659875 0.60443741 0.64612496
0.8271026 0.60472465 0.61917549
0.87455094 0.60507697 0.58928335
0.74286014 0.60732371 0.65981346
0.79025525 0.60371292 0.62784994
0.83771831 0.60304731 0.59893942
0.88517833 0.60639912 0.56910139
0.75753516 0.60657763 0.64251935
0.8069604 0.605941 0.61157197
0.85238642 0.60531873 0.58069974
0.89173079 0.60279071 0.54590559
0.7732327 0.60680956 0.6262241
0.81757218 0.6032638 0.59131801
0.86400986 0.60563743 0.56048101
0.901317 0.60315281 0.52372515
0.78790772 0.60606343 0.60892999
0.83225513 0.60451734 0.5740599
0.87462938 0.60495996 0.54026306
0.91194838 0.60547471 0.50356126
0.8025828 0.60531729 0.59163594
0.8469193 0.60578889 0.55580217
0.88625669 0.60627848 0.52006245
0.92257977 0.60779673 0.48339736
0.81826162 0.6055674 0.574341
0.86260587 0.60803866 0.53854334
0.89788389 0.60759699 0.49986172
0.93218482 0.60814071 0.46221659
0.83392167 0.60583556 0.55604649
0.87422532 0.60735762 0.51830661
0.9135558 0.61086464 0.48162121
0.93877155 0.60851359 0.4400925
0.85163051 0.60905981 0.53976768
0.88484496 0.60667998 0.49808866
0.92215699 0.61021239 0.4604412
0.94938427 0.61085355 0.41892898
0.86224234 0.60638267 0.51951373
0.90152049 0.61094391 0.47984737
0.92771745 0.60860729 0.43730021
0.9569748 0.61222267 0.39680412
0.87991375 0.60964316 0.50123566
0.90809554 0.60831732 0.45766926
0.9413749 0.61290002 0.41811568
0.95851332 0.60965014 0.37272063
0.88748473 0.60601312 0.47902071
0.91767794 0.60767949 0.43547079
0.94593155 0.61029869 0.39497545
0.96107429 0.60805571 0.34963602
0.90315264 0.60828096 0.4607622
0.93132746 0.6099726 0.4162502
0.95149583 0.60969341 0.37185246
0.97171354 0.61237735 0.32950816
0.91980553 0.61156309 0.44150326
0.93990999 0.60933846 0.39407051
0.96313101 0.61301148 0.35168785
0.97528219 0.61277902 0.3064408
0.92535818 0.60795826 0.41832623
0.95356745 0.61363119 0.37488598
0.9707216 0.6143806 0.32956299
0.98287666 0.61514801 0.28433394
0.94201106 0.61124051 0.39906728
0.96012765 0.61202246 0.3517262
0.979312 0.61574614 0.30741936
0.98446047 0.61453885 0.26228583
0.95361966 0.61257708 0.37786692
0.97074038 0.61436254 0.33056268
0.98389912 0.61612612 0.28533286
0.98402196 0.61295533 0.23925757
0.96217948 0.6109612 0.3546696
0.98133427 0.61672068 0.30839944
0.98646414 0.61553156 0.26226625
0.93028331 0.5757308 0.20757961
0.97376937 0.61231595 0.33246955
0.9858948 0.6151191 0.28527725
0.99103254 0.61592972 0.23918009
0.6112051 0.36315325 0.14068562
0.989389 0.61663771 0.31124812
0.99448931 0.61748445 0.26315162
0.92319703 0.56781161 0.20456801
0.60590947 0.35944322 0.1257126
0.99192339 0.61306173 0.28712779
1.0010574 0.6178754 0.24002789
0.60714871 0.35820463 0.13867137
0.59660667 0.35374787 0.11077869
1.0095278 0.61839426 0.26488712
0.96839941 0.59253728 0.21017087
0.58777893 0.34458271 0.1217819
-0.02611593 -0.059798401 0.050936799
1.0160772 0.61880326 0.24076369
0.62621415 0.36609891 0.14045782
0.58853531 0.3448143 0.10876751
-0.02611593 -0.059798401 0.050936799
1.0196153 0.61622357 0.21664262
0.60682559 0.35249507 0.12256869
-0.02611593 -0.059798401 0.050936799
0.57376546 0.33958912 0.068936028
0.65529341 0.37795663 0.14212844
0.59549272 0.34382555 0.10661864
0.58499599 0.34133226 0.080761306
0.56851113 0.33684272 0.055980332
0.6318711 0.36038589 0.12324274
0.5871858 0.33712676 0.091647923
0.55464202 0.32171467 0.065969735
0.55625725 0.32910424 0.04406574
0.60043472 0.3388446 0.10443527
0.57689416 0.32941723 0.07769642
0.56542414 0.32890913 0.052893575
0.56103259 0.33432057 0.031066284
0.58409089 0.32719347 0.088525124
0.57262093 0.32668537 0.063722275
0.56219214 0.32713729 0.040917974
0.55880827 0.33454481 0.019107932
0.59183913 0.33041754 0.074433602
0.57536221 0.32792768 0.049688663
0.56796336 0.33135027 0.027881708
0.56658703 0.34075028 0.0060701221
0.61161655 0.34159711 0.060260739
0.57912594 0.33014813 0.036653943
0.56371284 0.3296001 0.014925241
0.57435095 0.34797361 -0.0079493262
0.58328491 0.32295406 0.046449266
0.57786006 0.32940513 0.022659464
0.5644545 0.33084959 0.00092921406
-0.02611593 -0.059798401 0.050936799
0.60703599 0.33715495 0.030255973
0.57258707 0.32667685 0.0087041073
0.57121068 0.33607689 -0.013107479
-0.02611593 -0.059798401 0.050936799
0.59374094 0.32845643 0.01634283
0.58433545 0.33490372 -0.0063721463
0.58098215 0.34529269 -0.027128477
0.58962446 0.36467323 -0.049947448
0.58144957 0.32075411 0.0024289154
0.59008795 0.33913481 -0.020408072
0.59871161 0.35853338 -0.044226706
-0.02611593 -0.059798401 0.050936799
0.6001749 0.33299139 -0.014706124
0.59580302 0.343402 -0.036443315
0.5984534 0.35978645 -0.058203939
0.6200844 0.39117259 -0.084049955
0.60590476 0.33624071 -0.029759727
0.61052519 0.35465381 -0.053521216
0.6121797 0.3720417 -0.075245023
0.76258677 0.49549186 -0.13184716
0.62361157 0.34849963 -0.047875632
0.66819966 0.39389122 -0.078899875
0.75469589 0.4703258 -0.12115101
0.80617315 0.5308525 -0.16103345
0.75119483 0.42971388 -0.086808451
0.75676376 0.45419478 -0.11447926
0.75834435 0.47667226 -0.14111128
0.91856503 0.61531907 -0.21062665
0.75182408 0.43107188 -0.10680243
0.76140797 0.45953768 -0.13447635
0.76598501 0.48602185 -0.16209233
0.93013489 0.63074374 -0.23657303
0.76544887 0.4414179 -0.12887788
0.76104534 0.46289903 -0.1544155
0.76865226 0.49235377 -0.18103415
0.926754 0.63413388 -0.25745547
0.76606739 0.44479367 -0.14983548
0.76368612 0.46724933 -0.17439303
0.78822857 0.50974935 -0.20709482
0.21200719 0.11477946 -0.031391468
0.7686854 0.44816232 -0.17083068
0.77030432 0.47562075 -0.19637296
0.21699451 0.11176205 -0.031539477
0.19895944 0.10684558 -0.032291006
0.7703076 0.45253423 -0.19178909
0.21698575 0.10474513 -0.030665949
0.19795084 0.099832252 -0.03139868
-0.02611593 -0.059798401 0.050936799
0.75897169 0.44788209 -0.20866674
0.20293815 0.096814841 -0.031546686
-0.02611593 -0.059798401 0.050936799
0.16393168 0.083920836 -0.029048778
0.2079028 0.092815645 -0.032712378
-0.02611593 -0.059798401 0.050936799
0.17586637 0.086949609 -0.033218846
-0.02611593 -0.059798401 0.050936799
-0.02611593 -0.059798401 0.050936799
0.1748578 0.079936303 -0.032326534
-0.02611593 -0.059798401 0.050936799
0.14388821 0.071994647 -0.028889187
0.17683385 0.073930144 -0.032472227
-0.02611593 -0.059798401 0.050936799
0.15082683 0.071023956 -0.032037728
-0.02611593 -0.059798401 0.050936799
-0.02611593 -0.059798401 0.050936799
0.14980344 0.065028578 -0.032127045
-0.02611593 -0.059798401 0.050936799
0.12982191 0.064082444 -0.03076959
0.15276848 0.061036576 -0.033255145
-0.02611593 -0.059798401 0.050936799
0.1307873 0.06009762 -0.031860121
-0.02611593 -0.059798401 0.050936799
-0.02611593 -0.059798401 0.050936799
0.1297787 0.05308431 -0.030967791
-0.02611593 -0.059798401 0.050936799
0.11181943 0.053112738 -0.028630242
0.13272499 0.049110401 -0.033095557
-0.02611593 -0.059798401 0.050936799
0.11376593 0.049142413 -0.030739218
-0.02611593 -0.059798401 0.050936799
-0.02611593 -0.059798401 0.050936799
0.11870489 0.048178904 -0.033850171
-0.02611593 -0.059798401 0.050936799
0.10076044 0.047189407 -0.030530974
0.11569276 0.040172938 -0.032938283
-0.02611593 -0.059798401 0.050936799
0.098752037 0.040179685 -0.029619865
-0.02611593 -0.059798401 0.050936799
-0.02611593 -0.059798401 0.050936799
0.099717416 0.036194865 -0.030710388
-0.02611593 -0.059798401 0.050936799
0.091723718 0.042240649 -0.03145162
0.099679053 0.031213809 -0.031800147
-0.02611593 -0.059798401 0.050936799
0.08773049 0.034220181 -0.029521279
-0.02611593 -0.059798401 0.050936799
-0.02611593 -0.059798401 0.050936799
0.085711204 0.029228207 -0.029573791
-0.02611593 -0.059798401 0.050936799
0.075780988 0.032209322 -0.026332844
0.085672848 0.024247151 -0.030663542
-0.02611593 -0.059798401 0.050936799
0.076708935 0.028260676 -0.029422693
-0.02611593 -0.059798401 0.050936799
-0.02611593 -0.059798401 0.050936799
0.075674675 0.02428304 -0.030475639
-0.02611593 -0.059798401 0.050936799
0.06971807 0.030285468 -0.029255126
0.076621339 0.020316314 -0.032565821
-0.02611593 -0.059798401 0.050936799
0.070668645 0.027318565 -0.031327296
-0.02611593 -0.059798401 0.050936799
-0.02611593 -0.059798401 0.050936799
0.066656679 0.019316193 -0.030396618
-0.02611593 -0.059798401 0.050936799
0.059733771 0.024286196 -0.027176011
0.068588369 0.016363792 -0.033487238
-0.02611593 -0.059798401 0.050936799
0.058695599 0.019308729 -0.028246973
-0.02611593 -0.059798401 0.050936799
-0.02611593 -0.059798401 0.050936799
0.058642443 0.015345583 -0.030318365
-0.02611593 -0.059798401 0.050936799
0.051738255 0.020297503 -0.026098095
0.054653127 0.0083249537 -0.028370012
-0.02611593 -0.059798401 0.050936799
0.052670114 0.017348681 -0.029169925
-0.02611593 -0.059798401 0.050936799
-0.02611593 -0.059798401 0.050936799
0.050646916 0.011356883 -0.029240455
-0.02611593 -0.059798401 0.050936799
0.043757521 0.015290882 -0.024038542
0.050578967 0.0084116645 -0.032293487
-0.02611593 -0.059798401 0.050936799
0.043704368 0.011327738 -0.026109934
-0.02611593 -0.059798401 0.050936799
-0.02611593 -0.059798401 0.050936799
0.042651393 0.0073681893 -0.028162543
-0.02611593 -0.059798401 0.050936799
0.039698154 0.014359674 -0.026980385
0.041598417 0.0034086339 -0.030215144
-0.02611593 -0.059798401 0.050936799
0.039630204 0.01141445 -0.030033417
-0.02611593 -0.059798401 0.050936799
-0.02611593 -0.059798401 0.050936799
0.037610933 0.006422474 -0.030085929
-0.02611593 -0.059798401 0.050936799
0.033706199 0.011363626 -0.02592203
0.035576869 0.0024484261 -0.031120088
-0.02611593 -0.059798401 0.050936799
0.031686924 0.0063716513 -0.025974542
-0.02611593 -0.059798401 0.050936799
-0.02611593 -0.059798401 0.050936799
0.028667834 0.0013832722 -0.026008263
-0.02611593 -0.059798401 0.050936799
0.028717978 0.0093638282 -0.024864458
0.02957011 0.00047030183 -0.031043384
-0.02611593 -0.059798401 0.050936799
0.027631486 0.0064402744 -0.028898366
