# .PCD v0.7 - Point Cloud Data file format
VERSION 0.7
FIELDS x y z
SIZE 4 4 4
TYPE F F F
COUNT 1 1 1
WIDTH 1398
HEIGHT 1
VIEWPOINT 0 0 0 1 0 0 0
POINTS 1398
DATA ascii
-0.10840647 -0.0090689091 -0.026631147
-0.13742983 -0.0019117487 -0.028959069
-0.13043505 -0.0029367055 -0.029108621
-0.02611593 -0.059798401 0.050936799
-0.02611593 -0.059798401 0.050936799
-0.02611593 -0.059798401 0.050936799
-0.02611593 -0.059798401 0.050936799
-0.12540244 -0.0039906553 -0.027221274
-0.11942619 -0.0049939305 -0.028351706
-0.15042654 0.0031521423 -0.029624365
-0.14243586 0.0011237732 -0.029810727
-0.02611593 -0.059798401 0.050936799
-0.02611593 -0.059798401 0.050936799
-0.02611593 -0.059798401 0.050936799
-0.02611593 -0.059798401 0.050936799
-0.13237457 -0.0019839606 -0.026054043
-0.12639834 -0.0029872395 -0.027184464
-0.16340846 0.0071981135 -0.029308014
-0.15443668 0.0051842481 -0.030512836
-0.02611593 -0.059798401 0.050936799
-0.02611593 -0.059798401 0.050936799
-0.02611593 -0.059798401 0.050936799
-0.02611593 -0.059798401 0.050936799
-0.14638983 0.0031016085 -0.027700208
-0.13640343 6.622728e-05 -0.027942173
-0.17333475 0.011179058 -0.026049051
-0.1643817 0.009183282 -0.028253518
-0.02611593 -0.059798401 0.050936799
-0.02611593 -0.059798401 0.050936799
-0.02611593 -0.059798401 0.050936799
-0.02611593 -0.059798401 0.050936799
-0.15837191 0.0071439906 -0.027402651
-0.14940408 0.0041302945 -0.02862547
-0.18930826 0.017235465 -0.02564029
-0.17734487 0.013211164 -0.026937518
-0.02611593 -0.059798401 0.050936799
-0.02611593 -0.059798401 0.050936799
-0.02611593 -0.059798401 0.050936799
-0.02611593 -0.059798401 0.050936799
-0.17133512 0.01117188 -0.026086632
-0.15632397 0.0050828918 -0.024477284
-0.21530165 0.027363252 -0.026970871
-0.20135738 0.023349863 -0.029305346
-0.02611593 -0.059798401 0.050936799
-0.02611593 -0.059798401 0.050936799
-0.02611593 -0.059798401 0.050936799
-0.02611593 -0.059798401 0.050936799
-0.19032286 0.018256966 -0.026603147
-0.17534918 0.012204155 -0.026993118
-0.24227224 0.03847637 -0.02726499
-0.22031161 0.029398941 -0.027840547
-0.02611593 -0.059798401 0.050936799
-0.02611593 -0.059798401 0.050936799
-0.02611593 -0.059798401 0.050936799
-0.02611593 -0.059798401 0.050936799
-0.20827727 0.02430246 -0.025157139
-0.19533674 0.019292839 -0.027490828
-0.26016656 0.045467421 -0.022801988
-0.24726346 0.040493973 -0.027135
-0.02611593 -0.059798401 0.050936799
-0.02611593 -0.059798401 0.050936799
-0.02611593 -0.059798401 0.050936799
-0.02611593 -0.059798401 0.050936799
-0.23323736 0.033390652 -0.02452521
-0.21429099 0.025341915 -0.026026048
-0.97050083 0.35850164 -0.19990017
-0.02611593 -0.059798401 0.050936799
-0.02611593 -0.059798401 0.050936799
-0.02611593 -0.059798401 0.050936799
-0.98310828 0.36218584 -0.17959063
-0.96271318 0.35265487 -0.21015525
-0.26520309 0.045521546 -0.024707362
-0.24427971 0.036483891 -0.027263448
-0.99673432 0.3658917 -0.16026191
-0.98035318 0.35739297 -0.191733
-0.02611593 -0.059798401 0.050936799
-0.02611593 -0.059798401 0.050936799
-1.0043358 0.36654037 -0.13910069
-0.98695874 0.35703823 -0.17060858
-0.97257727 0.34854671 -0.20204212
-0.25613472 0.039399825 -0.019986272
-1.0169432 0.37022457 -0.1187911
-0.99657458 0.35871202 -0.15039143
-0.98119718 0.34921706 -0.18186173
-0.02611593 -0.059798401 0.050936799
-1.0285509 0.37390515 -0.098500326
-1.0121815 0.36240694 -0.13002548
-0.99580818 0.35190859 -0.16153263
-0.97344786 0.33838916 -0.19320655
-1.0461457 0.3806068 -0.078042746
-1.0217787 0.36406264 -0.10880867
-0.99738902 0.34850022 -0.1385569
-0.9840526 0.33804879 -0.17200696
-1.0557201 0.38324422 -0.055808239
-1.035386 0.36775044 -0.088480279
-1.0170248 0.35424539 -0.12007906
-0.99767166 0.3387371 -0.15173265
-1.0763103 0.39095643 -0.035276271
-1.0449643 0.36938801 -0.066263795
-1.022597 0.352851 -0.096992135
-1.0082726 0.33939651 -0.13051507
-1.0798751 0.39155459 -0.012190886
-1.0615444 0.37506813 -0.044843376
-1.0401996 0.35755304 -0.076570585
-1.0298744 0.34411287 -0.11001837
-1.1044194 0.40124464 0.010451615
-1.0651132 0.37466645 -0.021776006
-1.0567689 0.36121538 -0.054186538
-1.0304327 0.34168264 -0.086043745
-1.1039701 0.40081051 0.034443475
-1.0906612 0.3833603 0.00086725503
-1.0693427 0.36386356 -0.031895652
-1.0500202 0.34537384 -0.064602971
-1.119509 0.40745068 0.057862461
-1.1022127 0.38698661 0.024157025
-1.0858895 0.36850765 -0.0084939227
-1.0565883 0.34498292 -0.041479237
-1.134052 0.41308749 0.081244633
-1.1137453 0.39059487 0.048446454
-1.0904393 0.36809149 0.015591905
-1.0781529 0.34966311 -0.018983215
-1.1415669 0.41666326 0.10645856
-1.1212866 0.39218912 0.072624676
-1.1069858 0.37273562 0.038993631
-1.0826839 0.34922883 0.0061022714
-0.02611593 -0.059798401 0.050936799
-1.1447937 0.40183941 0.097247705
-1.1185038 0.37532595 0.0642647
-1.1042069 0.35487258 0.030615646
-1.1964889 0.43991953 0.15992565
-1.1612803 0.40742904 0.12366644
-1.1440144 0.38398355 0.088907287
-1.1227157 0.35948771 0.056054283
-1.187034 0.43643549 0.18469401
-0.02611593 -0.059798401 0.050936799
-1.1605009 0.38957325 0.11532603
-0.02611593 -0.059798401 0.050936799
-1.2184263 0.45102325 0.21455576
-1.1912314 0.41957939 0.17746523
-1.1749729 0.39413783 0.14268883
-1.1577188 0.36769286 0.10787562
-1.2099489 0.44852459 0.24036059
-1.2007082 0.42312619 0.20471606
-0.02611593 -0.059798401 0.050936799
-0.02611593 -0.059798401 0.050936799
-1.2661811 0.47409153 0.27688825
-1.2290713 0.43566728 0.23648471
-1.2148393 0.40825135 0.20071021
-1.2095566 0.38383102 0.16715819
-1.2626535 0.47457409 0.30484042
-1.2663836 0.451204 0.27047586
-1.2362235 0.41576818 0.23225723
-1.2269906 0.38837019 0.19657668
-1.2889757 0.48807171 0.33858886
-1.2708281 0.45369685 0.29961404
-1.2566079 0.42328143 0.26378548
-1.2363967 0.39084479 0.22780812
-1.3361464 0.51053452 0.378892
-1.2921669 0.4631772 0.33319646
-1.2859187 0.43477201 0.29855388
-1.2298852 0.3873173 0.25563183
-1.3663663 0.52595574 0.41774991
-1.3065149 0.47063273 0.36661127
-1.3032514 0.4412204 0.33300674
-0.02611593 -0.059798401 0.050936799
-1.6160188 0.63904989 0.52350569
-1.3407154 0.4860501 0.40654403
-1.2996902 0.44066697 0.36294019
-0.02611593 -0.059798401 0.050936799
-1.6143147 0.6413765 0.5605284
-1.674808 0.62802839 0.53741169
-1.3249456 0.45208892 0.40063244
-1.2998228 0.41169 0.36141801
-1.6046571 0.64171094 0.59536546
-1.7038263 0.64224714 0.58722913
-1.786217 0.63490462 0.56863254
-1.3349936 0.42507514 0.40333283
-1.5969765 0.64303434 0.63125777
-1.6941165 0.64152741 0.62504709
-1.8092107 0.64606613 0.62028247
-1.7972707 0.59686005 0.5731529
-1.5823691 0.64038748 0.66394746
-1.6863836 0.64179671 0.6639204
-1.801407 0.64526314 0.66313636
-1.9284734 0.64680916 0.66054249
-1.5677578 0.63874042 0.69665515
-1.6736969 0.64008451 0.70066434
-1.7846766 0.6404829 0.70275009
-1.9225756 0.64592296 0.70843226
-1.5551234 0.63808227 0.73041821
-1.6599919 0.63835061 0.73838913
-1.7768502 0.6406616 0.74662161
-1.9136823 0.64402616 0.75624764
-1.540508 0.63743508 0.76314396
-1.6512552 0.63961607 0.77726167
-1.7621118 0.63788813 0.786309
-1.9017895 0.64211863 0.80400664
-1.5239159 0.63579905 0.79481447
-1.6355692 0.6378932 0.81394929
-1.7552625 0.63905227 0.83121705
-1.8918965 0.64021826 0.85180324
-1.512236 0.63710803 0.83063161
-1.620883 0.63617378 0.85065567
-1.7395015 0.63725698 0.8719033
-1.8790187 0.63932502 0.89856184
-1.4956623 0.63548994 0.86130238
-1.6101468 0.6374321 0.88949054
-1.7237217 0.63544357 0.91358918
-1.8710611 0.63937712 0.94943106
-1.4820242 0.63582814 0.89506459
-1.5954378 0.63669443 0.92721456
-1.7119149 0.63562608 0.95638591
-1.85123 0.63649523 0.99402273
-1.4644283 0.63518828 0.92673439
-1.5747939 0.63398981 0.96179092
-1.6981082 0.63580143 0.99914503
-1.8491807 0.64049602 1.0490754
-1.441901 0.63158524 0.95525706
-1.5551461 0.63228869 0.99640393
-1.6793478 0.63399541 1.0397749
-1.8243958 0.63563269 1.0915378
-1.4233279 0.62996 0.98589027
-1.5394522 0.63256544 1.0331275
-1.6596063 0.63220376 1.0793864
-1.8015652 0.63274002 1.1360731
-1.4027698 0.6293456 1.0155044
-1.5168275 0.62987185 1.0666666
-1.645777 0.63336086 1.1231632
-1.7807115 0.63083631 1.1816636
-1.3861511 0.62969112 1.0482105
-1.4961758 0.6291669 1.101279
-1.6220589 0.63057315 1.1616818
-1.762812 0.63090688 1.229346
-1.3616617 0.62611711 1.0746963
-1.4745282 0.62745857 1.1358545
-1.5934017 0.62682199 1.1970893
-1.7389816 0.62801063 1.2738625
-1.3430619 0.62647343 1.1063653
-1.4519185 0.62578285 1.1684119
-1.5726565 0.62602663 1.2367001
-1.7161243 0.62709963 1.3194335
-1.3215454 0.62489176 1.1339431
-1.4273276 0.62411809 1.199932
-1.5459763 0.62326443 1.2731628
-1.6843741 0.62324721 1.3597832
-1.2980254 0.62430274 1.1615015
-1.4036992 0.62242067 1.2334704
-1.5183152 0.62051666 1.3086072
-1.6644337 0.62427425 1.4094452
-1.2745131 0.62171406 1.1890237
-1.3800855 0.62174118 1.266027
-1.4935893 0.61972505 1.3471431
-1.6405765 0.62335956 1.4549973
-1.2529554 0.62109596 1.218619
-1.3535178 0.6190874 1.2964919
-1.4668866 0.61794448 1.3846236
-1.6166556 0.6243903 1.5035845
-1.2245378 0.61857975 1.2410489
-1.3279045 0.61840075 1.329011
-1.4392027 0.61617845 1.4210857
-1.5829017 0.62153059 1.5439146
-1.2049342 0.61993235 1.2727172
-1.2983974 0.61479074 1.3564025
-1.4095566 0.61444145 1.455511
-1.5423295 0.61580902 1.5750622
-1.1794786 0.61739075 1.2972029
-1.2747611 0.61509299 1.3899767
-1.3798879 0.61368614 1.4909537
-1.5085946 0.61296737 1.6143924
-1.153959 0.61679459 1.3247237
-1.2442462 0.61347902 1.4173855
-1.3502232 0.61193109 1.5263786
-1.4748369 0.61110747 1.6547405
-1.1284994 0.61525279 1.3492274
-1.2176518 0.61280686 1.4488862
-1.3195921 0.61120844 1.5598034
-1.4410565 0.61022931 1.696106
-1.1059113 0.6176126 1.3798575
-1.1871371 0.61119282 1.4762949
-1.2869467 0.60946059 1.5941722
-1.4043556 0.60841286 1.7333987
-1.077475 0.61507827 1.4032873
-1.1644366 0.61344409 1.512923
-1.2543385 0.60774899 1.6265417
-1.3695943 0.60754919 1.7737459
-1.0529511 0.61548549 1.4308449
-1.1319448 0.61084121 1.5392766
-1.2265828 0.60992795 1.6660749
-1.3308938 0.60572559 1.8110011
-1.0215942 0.61201298 1.4502015
-1.1014072 0.61020893 1.567703
-1.1900316 0.60825634 1.6953703
-1.28931 0.60299993 1.8421837
-0.99412709 0.61246365 1.4747038
-1.0689303 0.60862392 1.5930748
-1.1525033 0.60559928 1.7236291
-1.2554617 0.60506701 1.8866024
-0.96374726 0.60997647 1.4950968
-1.0364494 0.60803878 1.6184647
-1.1178918 0.60488033 1.7559792
-1.2147988 0.60327238 1.9218205
-0.93530303 0.60944182 1.5185626
-1.003935 0.6064176 1.645836
-1.0803593 0.60322309 1.784256
-1.17217 0.60250664 1.9550198
-0.90587771 0.60892171 1.5410098
-0.96947706 0.6048435 1.6701705
-1.0408649 0.60159492 1.810496
-1.129545 0.60074103 1.9882011
-0.879309 0.61128515 1.5705652
-0.93503779 0.60328752 1.6935055
-1.0061892 0.60282129 1.845881
-1.0810976 0.59711707 2.0122366
-0.84313327 0.60495806 1.5807768
-0.89963633 0.60176414 1.7148224
-0.96767199 0.60217845 1.8731574
-1.0403895 0.59728593 2.0494902
-0.81562483 0.60637242 1.6072965
-0.86327618 0.5992735 1.7341031
-0.92527956 0.59863025 1.8943067
-0.99195689 0.59467983 2.0725441
-0.78326011 0.60489589 1.6266704
-0.82875425 0.59964472 1.7614727
-0.8876794 0.59991831 1.9256366
-0.94924128 0.59684122 2.109796
-0.75091028 0.60443735 1.6450626
-0.79139054 0.59815043 1.7807527
-0.84427929 0.59836614 1.9468031
-0.89695209 0.59134799 2.1257231
-0.71854562 0.60296094 1.6644365
-0.75592488 0.59857237 1.8051046
-0.80086434 0.59579611 1.9689513
-0.85135329 0.59260726 2.1569028
-0.68426007 0.60054982 1.6797562
-0.71376503 0.59324157 1.814222
-0.75650185 0.59427661 1.9880998
-0.80566102 0.59377611 2.1930807
-0.65092909 0.60010576 1.69713
-0.67543894 0.59177977 1.8314838
-0.7140789 0.59370983 2.0103028
-0.75430375 0.59123164 2.2120793
-0.61758333 0.59864384 1.7154855
-0.64081156 0.59506017 1.8639059
-0.67159593 0.59408855 2.0355229
-0.7067014 0.59348357 2.2432396
-0.58133566 0.5962618 1.7287681
-0.60248148 0.59459817 1.8811858
-0.62627101 0.59260172 2.0526531
-0.65340072 0.59098625 2.2592018
-0.54796332 0.59678137 1.7481593
-0.56407261 0.59506369 1.9024822
-0.58089006 0.59106052 2.0727823
-0.59085637 0.57814223 2.2367909
-0.51454961 0.59826463 1.7695677
-0.5228259 0.59266365 1.915671
-0.5346216 0.58962423 2.0868948
-0.52381265 0.55773377 2.1891506
-0.47925648 0.59784955 1.7849048
-0.48157522 0.59126341 1.9288778
-0.48833439 0.58816993 2.1020069
-0.46064395 0.54023075 2.1476369
-0.44394463 0.59741646 1.8012414
-0.44124556 0.59079421 1.94612
-0.44098723 0.58765751 2.1201174
-0.39868885 0.52093065 2.0951099
-0.40583226 0.594154 1.8074708
-0.39993474 0.59033954 1.9623438
-0.3874788 0.57488191 2.0958765
-0.34337589 0.50632912 2.0607986
-0.37047902 0.59468454 1.8258249
-0.35769904 0.58995366 1.9745502
-0.33328581 0.55839294 2.0555499
-0.28997979 0.49366209 2.0305595
-0.33320493 0.59428042 1.8401244
-0.31548598 0.58858603 1.9857391
-0.28181446 0.54566073 2.0293469
-0.24528241 0.50085169 2.0658648
-0.29590824 0.59485799 1.8554417
-0.27315274 0.58910954 2.0029616
-0.24079713 0.55757433 2.0808117
-0.20193142 0.51644987 2.1343584
-0.2567547 0.59255564 1.8636699
-0.22997729 0.58777452 2.0121324
-0.19847952 0.57421219 2.1473432
-0.15552096 0.53298289 2.2058129
-0.218537 0.59220219 1.8749517
-0.18589959 0.58552647 2.0162678
-0.1517224 0.58234012 2.1856275
-0.11031489 0.57589394 2.3677974
-0.18037939 0.5909031 1.8832166
-0.1426414 0.5861187 2.0294731
-0.10170197 0.5801248 2.1866515
-0.054351721 0.5737114 2.3657098
-0.14016202 0.5905425 1.8944609
-0.097623982 0.58292156 2.0305729
-0.052681331 0.57791311 2.1876941
0.0016902797 0.5724563 2.3676383
-0.10104203 0.58927602 1.9007076
-0.05338078 0.58452815 2.0427775
-0.0025820732 0.57662529 2.1927345
0.055751357 0.57119024 2.3706043
-0.061959475 0.58804578 1.9049551
-0.0093405172 0.58231634 2.0449138
0.046562664 0.57730454 2.1998291
0.11183865 0.5718987 2.3745682
-0.020700935 0.58864522 1.918198
0.034662299 0.58014065 2.0450506
0.096526936 0.57514358 2.1978538
0.16766685 0.56884301 2.3654647
0.018419057 0.58737886 1.9244448
0.080784939 0.57984895 2.0511839
0.14651385 0.57396424 2.1968963
0.22257796 0.56771809 2.3604147
0.059565265 0.58808678 1.9316897
0.12593041 0.58054256 2.0583537
0.19656089 0.57373053 2.1989558
-0.02611593 -0.059798401 0.050936799
0.10056862 0.58592188 1.931883
0.17085816 0.57843566 2.0544729
-0.02611593 -0.059798401 0.050936799
0.16391326 0.27063999 1.2647676
0.14163209 0.58470261 1.935093
-0.02611593 -0.059798401 0.050936799
0.14434779 0.27322388 1.1811523
0.21868987 0.30991375 1.4044998
0.18363529 0.58253413 1.9352677
0.13639128 0.29830262 1.1787541
0.34957817 0.57514489 2.1981161
0.26160234 0.32392839 1.4499652
-0.02611593 -0.059798401 0.050936799
0.16128524 0.29630369 1.1732501
0.25390196 0.35678864 1.4597073
0.50105888 0.56716901 2.3301804
0.14726579 0.31945857 1.1679296
0.35697392 0.57762343 2.0589755
0.29118088 0.36240157 1.4731153
0.55048317 0.56151515 2.3001425
0.16769452 0.30889153 1.1393462
0.27830103 0.39244315 1.4739002
0.49688706 0.56822997 2.1612203
0.60634577 0.56244063 2.2921107
0.2128205 0.34481332 1.245187
0.44664216 0.57359052 2.0412176
0.5456869 0.56723523 2.1502852
0.6601339 0.56344569 2.2801178
0.39679831 0.58057082 1.9422433
0.49357739 0.57347614 2.0373352
0.59760648 0.56812072 2.1453273
0.71386188 0.56350505 2.2651079
0.44079024 0.58041292 1.9414165
0.54157251 0.57430369 2.0364513
0.64317042 0.5643543 2.1223984
0.45753956 0.3201988 1.3922099
0.48374498 0.58029479 1.9386094
0.5884102 0.57327992 2.0275528
0.69509387 0.56623971 2.1174586
0.45869964 0.29687461 1.2987345
0.52661687 0.57824939 1.9317672
0.63315082 0.57135391 2.0136757
0.74595743 0.56718308 2.1095207
0.38874024 0.22764271 1.0487072
0.57158995 0.57810593 1.9299221
0.67999238 0.57132995 2.0047953
-0.02611593 -0.059798401 0.050936799
0.52561343 0.30172375 1.2925674
0.61440963 0.57711452 1.920099
0.72473288 0.56940389 1.9909182
0.41540018 0.25801954 1.0777676
0.97614729 0.5641675 2.1711774
0.65722543 0.57512343 1.9102582
-0.02611593 -0.059798401 0.050936799
0.53857028 0.32479981 1.2857399
1.0225503 0.56256002 2.1392686
-0.02611593 -0.059798401 0.050936799
-0.02611593 -0.059798401 0.050936799
0.94491762 0.56944185 2.0518169
1.0720694 0.5618329 2.1133196
0.3867389 0.27984005 1.0386856
0.52974194 0.33365923 1.24005
0.98835492 0.566809 2.021946
1.1205922 0.56210929 2.0874074
0.53107858 0.37251279 1.3037493
0.9150396 0.57336903 1.9514134
1.0349303 0.56603843 1.9990522
1.159779 0.55772632 2.0445797
-0.02611593 -0.059798401 0.050936799
0.95342851 0.56779075 1.9195828
1.079469 0.56531125 1.9741968
1.2155262 0.5627777 2.0296223
0.88565236 0.57782561 1.8770189
1.0011764 0.56785369 1.9056853
1.1250074 0.56458044 1.9493226
1.2557915 0.5593186 1.9907928
0.92313504 0.57216048 1.8502055
1.047932 0.56991976 1.8918426
1.1715868 0.56480968 1.9264469
1.3063635 0.56255114 1.9668963
0.9720403 0.5740748 1.8443227
1.0925455 0.56912029 1.8709859
1.2171477 0.56506062 1.9025903
1.3497149 0.56200844 1.9320631
1.018867 0.57506877 1.8344605
1.1350806 0.5674004 1.8461499
1.2606342 0.56539112 1.8747725
1.3879883 0.56055617 1.8933071
1.0594772 0.57328373 1.8136609
1.1796979 0.56760067 1.8253111
1.3030794 0.56476158 1.8449565
1.432385 0.56197345 1.8604904
1.1031283 0.57245159 1.7948222
1.224334 0.56778282 1.805472
1.3455245 0.56413203 1.8151402
1.4747405 0.56243408 1.8256938
1.146798 0.57160139 1.7769831
1.2657981 0.56713879 1.7766744
1.3910334 0.56543708 1.7883027
1.5160775 0.56291652 1.7899166
1.1914301 0.57078373 1.7571261
1.3073184 0.56644046 1.7508756
1.4344863 0.56680357 1.7585039
1.5553588 0.56346029 1.7511779
1.239167 0.57286435 1.7422647
1.3559804 0.56858987 1.731997
1.4748757 0.56623548 1.7257261
1.595696 0.56394625 1.7154192
1.2817208 0.57112646 1.7184286
1.396426 0.56796747 1.7022184
1.5152692 0.56666714 1.6929666
1.6339813 0.56549352 1.6767173
1.3232784 0.57039195 1.6946291
1.4399724 0.56924349 1.6774178
1.5546213 0.56613886 1.6582085
1.665125 0.56419301 1.6310952
1.3658361 0.56965381 1.6708109
1.4834589 0.569574 1.6496001
1.5949999 0.56758839 1.6244674
1.7034104 0.56574029 1.5923933
1.414498 0.57180327 1.6519325
1.5249082 0.56994784 1.6198207
1.6282369 0.56619036 1.583806
1.7355953 0.56539983 1.5487697
1.4580406 0.57207942 1.6271137
1.5622568 0.56842685 1.5850823
1.6665783 0.56768334 1.548103
1.7749071 0.56892508 1.5110848
1.5036016 0.57233042 1.6032571
1.6057323 0.57077509 1.5563009
1.7049159 0.56817645 1.512382
1.807096 0.56958449 1.4674792
1.5491517 0.57459909 1.578437
1.6481854 0.57214516 1.5265208
1.7381608 0.56877798 1.4717567
1.8382664 0.57026553 1.4228928
1.5875335 0.57203853 1.545661
1.6875415 0.5726167 1.4917806
1.7764837 0.57028902 1.4350542
1.8714777 0.57190305 1.3802862
1.6330462 0.57434338 1.5188413
1.7228345 0.57115704 1.4540808
1.8127693 0.57184345 1.3963898
1.896589 0.5716601 1.3327955
1.6764952 0.57471001 1.4890244
1.7581352 0.57169718 1.4164168
1.847014 0.5724414 1.3557456
1.9277821 0.57332289 1.2892268
1.7158662 0.57416362 1.455266
1.8015356 0.57411778 1.383637
1.880244 0.57406086 1.3141387
1.9538971 0.57407618 1.2417355
1.7593004 0.57554823 1.4244673
1.8368176 0.57467604 1.3449733
1.9114518 0.57470578 1.2715516
1.9830756 0.57676417 1.1972227
1.8006562 0.57601249 1.3896897
1.8730994 0.5752306 1.306291
1.9467041 0.57729983 1.2309247
2.0061727 0.5775463 1.1487879
1.8430492 0.576437 1.3568926
1.9134258 0.57773423 1.2695688
1.9789156 0.57894093 1.188337
2.0302694 0.57832485 1.1003344
1.8803267 0.57598817 1.3181734
1.9496927 0.57930672 1.2299048
2.0050454 0.57867628 1.1418271
2.0493484 0.57913947 1.0509752
1.9257084 0.57841969 1.2843562
1.9818964 0.57894826 1.1872808
2.035224 0.58136064 1.0972955
2.072449 0.58092135 1.0025585
1.9609301 0.57803231 1.2426757
2.0161076 0.5805822 1.1446555
2.060358 0.58209938 1.0508225
2.0915282 0.58173597 0.95319939
2.0001926 0.57859427 1.2029372
2.0462782 0.58126682 1.1000879
2.083451 0.5818817 1.0023699
2.1136329 0.58452129 0.90481949
2.0394592 0.58015597 1.1632169
2.0754302 0.5819732 1.0545394
2.1055295 0.58268553 0.95295429
2.1306934 0.58536118 0.85449821
2.0746474 0.58080459 1.1195549
2.1015415 0.58172667 1.00703
2.131671 0.58542043 0.90649861
2.1457584 0.58720809 0.80423254
2.1118541 0.58142793 1.0768551
2.1336968 0.58342206 0.96144319
2.1587899 0.58716995 0.8590064
2.162823 0.58904773 0.75392926
2.1490462 0.58306926 1.0331738
2.1618299 0.58415008 0.91491377
2.1738284 0.58703524 0.80770504
2.176888 0.59089822 0.7036823
2.1811748 0.58278304 0.98655117
2.192971 0.58686697 0.86836416
2.1908889 0.58787507 0.7573837
2.1838865 0.58982855 0.65051401
2.2213514 0.58543152 0.94183171
2.2160263 0.58668548 0.8179121
2.2099528 0.58970755 0.70704287
2.1989551 0.59267527 0.60026628
2.2544465 0.58617771 0.8932091
2.2401044 0.58748215 0.76845896
2.2259722 0.58958739 0.65472305
2.2100019 0.59455454 0.54907614
2.2815237 0.58696365 0.84369957
2.2681897 0.59026414 0.7189666
2.2400148 0.59045607 0.60345846
2.2150273 0.59547365 0.49698099
2.3196447 0.58967352 0.79601872
2.2872126 0.591133 0.66660845
2.2480168 0.59038258 0.55028927
2.2240748 0.59736007 0.44582841
2.3446441 0.58953917 0.74253005
2.3082538 0.59197658 0.61521238
2.2731104 0.59517503 0.50088942
2.2260964 0.5972901 0.39377159
2.3726649 0.59037572 0.6900028
2.3302798 0.59383446 0.56281585
2.2851346 0.59606898 0.44866276
2.2351477 0.60017645 0.34263703
2.3996675 0.59123391 0.63649464
2.3472652 0.59474665 0.50849593
2.2901182 0.59602451 0.39455035
2.2411766 0.60209179 0.29054117
2.4316769 0.59407383 0.58292854
2.3672731 0.5966298 0.45513725
2.300128 0.59794354 0.34137958
2.2311742 0.60008335 0.23767416
2.4556427 0.59497899 0.52747738
2.3832405 0.59756368 0.39983648
2.3071342 0.59887356 0.28824723
2.2342229 0.60199136 0.18663429
2.4805894 0.59589869 0.47100785
2.4012332 0.60047197 0.34553379
2.3091187 0.59883976 0.23419116
2.2402744 0.60488838 0.1355561
2.499496 0.59587628 0.41263366
2.4071574 0.5994783 0.28838554
2.3201323 0.60175508 0.18101966
2.2373197 0.60581815 0.084610969
2.5234282 0.59781736 0.35520127
2.430135 0.60338652 0.23300725
2.3271422 0.6036849 0.12790532
2.2383726 0.60873318 0.033626694
2.5433049 0.59982723 0.29484499
2.4380662 0.60438532 0.17585745
2.3411403 0.60760736 0.073695824
2.2204237 0.6056993 -0.016108986
2.5251079 0.5910114 0.23300526
2.4500003 0.60636961 0.11865052
2.3501205 0.61156589 0.018580623
2.230468 0.61159962 -0.068207972
2.4507949 0.56947118 0.1679849
2.4529099 0.60640454 0.060576998
2.3411217 0.61055362 -0.034287125
-0.02611593 -0.059798401 0.050936799
2.4687097 0.57145208 0.10966556
2.4468508 0.60443598 0.0046358788
2.3141067 0.60460687 -0.086906739
1.0682613 0.26887965 -0.055643544
2.4535615 0.56558883 0.049822841
2.3457291 0.57779449 -0.048970945
2.2681091 0.59269309 -0.13727812
1.0627941 0.26934981 -0.080541119
2.4514639 0.56364214 -0.0081927683
2.3066778 0.56690979 -0.10245483
-0.02611593 -0.059798401 0.050936799
0.98345613 0.24689052 -0.093466356
2.3253236 0.53109139 -0.061437942
-0.02611593 -0.059798401 0.050936799
1.0226313 0.24055256 -0.083311014
0.95906246 0.24133942 -0.11311671
1.2485527 0.25989133 -0.040176425
1.0838223 0.23913482 -0.073478982
1.0101951 0.23901203 -0.10611379
1.083373 0.28167999 -0.15872987
1.1740195 0.24061252 -0.064137824
1.0843204 0.24061947 -0.10047062
1.0676334 0.2563979 -0.13988613
1.0350124 0.26916194 -0.1750564
2.3501058 0.53610188 -0.23386975
2.3883939 0.5948118 -0.33655941
1.0581818 0.25586456 -0.1637269
0.94982123 0.24557962 -0.17988962
2.4129214 0.55306333 -0.30076167
-0.02611593 -0.059798401 0.050936799
1.0138284 0.24533184 -0.18009256
0.95737141 0.25100228 -0.20494138
2.5026054 0.57607162 -0.37605014
1.0958024 0.24705528 -0.182597
1.0063764 0.24479122 -0.20397091
0.91909575 0.24137551 -0.21740314
2.2510672 0.51430875 -0.39046279
2.2774699 0.57295322 -0.48692897
1.0318304 0.25525701 -0.23526879
0.94158787 0.25181586 -0.24664529
2.2799137 0.52333933 -0.45386097
2.2853827 0.5789873 -0.54598796
1.0124249 0.25170577 -0.25597671
0.92920768 0.25022104 -0.26644909
2.3097224 0.53240252 -0.51927733
-0.02611593 -0.059798401 0.050936799
1.004977 0.25216499 -0.27983704
0.21757682 0.019828366 -0.036214955
2.4032342 0.55957663 -0.60456544
2.4205949 0.6263243 -0.7047171
-0.02611593 -0.059798401 0.050936799
0.19759436 0.013864982 -0.033947937
2.4926682 0.5858376 -0.69379514
-0.02611593 -0.059798401 0.050936799
0.20059681 0.0098368032 -0.033076715
-0.02611593 -0.059798401 0.050936799
2.4317255 0.57292354 -0.74090374
0.20858358 0.0068086078 -0.033281092
0.19253425 0.0079201283 -0.035961412
0.17055309 0.0069811647 -0.034566373
2.3728092 0.561984 -0.78701413
0.19355188 0.002881208 -0.034070976
-0.02611593 -0.059798401 0.050936799
-0.02611593 -0.059798401 0.050936799
-0.02611593 -0.059798401 0.050936799
-0.02611593 -0.059798401 0.050936799
0.16551171 0.0010182144 -0.035580195
0.15051839 0.0020718789 -0.035280321
0.18552585 -0.0040888917 -0.03404678
0.17247991 -0.0019883071 -0.036765452
-0.02611593 -0.059798401 0.050936799
-0.02611593 -0.059798401 0.050936799
-0.02611593 -0.059798401 0.050936799
-0.02611593 -0.059798401 0.050936799
0.14150733 -0.0059125479 -0.034255687
0.13348313 -0.0028481665 -0.03605064
0.15850331 -0.010990798 -0.033665568
0.15144542 -0.0068940008 -0.037460603
-0.02611593 -0.059798401 0.050936799
-0.02611593 -0.059798401 0.050936799
-0.02611593 -0.059798401 0.050936799
-0.02611593 -0.059798401 0.050936799
0.12251382 -0.0098617701 -0.032971088
0.11550424 -0.0078188973 -0.033803169
0.13847253 -0.014900253 -0.034361482
0.13539517 -0.010799719 -0.039231349
-0.02611593 -0.059798401 0.050936799
-0.02611593 -0.059798401 0.050936799
-0.02611593 -0.059798401 0.050936799
-0.02611593 -0.059798401 0.050936799
0.10848195 -0.013792751 -0.033779748
0.10149108 -0.011767971 -0.033612173
0.1214412 -0.018820472 -0.035113782
0.11243591 -0.015770592 -0.035890281
-0.02611593 -0.059798401 0.050936799
-0.02611593 -0.059798401 0.050936799
-0.02611593 -0.059798401 0.050936799
-0.02611593 -0.059798401 0.050936799
0.097457379 -0.015734846 -0.034608755
0.088500395 -0.014738897 -0.032422304
0.10741326 -0.021751627 -0.035904437
0.10140742 -0.018712515 -0.036737297
-0.02611593 -0.059798401 0.050936799
-0.02611593 -0.059798401 0.050936799
-0.02611593 -0.059798401 0.050936799
-0.02611593 -0.059798401 0.050936799
0.084466696 -0.01870577 -0.033418864
0.080460496 -0.015673835 -0.034289315
0.09340404 -0.024700869 -0.035695426
0.090382859 -0.020654611 -0.0375663
-0.02611593 -0.059798401 0.050936799
-0.02611593 -0.059798401 0.050936799
-0.02611593 -0.059798401 0.050936799
-0.02611593 -0.059798401 0.050936799
0.073475651 -0.02168387 -0.032266572
0.07538259 -0.016583364 -0.038212024
0.083379298 -0.026646553 -0.036543213
0.078391999 -0.02362912 -0.036395207
-0.02611593 -0.059798401 0.050936799
-0.02611593 -0.059798401 0.050936799
-0.02611593 -0.059798401 0.050936799
-0.02611593 -0.059798401 0.050936799
0.066435553 -0.022622401 -0.034152374
0.063429162 -0.019594051 -0.035041615
0.075339384 -0.027581494 -0.038410228
0.068385966 -0.025592888 -0.036243342
-0.02611593 -0.059798401 0.050936799
-0.02611593 -0.059798401 0.050936799
-0.02611593 -0.059798401 0.050936799
-0.02611593 -0.059798401 0.050936799
0.058429174 -0.024593346 -0.034038089
0.059373729 -0.019525429 -0.037965432
0.064352266 -0.029559767 -0.037239909
0.061345875 -0.026531419 -0.03812914
-0.02611593 -0.059798401 0.050936799
-0.02611593 -0.059798401 0.050936799
-0.02611593 -0.059798401 0.050936799
-0.02611593 -0.059798401 0.050936799
0.051426526 -0.025568055 -0.033924576
0.050401043 -0.022528799 -0.035851054
0.052417565 -0.032588542 -0.033069827
0.054343231 -0.027506126 -0.038015626
-0.02611593 -0.059798401 0.050936799
-0.02611593 -0.059798401 0.050936799
-0.02611593 -0.059798401 0.050936799
-0.02611593 -0.059798401 0.050936799
0.043438856 -0.027557094 -0.032810617
0.038499862 -0.026593586 -0.029699668
0.046381224 -0.032530833 -0.034956418
0.044374648 -0.029506076 -0.035864439
-0.02611593 -0.059798401 0.050936799
-0.02611593 -0.059798401 0.050936799
-0.02611593 -0.059798401 0.050936799
-0.02611593 -0.059798401 0.050936799
0.036436211 -0.028531801 -0.032697104
0.033496853 -0.027575472 -0.029623736
0.039393369 -0.034523457 -0.033861253
0.040319219 -0.029437454 -0.038788263
-0.02611593 -0.059798401 0.050936799
-0.02611593 -0.059798401 0.050936799
-0.02611593 -0.059798401 0.050936799
-0.02611593 -0.059798401 0.050936799
0.032414291 -0.029499188 -0.033639628
0.031407531 -0.026478019 -0.034566447
0.034319393 -0.03443316 -0.037765946
0.034316383 -0.030415747 -0.03869354
-0.02611593 -0.059798401 0.050936799
-0.02611593 -0.059798401 0.050936799
-0.02611593 -0.059798401 0.050936799
-0.02611593 -0.059798401 0.050936799
0.025449088 -0.030510072 -0.031526797
0.024442332 -0.027488906 -0.032453597
0.030263957 -0.034364536 -0.04068977
0.025385065 -0.032455467 -0.034561817
-0.02611593 -0.059798401 0.050936799
-0.02611593 -0.059798401 0.050936799
-0.02611593 -0.059798401 0.050936799
-0.02611593 -0.059798401 0.050936799
0.021412373 -0.030459536 -0.03345095
-0.02611593 -0.059798401 0.050936799
0.021370083 -0.036440432 -0.034558725
0.019382231 -0.033433761 -0.03446709
-0.02611593 -0.059798401 0.050936799
-0.02611593 -0.059798401 0.050936799
-0.02611593 -0.059798401 0.050936799
-0.02611593 -0.059798401 0.050936799
0.017375663 -0.030409005 -0.035375115
-0.02611593 -0.059798401 0.050936799
-0.02611593 -0.059798401 0.050936799
0.01731164 -0.0323544 -0.038410135
-0.02611593 -0.059798401 0.050936799
-0.02611593 -0.059798401 0.050936799
-0.02611593 -0.059798401 0.050936799
-0.02611593 -0.059798401 0.050936799
-0.02611593 -0.059798401 0.050936799
-0.02611593 -0.059798401 0.050936799
-0.02611593 -0.059798401 0.050936799
0.011308807 -0.033332694 -0.038315412
-0.02611593 -0.059798401 0.050936799
-0.02611593 -0.059798401 0.050936799
-0.02611593 -0.059798401 0.050936799
-0.02611593 -0.059798401 0.050936799
0.0083359331 -0.031340357 -0.037223335
-0.02611593 -0.059798401 0.050936799
-0.02611593 -0.059798401 0.050936799
-0.02611593 -0.059798401 0.050936799
-0.02611593 -0.059798401 0.050936799
-0.02611593 -0.059798401 0.050936799
-0.02611593 -0.059798401 0.050936799
-0.02611593 -0.059798401 0.050936799
0.0042992206 -0.031289823 -0.0391475
-0.02611593 -0.059798401 0.050936799
-0.02611593 -0.059798401 0.050936799
-0.02611593 -0.059798401 0.050936799
-0.02611593 -0.059798401 0.050936799
-0.02611593 -0.059798401 0.050936799
-0.02611593 -0.059798401 0.050936799
-0.02611593 -0.059798401 0.050936799
-0.02611593 -0.059798401 0.050936799
-0.02611593 -0.059798401 0.050936799
-0.02611593 -0.059798401 0.050936799
-0.02611593 -0.059798401 0.050936799
-0.02611593 -0.059798401 0.050936799
-0.02611593 -0.059798401 0.050936799
-0.02611593 -0.059798401 0.050936799
-0.02611593 -0.059798401 0.050936799
-0.02611593 -0.059798401 0.050936799
-0.02611593 -0.059798401 0.050936799
-0.02611593 -0.059798401 0.050936799
-0.02611593 -0.059798401 0.050936799
-0.02611593 -0.059798401 0.050936799
-0.02611593 -0.059798401 0.050936799
-0.02611593 -0.059798401 0.050936799
-0.02611593 -0.059798401 0.050936799
-0.02611593 -0.059798401 0.050936799
-0.02611593 -0.059798401 0.050936799
-0.02611593 -0.059798401 0.050936799
-0.02611593 -0.059798401 0.050936799
-0.02611593 -0.059798401 0.050936799
-0.02611593 -0.059798401 0.050936799
-0.02611593 -0.059798401 0.050936799
-0.02611593 -0.059798401 0.050936799
-0.02611593 -0.059798401 0.050936799
-0.02611593 -0.059798401 0.050936799
-0.02611593 -0.059798401 0.050936799
-0.02611593 -0.059798401 0.050936799
-0.02611593 -0.059798401 0.050936799
-0.02611593 -0.059798401 0.050936799
-0.02611593 -0.059798401 0.050936799
-0.02611593 -0.059798401 0.050936799
-0.02611593 -0.059798401 0.050936799
-0.02611593 -0.059798401 0.050936799
-0.02611593 -0.059798401 0.050936799
-0.02611593 -0.059798401 0.050936799
-0.02611593 -0.059798401 0.050936799
-0.02611593 -0.059798401 0.050936799
-0.02611593 -0.059798401 0.050936799
-0.02611593 -0.059798401 0.050936799
-0.02611593 -0.059798401 0.050936799
-0.02611593 -0.059798401 0.050936799
-0.02611593 -0.059798401 0.050936799
-0.02611593 -0.059798401 0.050936799
-0.02611593 -0.059798401 0.050936799
-0.02611593 -0.059798401 0.050936799
-0.02611593 -0.059798401 0.050936799
-0.02611593 -0.059798401 0.050936799
-0.02611593 -0.059798401 0.050936799
-0.02611593 -0.059798401 0.050936799
-0.02611593 -0.059798401 0.050936799
-0.02611593 -0.059798401 0.050936799
-0.02611593 -0.059798401 0.050936799
-0.02611593 -0.059798401 0.050936799
-0.02611593 -0.059798401 0.050936799
-0.02611593 -0.059798401 0.050936799
-0.02611593 -0.059798401 0.050936799
-0.02611593 -0.059798401 0.050936799
-0.02611593 -0.059798401 0.050936799
-0.02611593 -0.059798401 0.050936799
-0.02611593 -0.059798401 0.050936799
-0.02611593 -0.059798401 0.050936799
-0.02611593 -0.059798401 0.050936799
-0.02611593 -0.059798401 0.050936799
-0.02611593 -0.059798401 0.050936799
-0.02611593 -0.059798401 0.050936799
-0.02611593 -0.059798401 0.050936799
-0.02611593 -0.059798401 0.050936799
-0.02611593 -0.059798401 0.050936799
-0.02611593 -0.059798401 0.050936799
-0.02611593 -0.059798401 0.050936799
-0.02611593 -0.059798401 0.050936799
-0.02611593 -0.059798401 0.050936799
-0.02611593 -0.059798401 0.050936799
-0.02611593 -0.059798401 0.050936799
-0.02611593 -0.059798401 0.050936799
-0.02611593 -0.059798401 0.050936799
-0.02611593 -0.059798401 0.050936799
-0.02611593 -0.059798401 0.050936799
-0.02611593 -0.059798401 0.050936799
-0.02611593 -0.059798401 0.050936799
-0.02611593 -0.059798401 0.050936799
-0.02611593 -0.059798401 0.050936799
-0.02611593 -0.059798401 0.050936799
-0.02611593 -0.059798401 0.050936799
-0.02611593 -0.059798401 0.050936799
-0.02611593 -0.059798401 0.050936799
-0.02611593 -0.059798401 0.050936799
-0.02611593 -0.059798401 0.050936799
-0.02611593 -0.059798401 0.050936799
-0.02611593 -0.059798401 0.050936799
-0.02611593 -0.059798401 0.050936799
-0.02611593 -0.059798401 0.050936799
-0.02611593 -0.059798401 0.050936799
-0.02611593 -0.059798401 0.050936799
-0.02611593 -0.059798401 0.050936799
-0.02611593 -0.059798401 0.050936799
-0.02611593 -0.059798401 0.050936799
-0.02611593 -0.059798401 0.050936799
-0.02611593 -0.059798401 0.050936799
-0.02611593 -0.059798401 0.050936799
-0.02611593 -0.059798401 0.050936799
-0.02611593 -0.059798401 0.050936799
-0.02611593 -0.059798401 0.050936799
-0.02611593 -0.059798401 0.050936799
-0.02611593 -0.059798401 0.050936799
-0.02611593 -0.059798401 0.050936799
-0.02611593 -0.059798401 0.050936799
-0.02611593 -0.059798401 0.050936799
-0.02611593 -0.059798401 0.050936799
-0.02611593 -0.059798401 0.050936799
-0.02611593 -0.059798401 0.050936799
-0.02611593 -0.059798401 0.050936799
-0.02611593 -0.059798401 0.050936799
-0.02611593 -0.059798401 0.050936799
-0.02611593 -0.059798401 0.050936799
-0.02611593 -0.059798401 0.050936799
-0.02611593 -0.059798401 0.050936799
-0.02611593 -0.059798401 0.050936799
-0.02611593 -0.059798401 0.050936799
-0.02611593 -0.059798401 0.050936799
-0.02611593 -0.059798401 0.050936799
-0.068665683 -0.035063334 -0.035848539
-0.02611593 -0.059798401 0.050936799
-0.02611593 -0.059798401 0.050936799
-0.02611593 -0.059798401 0.050936799
-0.02611593 -0.059798401 0.050936799
-0.02611593 -0.059798401 0.050936799
-0.067706324 -0.03101333 -0.038794238
-0.063665688 -0.030064035 -0.036852065
-0.073642112 -0.034063645 -0.034736909
-0.070620015 -0.03309267 -0.033775602
-0.02611593 -0.059798401 0.050936799
-0.02611593 -0.059798401 0.050936799
-0.02611593 -0.059798401 0.050936799
-0.02611593 -0.059798401 0.050936799
-0.02611593 -0.059798401 0.050936799
-0.02611593 -0.059798401 0.050936799
-0.078641199 -0.0340457 -0.034642957
-0.073582031 -0.033118084 -0.031719904
-0.02611593 -0.059798401 0.050936799
-0.02611593 -0.059798401 0.050936799
-0.02611593 -0.059798401 0.050936799
-0.02611593 -0.059798401 0.050936799
-0.02611593 -0.059798401 0.050936799
-0.071593262 -0.031107511 -0.032721113
-0.082599103 -0.033067692 -0.032550454
-0.080614261 -0.03205695 -0.033569675
-0.02611593 -0.059798401 0.050936799
-0.02611593 -0.059798401 0.050936799
-0.02611593 -0.059798401 0.050936799
-0.02611593 -0.059798401 0.050936799
-0.079591803 -0.031078801 -0.032570787
-0.02611593 -0.059798401 0.050936799
-0.089612611 -0.032024652 -0.033400562
-0.088661112 -0.029974312 -0.036382303
-0.02611593 -0.059798401 0.050936799
-0.02611593 -0.059798401 0.050936799
-0.02611593 -0.059798401 0.050936799
-0.02611593 -0.059798401 0.050936799
-0.085624211 -0.030021256 -0.034439348
-0.083658099 -0.028992429 -0.036458235
-0.094592981 -0.032024797 -0.032306951
-0.092604205 -0.030014224 -0.033308156
-0.02611593 -0.059798401 0.050936799
-0.02611593 -0.059798401 0.050936799
-0.02611593 -0.059798401 0.050936799
-0.02611593 -0.059798401 0.050936799
-0.089567319 -0.030061169 -0.031365201
-0.084530786 -0.030115291 -0.029459834
-0.099550694 -0.031043198 -0.030195646
-0.096547306 -0.030054133 -0.030234002
-0.02611593 -0.059798401 0.050936799
-0.02611593 -0.059798401 0.050936799
-0.02611593 -0.059798401 0.050936799
-0.02611593 -0.059798401 0.050936799
-0.093510419 -0.030101079 -0.028291054
-0.091563024 -0.029054163 -0.031309601
-0.11061178 -0.027931876 -0.033933546
-0.10762712 -0.026924722 -0.034971558
-0.02611593 -0.059798401 0.050936799
-0.02611593 -0.059798401 0.050936799
-0.02611593 -0.059798401 0.050936799
-0.02611593 -0.059798401 0.050936799
-0.10153855 -0.028036531 -0.030104008
-0.097557999 -0.028032798 -0.03117884
-0.11451744 -0.028007966 -0.028860081
-0.11157023 -0.026964635 -0.031897418
-0.02611593 -0.059798401 0.050936799
-0.02611593 -0.059798401 0.050936799
-0.02611593 -0.059798401 0.050936799
-0.02611593 -0.059798401 0.050936799
-0.10751872 -0.028033087 -0.028991614
-0.10353817 -0.028029352 -0.030066427
-0.12657836 -0.024893049 -0.032579184
-0.12157926 -0.024910994 -0.032673135
-0.02611593 -0.059798401 0.050936799
-0.02611593 -0.059798401 0.050936799
-0.02611593 -0.059798401 0.050936799
-0.02611593 -0.059798401 0.050936799
-0.11144309 -0.028091088 -0.024917807
-0.11154758 -0.025982892 -0.030879732
-0.13351698 -0.023922365 -0.029430639
-0.13057369 -0.023878863 -0.032486003
-0.02611593 -0.059798401 0.050936799
-0.02611593 -0.059798401 0.050936799
-0.02611593 -0.059798401 0.050936799
-0.02611593 -0.059798401 0.050936799
-0.12350401 -0.024976173 -0.02863691
-0.12460831 -0.022864392 -0.034580044
-0.14554045 -0.020843629 -0.031150427
-0.13854566 -0.021868583 -0.031299982
-0.02611593 -0.059798401 0.050936799
-0.02611593 -0.059798401 0.050936799
-0.02611593 -0.059798401 0.050936799
-0.02611593 -0.059798401 0.050936799
-0.13351305 -0.022922538 -0.02941262
-0.12853661 -0.02392222 -0.030524258
-0.15347888 -0.019869359 -0.027983103
-0.14750263 -0.02087263 -0.029113512
-0.02611593 -0.059798401 0.050936799
-0.02611593 -0.059798401 0.050936799
-0.02611593 -0.059798401 0.050936799
-0.02611593 -0.059798401 0.050936799
-0.14348464 -0.020905076 -0.028189022
-0.13246098 -0.023980221 -0.026450451
-0.16442764 -0.016866568 -0.025723021
-0.1625029 -0.016801389 -0.029759251
-0.02611593 -0.059798401 0.050936799
-0.02611593 -0.059798401 0.050936799
-0.02611593 -0.059798401 0.050936799
-0.02611593 -0.059798401 0.050936799
-0.1483901 -0.020977575 -0.023096759
-0.14546555 -0.020915985 -0.027151775
-0.1794131 -0.013813246 -0.025387112
-0.17547002 -0.013773334 -0.028461251
-0.02611593 -0.059798401 0.050936799
-0.02611593 -0.059798401 0.050936799
-0.02611593 -0.059798401 0.050936799
-0.02611593 -0.059798401 0.050936799
-0.16139467 -0.017913343 -0.023798097
-0.14230938 -0.024089044 -0.018265255
-0.20140816 -0.0087170508 -0.025883287
-0.19648398 -0.0086626392 -0.029975891
-0.02611593 -0.059798401 0.050936799
-0.02611593 -0.059798401 0.050936799
-0.02611593 -0.059798401 0.050936799
-0.02611593 -0.059798401 0.050936799
-0.18442701 -0.012777378 -0.026274797
-0.15427667 -0.021064576 -0.016986053
-0.229413 -0.0015815685 -0.027230337
-0.21546479 -0.004595127 -0.029546797
-0.02611593 -0.059798401 0.050936799
-0.02611593 -0.059798401 0.050936799
-0.02611593 -0.059798401 0.050936799
-0.02611593 -0.059798401 0.050936799
-0.20542224 -0.0076847719 -0.02678977
-0.18842627 -0.012763022 -0.026199635
-0.26340887 0.0075750938 -0.028428629
-0.24041791 0.0014754869 -0.027969256
-0.02611593 -0.059798401 0.050936799
-0.02611593 -0.059798401 0.050936799
-0.02611593 -0.059798401 0.050936799
-0.02611593 -0.059798401 0.050936799
-0.23141657 -0.002574225 -0.027210776
-0.21445805 -0.0076162936 -0.028619975
-0.96740204 0.20580272 -0.21872672
-0.26938903 0.0075785383 -0.027316216
-0.02611593 -0.059798401 0.050936799
-0.02611593 -0.059798401 0.050936799
-0.98103195 0.20850873 -0.19941606
-0.02611593 -0.059798401 0.050936799
-0.26641616 0.0055862069 -0.028408296
-0.24144825 -0.0015023234 -0.029004186
-0.98761886 0.20813589 -0.17729199
-0.97822469 0.20266183 -0.2085775
-0.02611593 -0.059798401 0.050936799
-0.02611593 -0.059798401 0.050936799
-1.0032483 0.21084914 -0.15794371
-0.99485791 0.20437878 -0.18922848
-0.97239214 0.19376844 -0.21585003
-0.26537198 0.0025288588 -0.025482155
-1.013864 0.21252647 -0.13770777
-0.99743068 0.20297368 -0.1661979
-0.98401159 0.19444956 -0.19561329
-0.02611593 -0.059798401 0.050936799
-1.0124189 0.21108894 -0.1137527
-1.0170743 0.20671917 -0.14775613
-0.99463505 0.19412725 -0.1754134
-0.983257 0.18464664 -0.20680857
-1.0230159 0.2127482 -0.092517093
-1.015633 0.20428179 -0.12381908
-1.0042402 0.19378327 -0.15423259
-0.99588019 0.18433151 -0.18657103
-1.0215853 0.21232857 -0.069543675
-1.025234 0.20493762 -0.10262027
-1.0138412 0.1944391 -0.1330338
-1.0024748 0.18195902 -0.16448303
-1.0321822 0.21398784 -0.048308074
-1.0278069 0.20353253 -0.07958971
-1.0264417 0.19510572 -0.11177863
-1.0110799 0.18161145 -0.14332102
-1.0597752 0.22072536 -0.027662583
-1.0394037 0.20519537 -0.058335312
-1.0240045 0.19166493 -0.087878376
-1.0156564 0.17921367 -0.12027091
-1.0823356 0.22640891 -0.0051297396
-1.0599868 0.20989004 -0.036857732
-1.0376009 0.19333494 -0.066586398
-1.0162146 0.17678347 -0.096296288
-1.0999006 0.23107472 0.017291129
-1.0895647 0.21561679 -0.015193023
-1.0341638 0.18989056 -0.042704962
-1.0348289 0.17848952 -0.075910002
-1.1114374 0.23368314 0.041562531
-1.1021012 0.2182288 0.0090971738
-1.0817602 0.19971746 -0.022629268
-1.0454149 0.17813104 -0.053710766
-1.123974 0.23629513 0.065852731
-1.1136607 0.2198555 0.032350909
-1.0983145 0.2023619 0.00073643029
-1.0759965 0.1828616 -0.032045275
-1.1395019 0.24091756 0.090235338
-1.1341877 0.22449586 0.056827463
-1.1188644 0.20602055 0.02419531
-1.0875597 0.18348846 -0.0088095665
-0.02611593 -0.059798401 0.050936799
-1.1407145 0.22506858 0.081968546
-1.1174045 0.20356505 0.049132008
-1.0970898 0.18307211 0.016369864
-1.1824733 0.2521328 0.14326072
-1.1542319 0.22766609 0.10727719
-1.1319257 0.20516634 0.074441433
-1.1176288 0.18471299 0.040792372
-0.02611593 -0.059798401 0.050936799
-1.1637355 0.22923136 0.13349232
-1.1304617 0.20371065 0.099396154
-1.1181645 0.18326452 0.06578467
-1.2133983 0.26125109 0.19902356
-1.1861836 0.23480636 0.16202313
-1.1629227 0.21033949 0.12713322
-1.1356852 0.18487656 0.091150463
-0.02611593 -0.059798401 0.050936799
-1.1866966 0.23433964 0.1880331
-1.1853973 0.21393298 0.15462832
-0.02611593 -0.059798401 0.050936799
-1.2572118 0.27432486 0.26010108
-0.02611593 -0.059798401 0.050936799
-1.174924 0.2104273 0.18037754
-1.191591 0.19306661 0.14836472
-1.269628 0.278828 0.29042524
-1.2325174 0.24542092 0.24911216
-1.2152969 0.22001198 0.21231765
-0.02611593 -0.059798401 0.050936799
-0.02611593 -0.059798401 0.050936799
-1.2449378 0.24892424 0.27941835
-0.02611593 -0.059798401 0.050936799
-1.2105123 0.19410697 0.20575726
-1.2794793 0.28378111 0.35071975
-1.276264 0.25642273 0.31415224
-1.2610509 0.22902125 0.27735931
-0.02611593 -0.059798401 0.050936799
-0.02611593 -0.059798401 0.050936799
-1.3025723 0.26388514 0.34979188
-1.2724603 0.2305032 0.30861032
-1.2552929 0.20113106 0.2697444
-1.3380042 0.30265445 0.42618248
-1.3288431 0.27131137 0.38743082
-1.2977767 0.23596239 0.34419513
-0.02611593 -0.059798401 0.050936799
-2.6079762 0.65603894 0.85149628
-1.3282588 0.27175045 0.41843837
-1.2832669 0.23240617 0.37186849
-0.02611593 -0.059798401 0.050936799
-2.5839362 0.65394354 0.90702713
-2.8726115 0.66676158 0.92466968
-1.3532698 0.24877173 0.42249233
-0.02611593 -0.059798401 0.050936799
-2.5738254 0.65484369 0.96587396
-2.8494475 0.66254359 0.98718089
-3.1114233 0.65748489 0.99199593
-1.3136774 0.20887011 0.40802437
-2.5508077 0.65177017 1.0204059
-2.8381724 0.66227746 1.054988
-3.0791793 0.65014464 1.0592823
-3.1187689 0.58357686 0.98779511
-2.5307436 0.65067089 1.0770296
-2.8090513 0.65707427 1.1153691
-3.1223788 0.66162157 1.1533306
-3.0964072 0.57716382 1.0612853
-2.4988062 0.64663762 1.1273757
-2.7729726 0.65088224 1.1736013
-3.1327658 0.66512632 1.2386174
-3.1673877 0.59054196 1.1668921
-2.4777613 0.64555287 1.1829809
-2.7508011 0.6486674 1.2361674
-3.1133728 0.66170537 1.3132176
-3.2184021 0.60086691 1.2710693
-2.4507778 0.64350092 1.2354565
-2.7236714 0.64547098 1.2966222
-3.0949566 0.65926969 1.3888544
-3.3080373 0.62000483 1.3941355
-2.4277523 0.64242709 1.2900244
-2.7054348 0.64521599 1.3622984
-3.0507751 0.65094072 1.4528983
-3.3846347 0.63504237 1.5198842
-2.3948486 0.63942629 1.3383704
-2.6802638 0.64299035 1.424808
-2.997674 0.64165211 1.5127563
-3.4611304 0.65198916 1.6506672
-2.3757582 0.64031214 1.3960485
-2.6540928 0.6407612 1.4872988
-3.000025 0.64509189 1.5998921
-3.4295228 0.64630842 1.737002
-2.3556864 0.64121252 1.4527084
-2.6259596 0.63856101 1.5477527
-2.9647322 0.64070415 1.6691754
-3.4068639 0.64362329 1.8255591
-2.3178291 0.63623023 1.4989251
-2.5938497 0.63536477 1.607114
-2.947252 0.64021748 1.747866
-3.4039428 0.6447742 1.9275599
-2.2829254 0.63322228 1.5472335
-2.57161 0.63609517 1.6727329
-2.9237919 0.63972747 1.8254442
-3.371294 0.64005345 2.0158932
-2.2470601 0.6302467 1.593524
-2.5414584 0.63386971 1.7341491
-2.8894763 0.636325 1.895764
-3.328763 0.63440567 2.0980225
-2.2220306 0.63016546 1.6480722
-2.5063641 0.63168067 1.7924721
-2.8541236 0.63288283 1.9680644
-3.3227596 0.63747293 2.2040017
-2.193058 0.63012427 1.6995466
-2.4722693 0.62949514 1.8508141
-2.644223 0.58698356 1.9162867
-3.2890468 0.6346941 2.295351
-2.1482954 0.6252073 1.7406335
-2.4469924 0.63017857 1.9183761
-2.783407 0.62899786 2.1127191
-2.6144211 0.49472877 1.9230622
-2.1212814 0.62613684 1.7941626
-2.3990622 0.62508804 1.9684036
-2.7470689 0.62657011 2.1840191
-3.0422235 0.59182328 2.3449709
-2.0745983 0.62028515 1.8311952
-2.3551083 0.62099367 2.0195239
-2.7087131 0.62411696 2.2562809
-3.14345 0.61968559 2.5414369
-1.9071014 0.57493466 1.7582142
-2.3238888 0.62170982 2.0839741
-2.669353 0.6226601 2.328542
-3.1253927 0.62265557 2.6501894
-1.8487357 0.56533003 1.7789549
-1.8743203 0.49673897 1.761187
-1.910715 0.43302381 1.752713
-2.3433688 0.45564348 2.090337
-1.812941 0.56342673 1.8212646
-1.8227954 0.48901448 1.7900925
-1.8493308 0.42339045 1.7743968
-1.8758514 0.35674831 1.7596829
-1.9300292 0.61630601 2.0204809
-1.9124573 0.5262844 1.9615034
-1.8379797 0.42806914 1.845293
-1.8193274 0.34900588 1.7884942
-1.9009739 0.61819208 2.0759897
-2.1008658 0.59688491 2.2474051
-2.011806 0.48396203 2.111649
-1.9432603 0.38369626 1.9995137
-1.8572034 0.61527836 2.1171315
-2.1126623 0.61187011 2.3619359
-2.2410722 0.55662745 2.4583733
-2.137383 0.4359777 2.3041973
-1.8095311 0.6114409 2.1531816
-2.060781 0.60881907 2.4089251
-2.37099 0.60541773 2.7207773
-2.7871573 0.60045046 3.142622
-1.7784724 0.61431956 2.2086711
-2.0069602 0.60481542 2.4528599
-2.3158095 0.60206664 2.7837048
-2.7325006 0.59865034 3.2305961
-1.7288232 0.60949314 2.2436662
-1.9570179 0.60271722 2.5029039
-2.24792 0.59694058 2.8313572
-2.6777465 0.59775954 3.3235862
-1.6840672 0.60759377 2.2838073
-1.9090154 0.60157174 2.5560024
-2.1976185 0.59549844 2.9004126
-2.5936954 0.59141332 3.3799169
-1.6422098 0.60761434 2.3290393
-1.8571153 0.59850264 2.6039915
-2.1384532 0.59315079 2.9622834
-2.8292403 0.66750515 3.8708699
-1.5906544 0.60287124 2.3589985
-1.8051884 0.59741515 2.6530161
-2.0763826 0.59088284 3.0190995
-2.828413 0.68489456 4.0712371
-1.5448762 0.60195005 2.4001389
-1.7532468 0.59530967 2.7030225
-2.0113723 0.58765864 3.0728421
-2.4095786 0.5908137 3.6505506
-1.5039582 0.6029197 2.4484067
