# .PCD v0.7 - Point Cloud Data file format
VERSION 0.7
FIELDS x y z
SIZE 4 4 4
TYPE F F F
COUNT 1 1 1
WIDTH 1392
HEIGHT 1
VIEWPOINT 0 0 0 1 0 0 0
POINTS 1392
DATA ascii
0.16733858 -0.41117597 6.6862078
0.20043442 -0.6312691 6.6265869
0.23618788 -0.85706449 6.5498066
0.28030315 -0.1828233 6.5331717
0.30938494 -0.40188414 6.4726439
0.34250042 -0.61697811 6.4131131
0.38147891 -0.83798409 6.347363
0.41170242 -0.17985278 6.3396993
0.44367224 -0.39379865 6.2722082
0.47579277 -0.60287195 6.2118044
0.51561135 -0.81670183 6.1361647
0.53602415 -0.17778465 6.1423426
0.56923813 -0.38695198 6.0869184
0.60115755 -0.58980924 6.0146265
0.64094353 -0.7975859 5.9360967
0.65079701 -0.17611474 5.9691658
0.68576819 -0.38003689 5.8997984
0.71965462 -0.57684809 5.8245783
0.7616806 -0.78084964 5.7580781
0.76258922 -0.17445216 5.7970438
-0.02611593 -0.059798401 0.050936799
-0.02611593 -0.059798401 0.050936799
0.87346071 -0.76311743 5.5822468
-0.02611593 -0.059798401 0.050936799
0.16505054 -0.12304099 1.1875989
0.17380212 -0.1619762 1.1817288
0.98256665 -0.74869949 5.4244113
0.1811673 -0.083069034 1.1860198
0.18752605 -0.1216172 1.1591944
0.19518419 -0.16045839 1.1483446
1.0856923 -0.73427814 5.2676883
0.19935873 -0.082359388 1.1426772
0.20699814 -0.12118249 1.1308279
0.21669729 -0.15906721 1.121958
1.1818943 -0.71990407 5.1150956
0.26467609 -0.086801589 1.3194339
0.23080653 -0.12108773 1.1203804
0.24158037 -0.15904839 1.1154903
0.34891292 -0.24583697 1.4680303
0.2547192 -0.083918393 1.1616191
0.25142822 -0.12080132 1.0999925
0.26431406 -0.1588777 1.1010629
1.3638086 -0.69562221 4.8380346
0.27530342 -0.083595805 1.1392318
0.26992315 -0.11938128 1.0726626
0.28708518 -0.15874317 1.0886347
1.4514871 -0.68468565 4.7115483
0.30342546 -0.084822744 1.1456853
0.29278401 -0.12033702 1.0652149
0.3140763 -0.1598399 1.0881094
1.5321296 -0.6736877 4.5831938
0.33147654 -0.084977508 1.1481581
0.3187792 -0.12043034 1.0647262
0.34103391 -0.15990062 1.0856028
1.6140112 -0.66392839 4.4677978
0.35629949 -0.085904256 1.1386734
0.35421428 -0.12298974 1.0880244
0.37007689 -0.16205864 1.0880207
0.5032447 -0.24280535 1.3771648
0.36538029 -0.085053779 1.0895021
0.38433594 -0.12422387 1.0944403
0.4022879 -0.16439021 1.0993793
1.7605942 -0.64316803 4.2273474
0.43018091 -0.088034354 1.1852673
0.4165321 -0.12553751 1.1048173
0.44379282 -0.16804335 1.1265454
1.8336984 -0.63459325 4.1240993
0.43405661 -0.086966947 1.1251937
0.4643355 -0.12950161 1.1478652
1.857802 -0.47320026 4.0985589
1.9016912 -0.62589198 4.0149465
1.8355848 -0.16872676 4.1354947
1.8849074 -0.3208527 4.0747991
1.9217463 -0.46744803 3.9874279
1.9657218 -0.61721265 3.9078686
1.9018421 -0.16930628 4.042212
1.9407328 -0.31696287 3.9577844
1.9827884 -0.46077561 3.8813698
2.0339353 -0.6097284 3.8106937
1.9630065 -0.16977739 3.9440253
2.004946 -0.31448147 3.8615944
2.0480282 -0.4563162 3.7861967
2.0950937 -0.60216469 3.7106516
2.0221338 -0.17020518 3.8438766
2.0713236 -0.31316984 3.7743461
2.1154692 -0.4530628 3.7019644
2.1624532 -0.59582132 3.621475
2.0824859 -0.17085359 3.7557049
2.1306274 -0.31176075 3.6832304
2.1736541 -0.44852403 3.6039238
2.2217243 -0.58835894 3.5274684
2.1407821 -0.17144057 3.664572
2.1879539 -0.30936274 3.5931697
2.2310076 -0.44414443 3.5148993
2.2800293 -0.58192909 3.4354622
2.1982095 -0.17215058 3.5804553
2.2473516 -0.30804408 3.5070524
2.2904127 -0.44082609 3.428818
2.3353534 -0.57550645 3.3445115
2.2566137 -0.17384592 3.4953024
2.3016751 -0.30663514 3.4170303
2.3488033 -0.4364863 3.3417735
2.3978596 -0.57028967 3.2634079
2.3089862 -0.17448373 3.4082808
2.3591285 -0.3053636 3.3339496
2.4052465 -0.43319342 3.2577477
2.4511843 -0.56385994 3.1724954
2.3685815 -0.17536372 3.3331237
2.4125273 -0.30402341 3.2479448
2.4606526 -0.42986071 3.1717417
2.5066166 -0.55854571 3.0875247
2.4169168 -0.175951 3.2441778
2.4639635 -0.30271223 3.1639771
2.5079889 -0.42542717 3.0819051
2.562124 -0.55330378 3.0065527
2.4735091 -0.17782004 3.169059
2.5205114 -0.30152753 3.0859132
2.565578 -0.42328244 3.0058401
2.6146324 -0.54805118 2.9256372
2.5168829 -0.17842555 3.0822067
2.5720561 -0.30132473 3.0079255
2.619149 -0.42110521 2.9288504
2.6681211 -0.54278404 2.8437033
2.5725312 -0.1803453 3.0101058
2.6205304 -0.30003896 2.9260132
2.6635423 -0.41671515 2.8420689
2.720644 -0.5385493 2.7637696
2.6210313 -0.1820952 2.9301388
2.6700797 -0.29882914 2.8480811
2.717113 -0.41453794 2.7650793
2.765064 -0.53217769 2.6780241
2.67061 -0.1829212 2.8541701
2.7236986 -0.29870585 2.7740545
2.770684 -0.41236073 2.6880896
2.8125355 -0.52687091 2.5952032
2.7242587 -0.18483377 2.7821064
2.766118 -0.29734427 2.689256
2.814167 -0.40905735 2.6063075
2.8702033 -0.52379864 2.5231545
2.767741 -0.18654764 2.7012339
2.8157194 -0.29718855 2.6143048
2.8677943 -0.40693447 2.5323167
3.3623533 -0.58881867 2.8048596
2.8112645 -0.18729784 2.6223786
2.865339 -0.29705089 2.5403531
3.1133828 -0.42745316 2.6183767
4.2697806 -0.71367353 3.374805
2.857877 -0.18914911 2.5484474
2.9626877 -0.30080503 2.5054507
2.9913521 -0.40605298 2.4009748
4.3478308 -0.70907986 3.2693908
2.9522073 -0.19287434 2.5126019
3.012289 -0.30064929 2.4304998
3.0510867 -0.40505993 2.3328514
4.4208102 -0.70339608 3.1600904
3.0018535 -0.19577236 2.4405954
3.0639083 -0.30051881 2.3565104
3.1098025 -0.40404519 2.2637467
4.4918094 -0.69772315 3.0518267
3.0545394 -0.19771752 2.3705499
3.1145098 -0.3003667 2.2815404
3.1533003 -0.40175977 2.1829464
4.5627522 -0.6919961 2.9405644
3.0950413 -0.19943871 2.2907336
3.1590555 -0.30013874 2.2036841
3.2039092 -0.39960793 2.1080124
4.6307106 -0.68727612 2.8303401
3.1487088 -0.20136936 2.2196698
3.2117085 -0.30104786 2.1316574
3.2403374 -0.39622521 2.0233631
4.7047238 -0.68263197 2.723002
3.1953359 -0.20423852 2.1467202
3.2501996 -0.30074415 2.050915
4.6948013 -0.53810549 2.7528124
4.7817516 -0.67901641 2.6165891
3.2439296 -0.20607889 2.0717518
4.6797171 -0.40143317 2.7755747
4.7637701 -0.53540689 2.6435328
4.8042731 -0.66768384 2.4823272
4.6707945 -0.27096224 2.8081131
4.7487297 -0.40178826 2.66924
4.8408084 -0.53380913 2.5380836
4.9175782 -0.66848618 2.3911602
4.7367964 -0.27430609 2.7017806
4.7813458 -0.39961657 2.5416255
4.7927289 -0.52062845 2.3721657
4.9935498 -0.66481292 2.2817674
4.8128715 -0.27775815 2.5992589
-0.02611593 -0.059798401 0.050936799
4.9827189 -0.53040779 2.3184135
5.0654511 -0.66005301 2.1684687
4.6143508 -0.2696487 2.3590412
-0.02611593 -0.059798401 0.050936799
5.0556455 -0.52868718 2.2070417
5.1323156 -0.65523899 2.0532649
4.6511936 -0.27172583 2.2442749
5.0336423 -0.40511411 2.2366989
5.1164999 -0.52685112 2.0918965
13.53488 -1.5935584 4.9479542
5.0148134 -0.28974944 2.2771518
5.0985775 -0.40638232 2.1264229
13.514182 -1.2704813 5.0622249
13.736408 -1.5850382 4.6532354
5.0837355 -0.29403153 2.1667466
13.457933 -0.96480513 5.1508369
13.706675 -1.2669096 4.7665849
13.926799 -1.5743341 4.3507619
5.1486406 -0.29828119 2.0554171
13.646513 -0.96832657 4.8611445
13.889057 -1.2631937 4.4651356
14.135158 -1.565676 4.0469146
13.588495 -0.68996418 4.9673028
13.836955 -0.97272831 4.5643988
14.097446 -1.2615888 4.1641607
14.336335 -1.5558121 3.7332201
13.769965 -0.7023865 4.6735802
14.031338 -0.97809011 4.2645607
14.298689 -1.2588142 3.8553386
14.540508 -1.5469589 3.419451
13.977486 -0.71495652 4.382369
14.234736 -0.98350215 3.9655535
14.504924 -1.2580572 3.5463862
14.746573 -1.5370044 3.0996649
14.169874 -0.72834587 4.0844235
14.429987 -0.98874086 3.658699
14.71214 -1.2572858 3.2364156
14.969604 -1.5300924 2.7785051
14.359224 -0.74168837 3.7845354
14.634158 -0.99493933 3.3476586
14.891976 -1.2540379 2.9059951
15.173403 -1.5208775 2.4447429
14.573452 -0.75701159 3.4781432
13.518333 -0.91809452 2.7677436
15.128954 -1.2551566 2.5834286
15.415112 -1.5137261 2.1062322
14.772532 -0.77213633 3.164036
13.11582 -0.88626426 2.3657193
15.323686 -1.2538717 2.2476926
15.644692 -1.5064051 1.7609494
13.440133 -0.71198863 2.5588651
12.310582 -0.83114469 1.9246429
11.47548 -0.94072056 1.4161239
15.850022 -1.4967449 1.402158
12.682647 -0.67989266 2.1084752
11.767794 -0.7924608 1.5613821
15.789692 -1.2541618 1.5517262
6.004014 -0.59423214 0.42049453
12.063332 -0.65446341 1.7203989
11.460921 -0.76959485 1.2474349
6.0855532 -0.51472688 0.48642841
6.0543804 -0.58787245 0.27861845
11.586961 -0.63650149 1.3825283
6.1480236 -0.43909851 0.54964823
5.9878197 -0.50169235 0.33944419
6.0437579 -0.57627666 0.1369791
15.814061 -0.85315824 1.4945043
5.9691143 -0.42659223 0.39417145
6.0051694 -0.496196 0.19717056
3.8797529 -0.38554522 0.014903825
6.0335636 -0.36600468 0.45908272
6.0345178 -0.42935726 0.25584999
3.889647 -0.33927289 0.053568698
-0.02611593 -0.059798401 0.050936799
6.045897 -0.36950693 0.31774056
6.0628448 -0.4288995 0.1132796
-0.02611593 -0.059798401 0.050936799
3.6006484 -0.35039437 -0.15429211
6.0371637 -0.37186164 0.17281236
3.8787692 -0.29523134 -0.0014496148
3.6064746 -0.31207016 -0.11769553
4.0603304 -0.38000327 -0.27647561
3.8756337 -0.26192826 0.038224954
-0.02611593 -0.059798401 0.050936799
-0.02611593 -0.059798401 0.050936799
4.8099966 -0.43080282 -0.45148957
-0.02611593 -0.059798401 0.050936799
3.6515956 -0.28028178 -0.17098336
-0.02611593 -0.059798401 0.050936799
3.7933848 -0.34705794 -0.43693611
3.6224227 -0.2528663 -0.13192801
-0.02611593 -0.059798401 0.050936799
3.7962403 -0.31577605 -0.39741033
1.9281598 -0.20315981 -0.24534616
3.6727233 -0.25744194 -0.22198306
-0.02611593 -0.059798401 0.050936799
4.3570266 -0.34891826 -0.56756693
4.257412 -0.36810628 -0.7020945
-0.02611593 -0.059798401 0.050936799
3.8412068 -0.28986007 -0.45780388
4.3121972 -0.3429738 -0.66565329
3.4675221 -0.30598313 -0.64716333
3.8041012 -0.26950505 -0.413726
1.9311157 -0.17603046 -0.2529133
4.0063276 -0.31890613 -0.71350747
3.9668114 -0.33440059 -0.84409213
1.9305216 -0.16839002 -0.23275718
4.208457 -0.31075925 -0.71014339
3.404947 -0.2780959 -0.68249929
3.3379538 -0.2859616 -0.78642249
4.279139 -0.30164528 -0.67629039
3.4992874 -0.2687425 -0.66709113
3.4601314 -0.27856359 -0.7795738
3.4806945 -0.29034644 -0.90721524
3.4461865 -0.25736472 -0.62087548
3.7047789 -0.28115314 -0.80020815
3.4744432 -0.27699301 -0.86984396
3.702764 -0.29940253 -1.0635897
3.3678942 -0.25482234 -0.68938684
3.4432638 -0.26562184 -0.82804036
3.743335 -0.29107222 -1.0351892
3.5956659 -0.28690246 -1.1233788
3.3911998 -0.2593011 -0.7789346
3.5630012 -0.27192384 -0.94843692
3.6282117 -0.280525 -1.0958635
3.5035422 -0.27543795 -1.1844673
3.4701462 -0.26665473 -0.88758254
3.6826026 -0.27909902 -1.0758492
2.0376441 -0.18329203 -0.65017384
-0.02611593 -0.059798401 0.050936799
3.7131245 -0.2837306 -1.0474949
2.0280845 -0.18167254 -0.62695771
3.4587994 -0.26552185 -1.2254641
0.19023913 -0.072077185 -0.036365643
3.6049163 -0.28015304 -1.1114259
3.4832923 -0.26809606 -1.1989602
-0.02611593 -0.059798401 0.050936799
-0.02611593 -0.059798401 0.050936799
3.5137157 -0.27865425 -1.1747125
-0.02611593 -0.059798401 0.050936799
0.18026364 -0.071059547 -0.035160068
0.16723247 -0.069976889 -0.036897089
-0.02611593 -0.059798401 0.050936799
0.18723969 -0.072066419 -0.036309268
-0.02611593 -0.059798401 0.050936799
-0.02611593 -0.059798401 0.050936799
0.18727322 -0.073102422 -0.034327969
-0.02611593 -0.059798401 0.050936799
0.15327641 -0.068962984 -0.034616686
0.14524436 -0.067898273 -0.036447659
-0.02611593 -0.059798401 0.050936799
-0.02611593 -0.059798401 0.050936799
-0.02611593 -0.059798401 0.050936799
-0.02611593 -0.059798401 0.050936799
0.15830511 -0.071016766 -0.032747351
-0.02611593 -0.059798401 0.050936799
0.1352649 -0.067880474 -0.035260089
0.12525195 -0.066826664 -0.036053829
-0.02611593 -0.059798401 0.050936799
0.13826044 -0.068891071 -0.035334479
-0.02611593 -0.059798401 0.050936799
-0.02611593 -0.059798401 0.050936799
0.14323296 -0.070890583 -0.036464136
-0.02611593 -0.059798401 0.050936799
0.11727212 -0.066816047 -0.034903839
0.10927752 -0.065787502 -0.034735501
-0.02611593 -0.059798401 0.050936799
0.11730564 -0.06785205 -0.03292254
-0.02611593 -0.059798401 0.050936799
-0.02611593 -0.059798401 0.050936799
0.11829761 -0.069855295 -0.032977369
-0.02611593 -0.059798401 0.050936799
0.10625935 -0.065758646 -0.035678793
0.096283831 -0.064741015 -0.034473203
-0.02611593 -0.059798401 0.050936799
0.10428931 -0.067787305 -0.033677928
-0.02611593 -0.059798401 0.050936799
-0.02611593 -0.059798401 0.050936799
0.10726611 -0.068779811 -0.034751974
-0.02611593 -0.059798401 0.050936799
-0.02611593 -0.059798401 0.050936799
0.08427123 -0.06368003 -0.035229363
-0.02611593 -0.059798401 0.050936799
0.091295615 -0.066740818 -0.033415634
-0.02611593 -0.059798401 0.050936799
-0.02611593 -0.059798401 0.050936799
0.093287393 -0.068747647 -0.033489253
-0.02611593 -0.059798401 0.050936799
0.077324748 -0.064709 -0.032116864
0.077238999 -0.062618896 -0.037079137
-0.02611593 -0.059798401 0.050936799
0.078320645 -0.065712422 -0.032153673
-0.02611593 -0.059798401 0.050936799
-0.02611593 -0.059798401 0.050936799
0.080312431 -0.067719258 -0.032227289
-0.02611593 -0.059798401 0.050936799
0.072254702 -0.063618876 -0.036003545
0.067240834 -0.062583007 -0.036891233
-0.02611593 -0.059798401 0.050936799
0.073246665 -0.065622121 -0.036058374
-0.02611593 -0.059798401 0.050936799
-0.02611593 -0.059798401 0.050936799
0.073257536 -0.067639872 -0.035094742
-0.02611593 -0.059798401 0.050936799
0.061294172 -0.063615575 -0.033797514
0.06318932 -0.061514553 -0.039797034
-0.02611593 -0.059798401 0.050936799
0.062267412 -0.065600738 -0.034852009
-0.02611593 -0.059798401 0.050936799
-0.02611593 -0.059798401 0.050936799
0.059338912 -0.066662155 -0.030815009
-0.02611593 -0.059798401 0.050936799
0.050356276 -0.062630527 -0.030573823
0.053209879 -0.061496753 -0.038609464
-0.02611593 -0.059798401 0.050936799
0.056234982 -0.064543188 -0.036720574
-0.02611593 -0.059798401 0.050936799
-0.02611593 -0.059798401 0.050936799
0.051340386 -0.066633441 -0.030664686
-0.02611593 -0.059798401 0.050936799
0.04728194 -0.062547408 -0.034516096
0.042309429 -0.060547892 -0.033386439
-0.02611593 -0.059798401 0.050936799
0.050217357 -0.064503565 -0.037607491
-0.02611593 -0.059798401 0.050936799
-0.02611593 -0.059798401 0.050936799
0.047266226 -0.066546731 -0.034588169
-0.02611593 -0.059798401 0.050936799
0.039302122 -0.062536791 -0.033366103
0.036310527 -0.06052636 -0.033273697
-0.02611593 -0.059798401 0.050936799
0.040275361 -0.064521946 -0.034420598
-0.02611593 -0.059798401 0.050936799
-0.02611593 -0.059798401 0.050936799
0.036365777 -0.065597869 -0.029365152
-0.02611593 -0.059798401 0.050936799
0.036231708 -0.061453834 -0.037290365
0.032259014 -0.059457909 -0.036179509
-0.02611593 -0.059798401 0.050936799
0.031355824 -0.06356217 -0.030234821
-0.02611593 -0.059798401 0.050936799
-0.02611593 -0.059798401 0.050936799
0.032310337 -0.065529242 -0.032288976
-0.02611593 -0.059798401 0.050936799
0.028289339 -0.06147939 -0.034141056
0.025297742 -0.059468962 -0.03404865
-0.02611593 -0.059798401 0.050936799
0.027300386 -0.06349355 -0.033158638
-0.02611593 -0.059798401 0.050936799
-0.02611593 -0.059798401 0.050936799
-0.02611593 -0.059798401 0.050936799
-0.02611593 -0.059798401 0.050936799
0.024233904 -0.061410762 -0.03706488
0.0222234 -0.059385844 -0.03799092
-0.02611593 -0.059798401 0.050936799
-0.02611593 -0.059798401 0.050936799
-0.02611593 -0.059798401 0.050936799
-0.02611593 -0.059798401 0.050936799
-0.02611593 -0.059798401 0.050936799
-0.02611593 -0.059798401 0.050936799
0.020197187 -0.061360229 -0.038989041
-0.02611593 -0.059798401 0.050936799
-0.02611593 -0.059798401 0.050936799
-0.02611593 -0.059798401 0.050936799
-0.02611593 -0.059798401 0.050936799
-0.02611593 -0.059798401 0.050936799
-0.02611593 -0.059798401 0.050936799
-0.02611593 -0.059798401 0.050936799
-0.02611593 -0.059798401 0.050936799
-0.02611593 -0.059798401 0.050936799
-0.02611593 -0.059798401 0.050936799
-0.02611593 -0.059798401 0.050936799
-0.02611593 -0.059798401 0.050936799
-0.02611593 -0.059798401 0.050936799
-0.02611593 -0.059798401 0.050936799
-0.02611593 -0.059798401 0.050936799
-0.02611593 -0.059798401 0.050936799
-0.02611593 -0.059798401 0.050936799
-0.02611593 -0.059798401 0.050936799
-0.02611593 -0.059798401 0.050936799
-0.02611593 -0.059798401 0.050936799
-0.02611593 -0.059798401 0.050936799
-0.02611593 -0.059798401 0.050936799
-0.02611593 -0.059798401 0.050936799
-0.02611593 -0.059798401 0.050936799
-0.02611593 -0.059798401 0.050936799
-0.02611593 -0.059798401 0.050936799
-0.02611593 -0.059798401 0.050936799
-0.02611593 -0.059798401 0.050936799
-0.02611593 -0.059798401 0.050936799
-0.02611593 -0.059798401 0.050936799
-0.02611593 -0.059798401 0.050936799
-0.02611593 -0.059798401 0.050936799
-0.02611593 -0.059798401 0.050936799
-0.02611593 -0.059798401 0.050936799
-0.02611593 -0.059798401 0.050936799
-0.02611593 -0.059798401 0.050936799
-0.02611593 -0.059798401 0.050936799
-0.02611593 -0.059798401 0.050936799
-0.02611593 -0.059798401 0.050936799
-0.02611593 -0.059798401 0.050936799
-0.02611593 -0.059798401 0.050936799
-0.02611593 -0.059798401 0.050936799
-0.02611593 -0.059798401 0.050936799
-0.02611593 -0.059798401 0.050936799
-0.02611593 -0.059798401 0.050936799
-0.02611593 -0.059798401 0.050936799
-0.02611593 -0.059798401 0.050936799
-0.02611593 -0.059798401 0.050936799
-0.02611593 -0.059798401 0.050936799
-0.02611593 -0.059798401 0.050936799
-0.02611593 -0.059798401 0.050936799
-0.02611593 -0.059798401 0.050936799
-0.02611593 -0.059798401 0.050936799
-0.02611593 -0.059798401 0.050936799
-0.02611593 -0.059798401 0.050936799
-0.02611593 -0.059798401 0.050936799
-0.02611593 -0.059798401 0.050936799
-0.02611593 -0.059798401 0.050936799
-0.02611593 -0.059798401 0.050936799
-0.02611593 -0.059798401 0.050936799
-0.02611593 -0.059798401 0.050936799
-0.02611593 -0.059798401 0.050936799
-0.02611593 -0.059798401 0.050936799
-0.02611593 -0.059798401 0.050936799
-0.02611593 -0.059798401 0.050936799
-0.02611593 -0.059798401 0.050936799
-0.02611593 -0.059798401 0.050936799
-0.02611593 -0.059798401 0.050936799
-0.02611593 -0.059798401 0.050936799
-0.02611593 -0.059798401 0.050936799
-0.02611593 -0.059798401 0.050936799
-0.02611593 -0.059798401 0.050936799
-0.02611593 -0.059798401 0.050936799
-0.02611593 -0.059798401 0.050936799
-0.02611593 -0.059798401 0.050936799
-0.02611593 -0.059798401 0.050936799
-0.02611593 -0.059798401 0.050936799
-0.02611593 -0.059798401 0.050936799
-0.02611593 -0.059798401 0.050936799
-0.02611593 -0.059798401 0.050936799
-0.02611593 -0.059798401 0.050936799
-0.02611593 -0.059798401 0.050936799
-0.02611593 -0.059798401 0.050936799
-0.02611593 -0.059798401 0.050936799
-0.02611593 -0.059798401 0.050936799
-0.02611593 -0.059798401 0.050936799
-0.02611593 -0.059798401 0.050936799
-0.02611593 -0.059798401 0.050936799
-0.02611593 -0.059798401 0.050936799
-0.02611593 -0.059798401 0.050936799
-0.02611593 -0.059798401 0.050936799
-0.02611593 -0.059798401 0.050936799
-0.02611593 -0.059798401 0.050936799
-0.02611593 -0.059798401 0.050936799
-0.02611593 -0.059798401 0.050936799
-0.02611593 -0.059798401 0.050936799
-0.02611593 -0.059798401 0.050936799
-0.02611593 -0.059798401 0.050936799
-0.02611593 -0.059798401 0.050936799
-0.02611593 -0.059798401 0.050936799
-0.02611593 -0.059798401 0.050936799
-0.02611593 -0.059798401 0.050936799
-0.02611593 -0.059798401 0.050936799
-0.02611593 -0.059798401 0.050936799
-0.02611593 -0.059798401 0.050936799
-0.02611593 -0.059798401 0.050936799
-0.02611593 -0.059798401 0.050936799
-0.02611593 -0.059798401 0.050936799
-0.02611593 -0.059798401 0.050936799
-0.02611593 -0.059798401 0.050936799
-0.02611593 -0.059798401 0.050936799
-0.02611593 -0.059798401 0.050936799
-0.02611593 -0.059798401 0.050936799
-0.02611593 -0.059798401 0.050936799
-0.02611593 -0.059798401 0.050936799
-0.02611593 -0.059798401 0.050936799
-0.02611593 -0.059798401 0.050936799
-0.02611593 -0.059798401 0.050936799
-0.02611593 -0.059798401 0.050936799
-0.02611593 -0.059798401 0.050936799
-0.02611593 -0.059798401 0.050936799
-0.02611593 -0.059798401 0.050936799
-0.02611593 -0.059798401 0.050936799
-0.02611593 -0.059798401 0.050936799
-0.02611593 -0.059798401 0.050936799
-0.02611593 -0.059798401 0.050936799
-0.02611593 -0.059798401 0.050936799
-0.02611593 -0.059798401 0.050936799
-0.02611593 -0.059798401 0.050936799
-0.02611593 -0.059798401 0.050936799
-0.02611593 -0.059798401 0.050936799
-0.02611593 -0.059798401 0.050936799
-0.02611593 -0.059798401 0.050936799
-0.02611593 -0.059798401 0.050936799
-0.02611593 -0.059798401 0.050936799
-0.02611593 -0.059798401 0.050936799
-0.02611593 -0.059798401 0.050936799
-0.02611593 -0.059798401 0.050936799
-0.02611593 -0.059798401 0.050936799
-0.02611593 -0.059798401 0.050936799
-0.02611593 -0.059798401 0.050936799
-0.02611593 -0.059798401 0.050936799
-0.02611593 -0.059798401 0.050936799
-0.02611593 -0.059798401 0.050936799
-0.02611593 -0.059798401 0.050936799
-0.02611593 -0.059798401 0.050936799
-0.02611593 -0.059798401 0.050936799
-0.02611593 -0.059798401 0.050936799
-0.02611593 -0.059798401 0.050936799
-0.02611593 -0.059798401 0.050936799
-0.02611593 -0.059798401 0.050936799
-0.02611593 -0.059798401 0.050936799
-0.02611593 -0.059798401 0.050936799
-0.02611593 -0.059798401 0.050936799
-0.02611593 -0.059798401 0.050936799
-0.02611593 -0.059798401 0.050936799
-0.02611593 -0.059798401 0.050936799
-0.02611593 -0.059798401 0.050936799
-0.02611593 -0.059798401 0.050936799
-0.02611593 -0.059798401 0.050936799
-0.02611593 -0.059798401 0.050936799
-0.02611593 -0.059798401 0.050936799
-0.02611593 -0.059798401 0.050936799
-0.02611593 -0.059798401 0.050936799
-0.02611593 -0.059798401 0.050936799
-0.02611593 -0.059798401 0.050936799
-0.02611593 -0.059798401 0.050936799
-0.02611593 -0.059798401 0.050936799
-0.02611593 -0.059798401 0.050936799
-0.02611593 -0.059798401 0.050936799
-0.02611593 -0.059798401 0.050936799
-0.02611593 -0.059798401 0.050936799
-0.02611593 -0.059798401 0.050936799
-0.02611593 -0.059798401 0.050936799
-0.02611593 -0.059798401 0.050936799
-0.02611593 -0.059798401 0.050936799
-0.02611593 -0.059798401 0.050936799
-0.02611593 -0.059798401 0.050936799
-0.02611593 -0.059798401 0.050936799
-0.02611593 -0.059798401 0.050936799
-0.02611593 -0.059798401 0.050936799
-0.02611593 -0.059798401 0.050936799
-0.02611593 -0.059798401 0.050936799
-0.02611593 -0.059798401 0.050936799
-0.080704592 -0.05505304 -0.033984102
-0.02611593 -0.059798401 0.050936799
-0.082667701 -0.060099278 -0.031037621
-0.02611593 -0.059798401 0.050936799
-0.02611593 -0.059798401 0.050936799
-0.087701224 -0.064062566 -0.032015409
-0.02611593 -0.059798401 0.050936799
-0.02611593 -0.059798401 0.050936799
-0.084666423 -0.055074863 -0.031909615
-0.02611593 -0.059798401 0.050936799
-0.086610802 -0.060139194 -0.027963482
-0.02611593 -0.059798401 0.050936799
-0.02611593 -0.059798401 0.050936799
-0.092662863 -0.064080797 -0.029922139
-0.02611593 -0.059798401 0.050936799
-0.092695467 -0.058027554 -0.032813013
-0.08964286 -0.054075178 -0.030797977
-0.02611593 -0.059798401 0.050936799
-0.093628243 -0.060095981 -0.028831609
-0.02611593 -0.059798401 0.050936799
-0.02611593 -0.059798401 0.050936799
-0.099661581 -0.064055674 -0.029790606
-0.02611593 -0.059798401 0.050936799
-0.096653357 -0.057049543 -0.030720498
-0.095641762 -0.054053642 -0.030685235
-0.02611593 -0.059798401 0.050936799
-0.09657152 -0.060139481 -0.02577626
-0.02611593 -0.059798401 0.050936799
-0.02611593 -0.059798401 0.050936799
-0.10566048 -0.064034142 -0.02967786
-0.02611593 -0.059798401 0.050936799
-0.101615 -0.057067778 -0.028627224
-0.10062212 -0.054053787 -0.029591627
-0.02611593 -0.059798401 0.050936799
-0.10864422 -0.060024057 -0.029549416
-0.02611593 -0.059798401 0.050936799
-0.02611593 -0.059798401 0.050936799
-0.11162194 -0.064048789 -0.027565792
-0.02611593 -0.059798401 0.050936799
-0.11065079 -0.056999296 -0.03045743
-0.10965792 -0.053985313 -0.031421833
-0.02611593 -0.059798401 0.050936799
-0.11969838 -0.059930313 -0.032341707
-0.02611593 -0.059798401 0.050936799
-0.02611593 -0.059798401 0.050936799
-0.12367591 -0.063951455 -0.030339282
-0.02611593 -0.059798401 0.050936799
-0.11457516 -0.057057299 -0.026383631
-0.11663399 -0.052978445 -0.030272614
-0.02611593 -0.059798401 0.050936799
-0.12767819 -0.059919693 -0.031191714
-0.02611593 -0.059798401 0.050936799
-0.02611593 -0.059798401 0.050936799
-0.13467389 -0.063911982 -0.030132588
-0.02611593 -0.059798401 0.050936799
-0.1246108 -0.056985233 -0.028195042
-0.12870669 -0.05286302 -0.034045778
-0.02611593 -0.059798401 0.050936799
-0.13565801 -0.059909068 -0.030041724
-0.02611593 -0.059798401 0.050936799
-0.02611593 -0.059798401 0.050936799
-0.14365351 -0.063897759 -0.028963819
-0.02611593 -0.059798401 0.050936799
-0.14068276 -0.056855455 -0.031893048
-0.13666777 -0.05287049 -0.031896137
-0.02611593 -0.059798401 0.050936799
-0.14563744 -0.059891269 -0.028854165
-0.02611593 -0.059798401 0.050936799
-0.02611593 -0.059798401 0.050936799
-0.15766969 -0.063829437 -0.029700406
-0.02611593 -0.059798401 0.050936799
-0.14762136 -0.055884767 -0.028744508
-0.14462885 -0.052877955 -0.029746477
-0.02611593 -0.059798401 0.050936799
-0.15561298 -0.058873639 -0.027648576
-0.02611593 -0.059798401 0.050936799
-0.02611593 -0.059798401 0.050936799
-0.16661187 -0.063851394 -0.026532311
-0.02611593 -0.059798401 0.050936799
-0.15961917 -0.055841699 -0.028519023
-0.1556042 -0.051856738 -0.028522111
-0.02611593 -0.059798401 0.050936799
-0.17262857 -0.058794536 -0.028328802
-0.02611593 -0.059798401 0.050936799
-0.02611593 -0.059798401 0.050936799
-0.18460858 -0.063786797 -0.026194081
-0.02611593 -0.059798401 0.050936799
-0.17259806 -0.055813134 -0.027275078
-0.167602 -0.05181367 -0.028296623
-0.02611593 -0.059798401 0.050936799
-0.18660729 -0.058762383 -0.027066067
-0.02611593 -0.059798401 0.050936799
-0.02611593 -0.059798401 0.050936799
-0.20966409 -0.064642638 -0.028741315
-0.02611593 -0.059798401 0.050936799
-0.19363168 -0.055701587 -0.028879795
-0.18158072 -0.051781517 -0.027033892
-0.02611593 -0.059798401 0.050936799
-0.2166767 -0.058582358 -0.030501004
-0.02611593 -0.059798401 0.050936799
-0.02611593 -0.059798401 0.050936799
-0.2386775 -0.064520471 -0.029196057
-0.02611593 -0.059798401 0.050936799
-0.21562372 -0.054622803 -0.028448388
-0.21066509 -0.050587159 -0.031469256
-0.02611593 -0.059798401 0.050936799
-0.24065357 -0.058514312 -0.029050365
-0.02611593 -0.059798401 0.050936799
-0.02611593 -0.059798401 0.050936799
-0.23443092 -0.063770153 -0.016257606
-0.02611593 -0.059798401 0.050936799
-0.24465586 -0.054482549 -0.029902797
-0.23062006 -0.049551725 -0.029076103
-0.02611593 -0.059798401 0.050936799
-1.0323745 -0.05500409 -0.27324647
-0.02611593 -0.059798401 0.050936799
-0.02611593 -0.059798401 0.050936799
-1.0586962 -0.079644762 -0.2321855
-0.02611593 -0.059798401 0.050936799
-0.99903196 -0.03337951 -0.25947493
-0.25659266 -0.048476677 -0.027569864
-1.0672413 -0.079046771 -0.2080065
-1.0575607 -0.054688778 -0.22975451
-1.0196911 -0.033629749 -0.24108641
-0.02611593 -0.059798401 0.050936799
-1.0778048 -0.078423508 -0.18478957
-1.0590883 -0.054133993 -0.20470738
-1.0413462 -0.032876562 -0.22266114
-1.0316252 -0.012572166 -0.24148223
-1.0903637 -0.076793239 -0.16151705
-1.0666523 -0.053521506 -0.18154682
-1.0509323 -0.033238631 -0.20048067
-1.0351976 -0.013973685 -0.21843286
-1.0868738 -0.076274484 -0.13556422
-1.0752161 -0.052905422 -0.1583675
-1.0595001 -0.033622384 -0.17731935
-1.0558381 -0.014242008 -0.19904473
-1.1084538 -0.075593665 -0.11314027
-1.0827653 -0.053310849 -0.13422529
-1.067068 -0.034009721 -0.15417683
-1.0644246 -0.014607668 -0.17688303
-1.1129769 -0.074028283 -0.088018753
-1.1013459 -0.052640788 -0.11185772
-1.0716178 -0.034425911 -0.130091
-1.0770104 -0.014958972 -0.15464622
-1.1395562 -0.073329523 -0.065500841
-1.1129131 -0.053013768 -0.088640019
-1.0711685 -0.034860048 -0.10609913
-1.0665144 -0.017482927 -0.12787932
-1.1340475 -0.072836027 -0.038585931
-1.1224581 -0.052412186 -0.064442247
-1.1027842 -0.034107156 -0.085486598
-1.0750822 -0.017866675 -0.104718
-1.1425887 -0.071238212 -0.014388919
-1.1199716 -0.052889679 -0.038488626
-1.1113333 -0.034508996 -0.061325617
-1.0846498 -0.018246833 -0.08153788
-0.02611593 -0.059798401 0.050936799
-1.1274981 -0.052313365 -0.013328761
-1.1188823 -0.034914419 -0.037183426
-1.0802051 -0.019695153 -0.057639197
-1.1826187 -0.07001394 0.037400249
-1.1450416 -0.051683076 0.01101936
-1.1224136 -0.03535229 -0.012116738
-1.1077881 -0.019992623 -0.035120524
-0.02611593 -0.059798401 0.050936799
-1.1555489 -0.051114079 0.037235256
-1.1359617 -0.035736181 0.012138203
-1.1303533 -0.020326126 -0.01169613
-1.211609 -0.067865513 0.091000058
-1.1820761 -0.051469408 0.062734134
-1.1484913 -0.036141753 0.037374001
-1.1368878 -0.021753062 0.013408907
-0.02611593 -0.059798401 0.050936799
-1.182585 -0.050936304 0.088762127
-1.1579987 -0.035576347 0.06357111
-1.1474217 -0.023165639 0.038589116
-1.2125671 -0.065853745 0.14607304
-1.1980727 -0.050367452 0.11607164
-1.1705282 -0.03598192 0.08880692
-1.1489533 -0.023610691 0.063618228
-1.2190338 -0.064335451 0.17423114
-1.2195219 -0.049813248 0.14549322
-1.1910189 -0.036394957 0.11619237
-1.1754802 -0.023966014 0.089117095
-1.2285038 -0.063806228 0.20242757
-1.2200121 -0.049298234 0.17252088
-1.2004929 -0.036865562 0.14437079
-0.02611593 -0.059798401 0.050936799
-1.2229726 -0.062331006 0.23036018
-1.2234873 -0.049790375 0.20058657
-1.2239603 -0.03628609 0.17283028
-1.2084483 -0.025838722 0.1447193
-1.2264397 -0.060823485 0.25846189
-1.2379189 -0.049279384 0.23087627
-1.225421 -0.037803326 0.20184003
-0.02611593 -0.059798401 0.050936799
-0.02611593 -0.059798401 0.050936799
-1.2264115 -0.048807435 0.25767845
-1.235872 -0.037288599 0.2310549
-1.2243857 -0.028808445 0.20198341
-0.02611593 -0.059798401 0.050936799
-1.2667447 -0.048293576 0.293455
-1.233348 -0.037802272 0.25900784
-0.02611593 -0.059798401 0.050936799
-0.02611593 -0.059798401 0.050936799
-1.297061 -0.047833696 0.33004332
-1.2916071 -0.038295999 0.29910326
-1.2373012 -0.030807195 0.26020879
-1.539726 -0.057196096 0.45846087
-0.02611593 -0.059798401 0.050936799
-1.2761045 -0.038838238 0.32581225
-0.02611593 -0.059798401 0.050936799
-3.1275015 -0.0500586 0.96348852
-1.5317553 -0.04515449 0.45452809
-0.02611593 -0.059798401 0.050936799
-0.02611593 -0.059798401 0.050936799
-3.0733721 -0.047334835 1.0225444
-3.1294892 -0.027982807 0.95992392
-1.5257398 -0.036159463 0.45357788
-0.02611593 -0.059798401 0.050936799
-3.1414485 -0.043911457 1.1249155
-3.080292 -0.027313117 1.0230362
-3.12639 -0.012032472 0.96215516
-1.537643 -0.031189606 0.45789206
-3.2084877 -0.040527843 1.2292674
-3.137476 -0.026838258 1.1201484
-3.0772228 -0.014344182 1.0242138
-3.1302867 -0.0050916616 0.96635509
-3.2724528 -0.037227355 1.3375612
-3.2094808 -0.02447271 1.2265754
-3.1453526 -0.014883943 1.1245136
-3.0771511 -0.010399129 1.0272849
-3.3511865 -0.033090267 1.4581511
-3.2784154 -0.023190111 1.3369266
-3.2083895 -0.015532095 1.2297179
-3.1482506 -0.012963961 1.1296043
-3.4328446 -0.029014774 1.582796
-3.3502181 -0.022023372 1.4543319
-3.2813163 -0.017252723 1.3410898
-3.2212415 -0.016629983 1.2379414
-3.4975059 -0.025000293 1.7071214
-3.4387894 -0.020012863 1.5840706
-3.3531084 -0.018103734 1.4594587
-3.2802346 -0.020346245 1.3460153
-4.7112794 -0.0070644729 2.4194124
-3.5034437 -0.019015959 1.7093415
-3.442631 -0.018143555 1.5921791
-3.3658822 -0.023291387 1.4726084
-4.5998149 -0.0028712265 2.4954274
-4.721149 -0.0031378008 2.4256704
-3.4924123 -0.020091441 1.7111161
-3.4435165 -0.027283151 1.6000329
-4.624012 0.0015473105 2.6440105
-4.5998006 -0.0038891472 2.4964087
-4.712081 -0.0092595257 2.4303913
-4.8274069 -0.021599865 2.3633046
-3.4226394 -0.010814238 2.0690989
-4.637857 -0.0025645643 2.6531982
-4.5867634 -0.013006622 2.5000007
-4.7099543 -0.029462287 2.4409897
-4.5890908 0.011733923 2.9036291
-3.4186823 -0.01680948 2.0679159
-4.6485505 -0.015866574 2.6721642
-4.5885763 -0.037266705 2.514601
-3.2151332 -0.0060199536 2.1463268
-4.5781813 -0.0012671575 2.9011884
-3.4175463 -0.029991753 2.0776596
-4.740366 -0.043758266 2.7414024
-4.3654146 0.018352345 3.0426078
-3.2180672 -0.018115683 2.1521649
-4.5611539 -0.02243313 2.9064887
-3.4173596 -0.05425901 2.092222
-4.2580624 0.022668492 3.1126997
-4.3534579 -0.0017234944 3.0440211
-4.4566503 -0.027285576 2.9864714
-3.4015019 -0.059117645 2.1918712
-4.1547132 0.025999155 3.1828489
-4.2471061 -0.0024210028 3.1150417
-3.2879751 -0.03788976 2.3211732
-3.3282988 -0.065569073 2.2564056
-4.0534201 0.02939127 3.2500362
-4.1407924 -0.0030823275 3.1840625
-2.6268249 -0.044827495 1.951544
-3.2699585 -0.07109347 2.328238
-3.9560888 0.032761574 3.3192985
-4.0355344 -0.0036858097 3.2501032
-2.7453682 -0.045700286 2.1368105
-2.6266015 -0.074148163 1.9690154
-2.43296 -9.9360943e-05 2.1467896
-3.9381773 -0.0033511743 3.3213105
-4.0233717 -0.043029748 3.2661693
-2.5302193 -0.07789015 1.98915
-1.8864448 -0.011012074 1.7452239
-2.5666397 -0.022905003 2.275924
-2.4530821 -0.052135792 2.0972083
-2.5067742 -0.08237955 2.0666561
-1.8358657 -0.0097526181 1.7753099
-1.8814157 -0.03213498 1.7507496
-1.9180278 -0.055495203 1.7230031
-2.4370351 -0.087368146 2.1062737
-1.9089932 -0.00421267 1.9278311
-1.8268826 -0.032853365 1.778725
-1.868404 -0.05728592 1.7560527
-1.9059566 -0.084714234 1.7322516
-2.0751407 0.0037862845 2.1861739
-1.9500539 -0.030052582 1.9831511
-1.8295724 -0.059236139 1.8003055
-1.8543559 -0.087493867 1.7642462
-2.2683351 0.013980761 2.4950802
-2.130821 -0.026378989 2.2626967
-1.9968897 -0.06110527 2.0514894
-1.8911514 -0.092487894 1.882885
-3.2766645 0.053208046 3.7570961
-3.3517854 -0.0056478828 3.7094219
-2.1981297 -0.062880039 2.3603296
-2.0651727 -0.1006384 2.1510866
-3.1893876 0.056668505 3.8235471
-3.2575815 -0.0061576068 3.7726703
-3.324697 -0.068059847 3.7257915
-2.2633326 -0.11053111 2.4657242
-3.0933034 0.059277706 3.8798144
-3.1585286 -0.0065405816 3.8278277
-3.2294714 -0.072608665 3.7909479
-3.291563 -0.14258176 3.74683
-2.9991772 0.062857732 3.9381368
-3.0672865 -0.0070757195 3.8931315
-3.1322575 -0.075146899 3.8551037
-3.1923461 -0.14914457 3.8118758
-2.9080174 0.065412551 3.9984968
-2.9721203 -0.0075528473 3.9543619
-3.0302539 -0.078503937 3.9081511
-3.0931857 -0.15565315 3.8739226
-2.8159137 0.068018004 4.0558386
-2.8789911 -0.0079866275 4.0136309
-2.9428546 -0.082187019 3.9824734
-2.994987 -0.1621943 3.9379873
-2.7247684 0.071590729 4.1152172
-2.7887678 -0.0085000992 4.0779538
-2.8457568 -0.085616559 4.0406137
-2.898807 -0.16871017 4.00109
-2.634608 0.074149109 4.1755958
-2.6966009 -0.0089664683 4.1392403
-2.74964 -0.08906059 4.0997715
-2.8006275 -0.17523324 4.0641551
-2.5425045 0.076754607 4.2329378
-2.5995286 -0.0093603358 4.195435
-2.6583722 -0.092631407 4.1670208
-2.7054288 -0.18176362 4.1282763
-2.4552875 0.079269476 4.2963724
-2.5112259 -0.008939147 4.2638125
-2.5612366 -0.096097119 4.22716
-2.6072676 -0.1882686 4.1903424
-2.3650298 0.082737237 4.3617668
-2.4151349 -0.0093475208 4.3210258
-2.4641199 -0.099544749 4.2862997
-2.5129564 -0.19490394 4.2604799
-2.2738883 0.085310131 4.4211273
-2.3239305 -0.0098464787 4.3843303
-2.3708715 -0.10310464 4.3525114
-2.4138334 -0.20137632 4.3205271
-2.1807621 0.088893756 4.4794679
-2.2317076 -0.010367125 4.448616
-2.2737548 -0.10655227 4.4116507
-2.3147101 -0.2078487 4.3805747
-2.0876212 0.091459475 4.5387912
-2.1345603 -0.010833345 4.5088091
-2.1775632 -0.11006866 4.4748077
-2.2203424 -0.21453831 4.453712
-1.996405 0.093959995 4.6021504
-2.0375066 -0.011209138 4.5640044
-2.0822966 -0.11365383 4.5419822
-2.118201 -0.22103955 4.5147028
-1.0258291 0.02386957 2.5080004
-1.9451716 -0.011838295 4.6342878
-1.9851048 -0.11717382 4.6051207
-2.0190029 -0.22758427 4.5787487
-0.94661927 0.022324454 2.4654751
-0.99476302 -0.034521237 2.5223672
-1.882989 -0.12063938 4.6641655
-1.9187115 -0.23422305 4.6477747
-0.86851758 0.021891285 2.4169884
-0.90985382 -0.035798471 2.4637349
-1.7846627 -0.12328976 4.7343006
-1.8155327 -0.24076405 4.7107453
-0.79530662 0.020367704 2.3745759
-0.82320708 -0.036829628 2.3910689
-1.6835134 -0.12778774 4.7953458
-1.711373 -0.24729058 4.7726979
-0.75057274 0.022503804 2.4127898
-0.74716127 -0.03720136 2.3396213
-1.580319 -0.13032943 4.8583894
-1.6070821 -0.25394368 4.8416491
-0.69920367 0.022958823 2.4318428
-0.67891186 -0.038743176 2.2993019
-1.4780347 -0.1339578 4.9264317
-1.5018101 -0.26058233 4.9095807
-0.62263387 0.02103607 2.3553483
-0.60713136 -0.039847128 2.2339158
-1.3727511 -0.13759695 4.9944181
-1.3945427 -0.26822796 4.9774566
-0.52326411 0.015122958 2.1623156
-0.54295224 -0.040302407 2.1896911
-1.2655239 -0.14118901 5.0593672
-1.2861401 -0.275004 5.05233
-0.46685886 0.014479313 2.1302371
-1.1372764 -0.013363682 5.1533103
-1.1599779 -0.14508139 5.1413484
-1.1737946 -0.2817401 5.1241293
-0.46071184 0.022508588 2.3493416
-1.0308836 -0.013097532 5.2263474
-1.0496765 -0.14875656 5.2102404
-1.0614718 -0.28945795 5.1949105
-0.4023858 0.020930301 2.3132086
-0.91975772 -0.013595931 5.2852778
-0.93631554 -0.15149695 5.2820926
-0.94796193 -0.29736027 5.2756701
-0.34686413 0.02118155 2.2871649
-1.3500111 0.019297048 9.0482044
-1.3803569 -0.22313297 9.0763969
-1.3933337 -0.47706476 9.0730448
-0.28995371 0.019004986 2.2290404
-1.0915773 0.013561994 8.644125
-1.1139601 -0.21882612 8.6683483
-1.1191089 -0.46358916 8.6540117
-0.23931877 0.019165643 2.2090883
-0.86000311 0.0098415464 8.3006048
-0.87085152 -0.21612033 8.2987213
-0.87195081 -0.45291716 8.2854528
-0.18966885 0.018311959 2.1901371
-0.64450485 0.00525105 7.9533701
-0.64647317 -0.21259975 7.9434628
-0.6426357 -0.44132549 7.9252477
-0.14401001 0.020516843 2.2243335
-0.44599932 0.0027659088 7.6595087
-0.44513577 -0.20991561 7.6396389
-0.43277785 -0.43118644 7.5943894
-0.26242948 0.21308498 7.3817821
-0.26134521 -0.00081349909 7.3738904
-0.25777698 -0.20719931 7.3370771
-0.24211527 -0.42275324 7.3068748
-0.09722583 0.2050353 7.1264567
-0.093440771 -0.0035672262 7.1016045
-0.083460823 -0.20535529 7.085762
-0.066240028 -0.41346538 7.0306563
0.056129813 0.19688404 6.879355
0.064102277 -0.0068965256 6.8635135
0.076899275 -0.20249738 6.8367267
0.09917625 -0.40566245 6.7836165
0.19913188 0.19015691 6.6664834
0.21180478 -0.0083349571 6.6336446
0.22655705 -0.20088924 6.6038752
0.25102177 -0.39922518 6.5598145
0.33336419 0.18424475 6.4657955
0.34899214 -0.011204071 6.4299545
0.36855716 -0.19857818 6.3891859
0.39396259 -0.39284596 6.3411794
0.46267229 0.17827824 6.2691998
0.48152137 -0.013381027 6.2443709
0.50183982 -0.19650614 6.1896601
0.52798384 -0.38550708 6.1267304
0.58213204 0.17220291 6.0807891
0.6028654 -0.015337601 6.0489979
0.62512434 -0.19439822 5.9903226
0.65763867 -0.37976503 5.9463458
0.69604617 0.16671479 5.916502
0.71842039 -0.016471796 5.8647513
0.74289668 -0.19273908 5.8170886
0.77512711 -0.37381718 5.7571893
0.80266201 0.16154119 5.736351
0.82944441 -0.018040277 5.7055902
-0.02611593 -0.059798401 0.050936799
-0.02611593 -0.059798401 0.050936799
-0.02611593 -0.059798401 0.050936799
-0.02611593 -0.059798401 0.050936799
0.18017441 -0.086083025 1.1869841
0.18454137 -0.12262436 1.1602323
1.0041809 0.15301019 5.4443245
1.0347013 -0.02131518 5.3985839
0.19838065 -0.0863913 1.1446233
0.20707303 -0.12125485 1.1348265
0.25919375 -0.0069479384 1.3850033
0.27007508 -0.051034197 1.3870027
0.26664129 -0.090789996 1.3183246
0.2296382 -0.12092134 1.1114022
0.29343486 -0.0063052848 1.397378
1.2181536 -0.023692206 5.102006
0.26419252 -0.087420501 1.1873869
0.25235316 -0.12073255 1.095975
1.2733232 0.14049003 5.0259175
1.304594 -0.025568917 4.9653072
0.27606684 -0.086381808 1.1271631
0.27295616 -0.12042805 1.0745876
1.3528317 0.13656646 4.8933125
1.389286 -0.025673948 4.8416781
0.32006603 -0.088512778 1.1803187
0.29885775 -0.12043092 1.0691007
1.4368119 0.13317609 4.7856426
1.4700311 -0.026818715 4.7211046
0.34268737 -0.088233538 1.1598934
0.33216217 -0.12285653 1.085439
1.5114527 0.1291438 4.6601295
1.5456834 -0.027855106 4.5956264
0.36115968 -0.087795235 1.1315459
0.36120906 -0.1240147 1.0878749
1.5853823 0.12684342 4.5496664
-0.02611593 -0.059798401 0.050936799
0.37963197 -0.087356932 1.1031982
0.39334908 -0.12527409 1.0952528
-0.02611593 -0.059798401 0.050936799
0.46627107 -0.052044094 1.289278
0.41703317 -0.088887513 1.1244776
0.43384334 -0.12690587 1.1214741
0.4814786 -0.0081415949 1.2917882
1.765582 -0.030840151 4.2693448
1.8037882 -0.17478326 4.2010031
1.845832 -0.32159549 4.1245337
1.7912934 0.11687362 4.2255206
1.8294652 -0.031050712 4.1561069
1.8666232 -0.17293632 4.0848203
1.9107307 -0.31781036 4.0113492
1.8564117 0.11442465 4.1252232
1.8955724 -0.031485509 4.0548272
1.9337195 -0.17135695 3.9825583
1.9799094 -0.31431085 3.913084
1.9206054 0.11190692 4.0289435
1.9556022 -0.032826256 3.9496431
1.9999098 -0.16986445 3.8853128
2.0450139 -0.31072465 3.810895
1.9776465 0.10855922 3.9247794
2.0208824 -0.032420434 3.8573968
2.060045 -0.16829614 3.7851813
2.1061382 -0.3071422 3.7097812
2.0409939 0.10690019 3.8365335
2.0811594 -0.032996505 3.7652268
2.1243665 -0.16692308 3.6949713
2.1714673 -0.30377308 3.6195884
2.0982823 0.10431714 3.7453833
2.1435294 -0.033670187 3.6780171
2.1846325 -0.1654814 3.6018376
2.2307043 -0.30029196 3.5245104
2.1597428 0.10255677 3.6631727
2.2049189 -0.034358397 3.5918264
2.2460485 -0.16418803 3.5166824
2.2879412 -0.29680365 3.4294693
2.2161062 0.09990494 3.57604
2.2561264 -0.033829968 3.4958446
2.2992597 -0.16266695 3.420681
2.351454 -0.29460809 3.3492928
2.2673955 0.09734343 3.4850028
2.3135915 -0.034576159 3.4137273
2.3628061 -0.16150737 3.3424854
2.4077852 -0.29120666 3.259269
2.323894 0.095564798 3.4048855
2.3731155 -0.034383968 3.3345895
2.4161673 -0.16013102 3.2544816
2.461098 -0.28777638 3.1683023
2.3783932 0.093793392 3.324806
2.4244883 -0.035018183 3.2475867
2.4654918 -0.15870413 3.1645536
2.5175598 -0.28450155 3.0852764
2.4287994 0.092126757 3.2398031
2.4748833 -0.034667067 3.1616204
2.5271547 -0.15664607 3.0924118
2.5740745 -0.28228083 3.0052311
2.478276 0.08939153 3.1588001
2.5325203 -0.034576226 3.0885181
2.5765352 -0.15527345 3.0054827
2.6214445 -0.27888331 2.917376
2.5308545 0.08855474 3.0827746
2.5809872 -0.035290126 3.0065699
2.6270278 -0.15401295 2.9245327
2.6789808 -0.27568445 2.83833
2.5855029 0.08663857 3.0106924
2.6314757 -0.035029456 2.9256022
2.682632 -0.15287891 2.8494866
2.7345741 -0.27253267 2.7623203
2.6319845 0.084913969 2.9297636
2.6820207 -0.034823045 2.8476329
2.7280357 -0.15051021 2.7636504
2.7810001 -0.26918581 2.6774828
2.6846523 0.082986906 2.8587186
2.7366772 -0.034739535 2.7755868
2.7765517 -0.14826079 2.6837556
2.8335569 -0.2659871 2.5995302
2.7342308 0.082160905 2.7827494
2.7832229 -0.034518771 2.6976929
2.8281562 -0.1471124 2.6087847
2.8790207 -0.26267278 2.516711
2.7716355 0.07954108 2.6979733
2.8257132 -0.034229394 2.6168754
2.8736687 -0.14585206 2.5289283
2.9783247 -0.26338032 2.478826
2.8202889 0.078646287 2.6260216
2.8722589 -0.034008633 2.5389812
2.9659216 -0.14548033 2.488194
3.0248072 -0.26008773 2.3969874
2.8668828 0.076813124 2.551091
2.9726973 -0.033846531 2.5080934
3.0225854 -0.14340436 2.4161465
3.0784009 -0.25692877 2.3210154
2.9622891 0.078029186 2.5183153
3.0233021 -0.032694563 2.4331412
3.0701389 -0.14118752 2.3382695
3.124887 -0.25263631 2.2391951
3.0088682 0.077213943 2.4424026
3.0698481 -0.03247381 2.3552475
3.1207066 -0.13999937 2.2613182
3.1764624 -0.24945211 2.162261
3.0554807 0.075362667 2.3684714
3.116431 -0.032289226 2.2793527
3.1723151 -0.13785118 2.1863656
3.2422185 -0.24749885 2.0950422
3.1041343 0.074467897 2.29652
3.1670508 -0.032155171 2.2053823
3.2219243 -0.13569579 2.1114504
4.6549234 -0.32020399 2.8245246
3.14977 0.073601976 2.2236252
3.2136753 -0.031006942 2.1315053
3.2745664 -0.13458717 2.03846
4.7289176 -0.31554171 2.716187
3.1953454 0.071790472 2.1477134
3.2562215 -0.030771824 2.0536864
4.7141628 -0.16212553 2.7532511
4.8029127 -0.31087947 2.6078494
3.2429993 0.0708993 2.0757806
4.6921849 -0.017501768 2.7802877
4.7841501 -0.15944856 2.6449523
4.6002631 -0.29259452 2.3588898
4.6632543 0.12409335 2.810401
4.7581844 -0.016828205 2.673028
-0.02611593 -0.059798401 0.050936799
4.6743512 -0.28802273 2.2555504
4.7484517 0.12349992 2.7137623
4.8231506 -0.015115045 2.5638056
-0.02611593 -0.059798401 0.050936799
5.01264 -0.29559654 2.2690842
4.8114619 0.12216648 2.6075225
4.624608 -0.017021962 2.3244071
4.9466038 -0.14874285 2.292985
5.0905595 -0.29087627 2.1566727
4.6058493 0.11132241 2.3660941
4.7018528 -0.015623204 2.2299542
5.0619388 -0.1465711 2.2028344
5.1655011 -0.28516349 2.0453353
4.667953 0.10990213 2.2648714
5.0412226 -0.012238655 2.245667
5.1409287 -0.1429266 2.0943849
13.622908 -0.6323216 4.924686
4.9872856 0.11741204 2.2780328
5.1131864 -0.010550614 2.136313
13.548644 -0.26831076 5.0547051
13.825349 -0.61769736 4.6240587
5.0875411 0.11771034 2.1841292
13.483059 0.071888909 5.1721268
13.737108 -0.25767177 4.756268
14.018716 -0.60296839 4.3196011
5.1453838 0.11655766 2.0689867
13.664577 0.0764817 4.8777113
13.927532 -0.2480036 4.4557757
14.220901 -0.58609122 4.0050144
-0.02611593 -0.059798401 0.050936799
13.858095 0.082031257 4.5830889
14.137008 -0.23845787 4.1579256
14.435205 -0.57238328 3.6971459
-0.02611593 -0.059798401 0.050936799
14.058646 0.086519673 4.2903161
14.330246 -0.22761974 3.847398
14.529858 -0.55257976 3.3546159
-0.02611593 -0.059798401 0.050936799
14.247046 0.090196043 3.9897532
14.532503 -0.21683201 3.5377016
13.551373 -0.49765718 2.7957399
-0.02611593 -0.059798401 0.050936799
14.450414 0.095854424 3.6869454
14.588038 -0.20479673 3.190762
13.482952 -0.47516051 2.4503105
-0.02611593 -0.059798401 0.050936799
14.568213 0.10137878 3.3547273
13.84158 -0.18485528 2.6909289
12.777704 -0.43245202 2.010138
-0.02611593 -0.059798401 0.050936799
14.196074 0.099573821 2.9255166
13.129922 -0.16581368 2.2334428
12.202467 -0.39521885 1.6234506
-0.02611593 -0.059798401 0.050936799
13.479045 0.095908642 2.4527147
12.495252 -0.15002133 1.8284738
11.645884 -0.36270082 1.2723405
-0.02611593 -0.059798401 0.050936799
12.813926 0.091174006 2.0279379
11.940303 -0.13421813 1.4610251
6.14783 -0.21004345 0.54879493
13.085758 0.32837594 2.23721
12.205588 0.087478347 1.6441307
11.419048 -0.12222024 1.1308895
5.976923 -0.19656605 0.39318585
12.508213 0.30669871 1.8454986
11.679012 0.084749967 1.2998235
6.0669756 -0.086474657 0.4805209
6.0353332 -0.18827161 0.25319484
11.963289 0.2863093 1.4862103
6.1419325 0.017743941 0.56403095
6.0102453 -0.080622271 0.33463943
6.0776563 -0.17882948 0.1085242
11.445911 0.2672981 1.1554408
5.9769731 0.018202014 0.40807489
6.0226145 -0.075126059 0.19345942
3.9023194 -0.13025151 -0.0039070565
6.0719585 0.11127833 0.49500963
6.0533977 0.021396514 0.26965487
3.8805525 -0.066120647 0.049678706
3.941572 -0.12369914 -0.09855552
5.9991775 0.10820776 0.34826702
6.0677552 0.023886058 0.12838322
3.9388499 -0.061690386 -0.04236383
3.6341426 -0.11313707 -0.17363402
6.0125556 0.10666539 0.2089414
3.8900039 -0.0044071684 0.0086041577
3.6093411 -0.057993911 -0.12015405
-0.02611593 -0.059798401 0.050936799
3.0969107 0.024804724 0.058998484
3.6864152 -0.0061258646 -0.073643073
4.0642323 -0.053663015 -0.2376323
-0.02611593 -0.059798401 0.050936799
3.1165736 0.025013851 -0.012390066
3.5319152 -0.0071110395 -0.15179473
4.1552992 -0.049134128 -0.34229088
3.8388531 -0.09677358 -0.4602679
3.2381322 0.026947014 -0.090657532
3.4374635 -0.0073659848 -0.22805682
3.8151476 -0.045741864 -0.40088081
1.9224578 -0.074961059 -0.25392333
3.3525982 0.028995736 -0.17379177
3.4039907 -0.0058221044 -0.30642876
1.9350592 -0.050496787 -0.2267075
4.1912732 -0.084660709 -0.70973158
3.3600721 0.028428996 -0.25496945
3.2986913 -0.0061822813 -0.37448683
4.2893209 -0.033849776 -0.66463286
3.4560614 -0.073617734 -0.66275072
3.2597454 0.026069298 -0.32415721
1.9267952 -0.027128296 -0.24513631
3.4512079 -0.035561558 -0.6089533
3.4275877 -0.067074567 -0.74212623
1.9273715 -0.0096197575 -0.21782114
3.0514548 -0.0071135424 -0.49091426
3.5163765 -0.030029967 -0.70810699
3.8042765 -0.061291534 -0.92313558
3.0603645 0.019075325 -0.44759262
3.4396999 0.0021047462 -0.64306802
3.4619896 -0.026483415 -0.7820496
3.7298865 -0.054655626 -0.997648
2.9841866 0.01748462 -0.50921607
3.4202054 0.0036164708 -0.72270268
3.4902358 -0.021891225 -0.87652743
2.6033406 -0.050685372 -0.75040042
2.8961387 0.014810519 -0.56363434
