# .PCD v0.7 - Point Cloud Data file format
VERSION 0.7
FIELDS x y z
SIZE 4 4 4
TYPE F F F
COUNT 1 1 1
WIDTH 1369
HEIGHT 1
VIEWPOINT 0 0 0 1 0 0 0
POINTS 1369
DATA ascii
-0.02611593 -0.059798401 0.050936799
-0.088594727 -0.056132689 -0.027853824
-0.02611593 -0.059798401 0.050936799
-0.02611593 -0.059798401 0.050936799
-0.094638929 -0.058074642 -0.029776447
-0.02611593 -0.059798401 0.050936799
-0.09659116 -0.065138631 -0.025866352
-0.10578368 -0.061907861 -0.036639452
-0.02611593 -0.059798401 0.050936799
-0.094593622 -0.056111157 -0.027741082
-0.02611593 -0.059798401 0.050936799
-0.02611593 -0.059798401 0.050936799
-0.09756349 -0.058136232 -0.025721431
-0.02611593 -0.059798401 0.050936799
-0.10764532 -0.06504488 -0.028658632
-0.11174513 -0.061922505 -0.034527384
-0.02611593 -0.059798401 0.050936799
-0.097536907 -0.056154661 -0.024685726
-0.02611593 -0.059798401 0.050936799
-0.02611593 -0.059798401 0.050936799
-0.10863637 -0.058024395 -0.029513378
-0.02611593 -0.059798401 0.050936799
-0.11260696 -0.065063119 -0.026565362
-0.11976239 -0.061875705 -0.03537672
-0.02611593 -0.059798401 0.050936799
-0.10657272 -0.056086179 -0.026515935
-0.02611593 -0.059798401 0.050936799
-0.02611593 -0.059798401 0.050936799
-0.11765345 -0.057974007 -0.030343916
-0.02611593 -0.059798401 0.050936799
-0.12160531 -0.065030821 -0.026396245
-0.12672368 -0.061886758 -0.033245865
-0.02611593 -0.059798401 0.050936799
-0.11151562 -0.0561225 -0.023422997
-0.02611593 -0.059798401 0.050936799
-0.02611593 -0.059798401 0.050936799
-0.12363362 -0.057970561 -0.029231519
-0.02611593 -0.059798401 0.050936799
-0.13566284 -0.065926135 -0.029150181
-0.13772166 -0.061847277 -0.033039171
-0.02611593 -0.059798401 0.050936799
-0.12356567 -0.055025339 -0.026178479
-0.02611593 -0.059798401 0.050936799
-0.02611593 -0.059798401 0.050936799
-0.13565016 -0.057909407 -0.030005686
-0.02611593 -0.059798401 0.050936799
-0.14462374 -0.065930016 -0.026981737
-0.14770111 -0.061829478 -0.031851605
-0.02611593 -0.059798401 0.050936799
-0.13258274 -0.054974951 -0.027009025
-0.02611593 -0.059798401 0.050936799
-0.02611593 -0.059798401 0.050936799
-0.14462976 -0.057895195 -0.028836917
-0.02611593 -0.059798401 0.050936799
-0.1576401 -0.065865271 -0.027737122
-0.15564348 -0.061855037 -0.028702296
-0.02611593 -0.059798401 0.050936799
-0.1425622 -0.054957151 -0.025821462
-0.02611593 -0.059798401 0.050936799
-0.02611593 -0.059798401 0.050936799
-0.15864593 -0.057826862 -0.029573504
-0.02611593 -0.059798401 0.050936799
-0.1736411 -0.066807672 -0.027454492
-0.17469618 -0.061732583 -0.031344261
-0.02611593 -0.059798401 0.050936799
-0.15356019 -0.054917675 -0.025614765
-0.02611593 -0.059798401 0.050936799
-0.02611593 -0.059798401 0.050936799
-0.16455123 -0.057895772 -0.024462461
-0.02611593 -0.059798401 0.050936799
-0.1916378 -0.066743076 -0.027116261
-0.19572978 -0.061621033 -0.032948978
-0.02611593 -0.059798401 0.050936799
-0.16553926 -0.054892696 -0.024389617
-0.02611593 -0.059798401 0.050936799
-0.02611593 -0.059798401 0.050936799
-0.18762189 -0.057740871 -0.028028924
-0.02611593 -0.059798401 0.050936799
-0.21365643 -0.067645855 -0.027720556
-0.21470758 -0.061570935 -0.031592298
-0.02611593 -0.059798401 0.050936799
-0.18355076 -0.053810176 -0.025033027
-0.02611593 -0.059798401 0.050936799
-0.02611593 -0.059798401 0.050936799
-0.21265477 -0.057614967 -0.02955848
-0.02611593 -0.059798401 0.050936799
-0.24668783 -0.067491248 -0.029099785
-0.2387071 -0.062484629 -0.031159345
-0.02611593 -0.059798401 0.050936799
-0.20758383 -0.053687863 -0.026581373
-0.02611593 -0.059798401 0.050936799
-0.02611593 -0.059798401 0.050936799
-0.23463203 -0.057554103 -0.028145421
-0.02611593 -0.059798401 0.050936799
-1.0604968 -0.096932635 -0.27147782
-0.26264656 -0.06245276 -0.02770938
-0.02611593 -0.059798401 0.050936799
-0.23257925 -0.053598143 -0.02611161
-1.083133 -0.096193947 -0.25203407
-0.02611593 -0.059798401 0.050936799
-0.25959 -0.05750056 -0.02567634
-0.02611593 -0.059798401 0.050936799
-1.0655292 -0.094834149 -0.2203283
-1.0457757 -0.070584409 -0.23826556
-0.02611593 -0.059798401 0.050936799
-0.25251943 -0.053580631 -0.022736821
-1.1042224 -0.094983608 -0.20360088
-1.0643975 -0.070878007 -0.21791533
-1.0516543 -0.049602624 -0.23577511
-0.02611593 -0.059798401 0.050936799
-1.0987099 -0.09349031 -0.17666796
-1.0679247 -0.070316039 -0.19283062
-1.0532047 -0.050029583 -0.21174568
-1.0475056 -0.030692572 -0.23150928
-1.1102545 -0.092881538 -0.15243259
-1.0805066 -0.069667518 -0.17057578
-1.0637908 -0.050388068 -0.18954641
-1.0490599 -0.03211936 -0.20749786
-1.1258169 -0.092240341 -0.12912172
-1.0940921 -0.070015229 -0.14832017
-1.0623041 -0.05086197 -0.16357404
-1.0546322 -0.033513702 -0.18441093
-1.1303401 -0.090674959 -0.1040002
-1.1116543 -0.06936685 -0.12497172
-1.0758897 -0.051209684 -0.14131841
-1.070236 -0.033836149 -0.16311741
-1.1318491 -0.090138264 -0.077953421
-1.1192036 -0.069772273 -0.10082953
-1.0874757 -0.051564578 -0.1191004
-1.0697719 -0.035288207 -0.1381439
-1.1423711 -0.088551357 -0.052719153
-1.1367656 -0.069123894 -0.077481076
-1.112078 -0.051854726 -0.097637743
-1.0813618 -0.036642931 -0.11594389
-1.1378813 -0.088036194 -0.026785105
-1.140293 -0.068561934 -0.052396365
-1.1266259 -0.052235026 -0.073364019
-1.1009461 -0.03696911 -0.093575522
-1.1634232 -0.087377191 -0.0022866726
-1.136788 -0.0690611 -0.025461897
-1.1171407 -0.052737642 -0.047541954
-1.1005007 -0.038403079 -0.069601677
-1.1899276 -0.086750776 0.024229873
-1.1553314 -0.06842722 -0.001094982
-1.1216717 -0.053171925 -0.022456467
-1.1010364 -0.039851546 -0.044609368
-0.02611593 -0.059798401 0.050936799
-1.1628392 -0.067868993 0.02506455
-1.1322204 -0.053566586 0.0017420873
-1.1185837 -0.040221084 -0.020279281
-1.2069389 -0.084627315 0.076604538
-1.1793492 -0.068278305 0.051375173
-1.1507528 -0.054950453 0.027072616
-1.1331356 -0.041601215 0.0039764196
-1.2204082 -0.084083736 0.10487614
-1.2048764 -0.068637207 0.076855257
-1.1422675 -0.055449482 0.052913483
-1.1486874 -0.042977758 0.028250929
-1.212896 -0.082597598 0.13177149
-1.2073665 -0.068115018 0.10392049
-1.1937898 -0.05571508 0.078882121
-1.1602021 -0.044404838 0.054449581
-1.2183667 -0.082082734 0.15989277
-1.2168365 -0.067585789 0.13211693
-1.2042823 -0.056164011 0.10607967
-1.2087252 -0.044681206 0.080361843
-1.2218338 -0.080575205 0.18799448
-1.2183118 -0.068085112 0.16014501
-1.2127751 -0.056620114 0.13323963
-0.02611593 -0.059798401 0.050936799
-1.2342846 -0.080053307 0.21724693
-1.2297814 -0.067548707 0.18837903
-1.2192497 -0.057101484 0.16136166
-1.2067224 -0.047661267 0.13428871
-0.02611593 -0.059798401 0.050936799
-1.2332339 -0.067059115 0.21746239
-1.2307044 -0.057583001 0.19057733
-0.02611593 -0.059798401 0.050936799
-1.2660872 -0.078074992 0.28089973
-1.2337093 -0.067562014 0.24547169
-1.2311801 -0.058085907 0.21858662
-1.2206789 -0.050620079 0.19051555
-0.02611593 -0.059798401 0.050936799
-1.2541025 -0.067065671 0.27787346
-1.2236757 -0.058599431 0.24544595
-1.2231581 -0.052115638 0.21854442
-0.02611593 -0.059798401 0.050936799
-0.02611593 -0.059798401 0.050936799
-1.2550334 -0.059099615 0.28003573
-1.2276181 -0.053622104 0.24761052
-0.02611593 -0.059798401 0.050936799
-0.02611593 -0.059798401 0.050936799
-0.02611593 -0.059798401 0.050936799
-0.02611593 -0.059798401 0.050936799
-1.5314877 -0.077528916 0.47494438
-1.5271688 -0.068860844 0.43700749
-1.3316189 -0.061176188 0.35645792
-0.02611593 -0.059798401 0.050936799
-3.0931149 -0.093715988 0.99206471
-1.526472 -0.068530306 0.47401294
-1.5380455 -0.061912995 0.44233859
-1.2947301 -0.059200786 0.3498008
-3.1035991 -0.09112072 1.0723351
-3.0950553 -0.078711353 0.99237257
-6.2322259 -0.0751478 1.811451
-1.5459652 -0.060956813 0.44650558
-3.1667218 -0.089678764 1.172577
-3.0975864 -0.078108281 1.0704573
-3.0919459 -0.069796003 0.99647701
-6.2310047 -0.071351044 1.8225005
-3.2396517 -0.087381989 1.2830215
-3.1706216 -0.07872054 1.1758493
-3.1123543 -0.072254449 1.0818436
-3.0828726 -0.069900662 1.0003065
-3.3075635 -0.085121237 1.3943715
-3.2505431 -0.079416215 1.287371
-3.1794543 -0.074833646 1.1840879
-3.1231725 -0.074395522 1.0920109
-3.3872676 -0.083016396 1.5169435
-3.310487 -0.080165595 1.3975171
-3.2523851 -0.077554099 1.2954419
-3.1902475 -0.080010377 1.1962004
-3.4688396 -0.08103101 1.6465505
-3.3991034 -0.080118559 1.5252204
-3.3132994 -0.080335714 1.4075699
-3.2621715 -0.08575201 1.3084812
-4.8089094 -0.085377313 2.4018176
-3.4856308 -0.081168979 1.6578664
-3.3939891 -0.084262446 1.5320519
-3.3389823 -0.091584228 1.4268539
-4.6617546 -0.082023665 2.4611433
-4.805831 -0.089477845 2.4066875
-3.489429 -0.087370671 1.6698292
-3.4116855 -0.098539159 1.5511315
-4.5711374 -0.077899754 2.5455499
-4.6517472 -0.089094549 2.4628286
-4.7917171 -0.10268868 2.4151871
-3.4922183 -0.10562818 1.6845562
-4.747673 -0.073502451 2.7840157
-4.6036887 -0.089249767 2.5719631
-4.6396284 -0.10631561 2.4722934
-5.0263238 -0.13522059 2.5510371
-3.368495 -0.067360297 2.0870686
-4.7495337 -0.090691365 2.7947431
-4.6291485 -0.11074983 2.605062
-4.9146967 -0.14222445 2.63785
-3.4119954 -0.064583808 2.2199783
-3.3011467 -0.082041033 2.0545311
-3.4037268 -0.10016524 2.0281148
-4.8229027 -0.15031916 2.7340176
-3.3664672 -0.06120779 2.3002143
-3.2201462 -0.082305118 2.1070275
-3.2692685 -0.10211629 2.0515699
-3.3619232 -0.12923868 2.0228043
-3.2765505 -0.058414243 2.3475971
-3.1964574 -0.082012437 2.1966195
-3.2070665 -0.10451084 2.1153839
-3.2541871 -0.13336384 2.0617256
-2.6175141 -0.056201614 1.9701704
-3.2655385 -0.083558008 2.3529377
-3.1823938 -0.10822105 2.204885
-3.2018452 -0.13886669 2.1336706
-2.7321172 -0.053017087 2.1514349
-2.6075125 -0.079324037 1.9745662
-3.2948604 -0.11320515 2.3949649
-3.1979179 -0.14575429 2.2375078
-4.0010877 -0.046397619 3.2816963
-2.5229809 -0.079150259 2.001996
-2.5766726 -0.10437678 1.9705343
-2.676769 -0.13803019 1.9728005
-2.421226 -0.049106434 2.0886638
-2.5163264 -0.078760386 2.0899084
-2.4921677 -0.10618457 1.9969283
-2.5478005 -0.14049283 1.9703404
-1.9069313 -0.049608059 1.7269031
-2.4830551 -0.079105452 2.1573019
-2.4421546 -0.10935499 2.0509531
-2.4829628 -0.14455411 2.0150681
-1.8563709 -0.048330516 1.7559894
-1.8979228 -0.075744472 1.7322634
-2.4236453 -0.11188105 2.1315882
-2.4418025 -0.14883676 2.0772412
-1.8254472 -0.046325061 1.8044631
-1.8502721 -0.075546436 1.7663865
-1.8858438 -0.10296384 1.7415482
-1.9293025 -0.1354783 1.7237676
-1.9848963 -0.043079033 2.0475898
-1.8743349 -0.076316468 1.8698581
-1.8372012 -0.10476905 1.7756162
-1.8737025 -0.13827229 1.7556869
-2.1852064 -0.038767971 2.351521
-2.0435023 -0.078323141 2.129077
-1.9319373 -0.11056432 1.9513447
-1.8289922 -0.14213517 1.7937928
-3.3254864 -0.02409992 3.7286024
-2.2544446 -0.081351273 2.4540818
-2.1097896 -0.11886328 2.2286184
-1.9953194 -0.15604204 2.0467412
-3.2352288 -0.020632148 3.793997
-3.3013794 -0.091536447 3.7469373
-3.361505 -0.16048071 3.7008002
-2.2024863 -0.17291933 2.3624215
-3.1420317 -0.01812071 3.8563187
-3.2042322 -0.092002675 3.8071303
-3.2691815 -0.16410936 3.7710297
-3.3253133 -0.24410227 3.7266185
-3.0479283 -0.015522413 3.9136233
-3.1081038 -0.092447221 3.8663423
-3.1632164 -0.16744457 3.8220029
-3.2251112 -0.24965078 3.7906637
-2.9548247 -0.012920521 3.9709468
-3.0129373 -0.092924356 3.927573
-3.0709674 -0.17100087 3.8882334
-3.1308413 -0.25724977 3.8587847
-2.8617401 -0.010300554 4.0272703
-2.917846 -0.093329132 3.9848046
-2.9777191 -0.17456077 3.9544458
-3.0307369 -0.26370764 3.9178135
-2.7705984 -0.0077276751 4.0866308
-2.8276041 -0.093860686 4.0501275
-2.8835268 -0.17806999 4.0176401
-2.9296103 -0.26918739 3.9778414
-2.6813819 -0.0052199587 4.1500273
-2.7364223 -0.095341392 4.1124148
-2.7854295 -0.18150312 4.0757613
-2.836359 -0.27676469 4.0449815
-2.5892594 -0.0026325732 4.2083688
-2.6383688 -0.095720753 4.1675906
-2.6951466 -0.18608826 4.1440115
-2.7401226 -0.28333485 4.111083
-2.4952123 1.9989908e-05 4.2626748
-2.5500703 -0.09629941 4.2359505
-2.5970116 -0.18955755 4.2041316
-2.6380749 -0.28974563 4.1670752
-2.4069581 0.0024950877 4.3280892
-2.4540167 -0.096671596 4.2911634
-2.4999323 -0.19296902 4.2612715
-2.5418575 -0.2962977 4.2321777
-2.3148544 0.0051005855 4.3854313
-2.3608496 -0.097141549 4.3524318
-2.4066651 -0.196547 4.3284836
-2.4456024 -0.30288592 4.2992787
-2.2246566 0.007622771 4.4478092
-2.2695932 -0.098694608 4.4187174
-2.3095675 -0.19997655 4.3866234
-2.3454795 -0.3093619 4.3593078
-2.1334593 0.010141402 4.5101686
-2.1744456 -0.099153668 4.4789486
-2.2133982 -0.20447467 4.4487624
-2.255059 -0.31709126 4.4355006
-2.0373788 0.011750773 4.5664177
-2.0802608 -0.099645302 4.5411973
-2.1190751 -0.20811051 4.5189538
-2.1519966 -0.32452354 4.492456
-1.9451631 0.01424773 4.6297579
-1.9850233 -0.10119463 4.6064081
-2.0218687 -0.21264842 4.5830736
-2.049818 -0.33106098 4.5554457
-1.8519471 0.01674106 4.6930795
-1.8878762 -0.10166086 4.6666012
-1.9217336 -0.21612489 4.6431565
-1.9534547 -0.33875757 4.6285276
-0.93088031 -0.018590853 2.5124562
-1.7897143 -0.10314859 4.7277575
-1.8224903 -0.22070616 4.7092381
-1.8493698 -0.34521174 4.6864815
-0.82721847 -0.020745639 2.3874338
-1.6925111 -0.10366909 4.7909493
-1.7212995 -0.22424051 4.7723007
-1.7441952 -0.35275972 4.7493973
-0.78531545 -0.018761575 2.4347014
-1.5903875 -0.105135 4.8500304
-1.6172441 -0.22865881 4.8282919
-1.6427956 -0.36051047 4.8243837
-0.7159875 -0.019379508 2.3983798
-1.4882599 -0.10560108 4.9091301
-1.5149076 -0.23334128 4.8993154
-1.535659 -0.36802948 4.8852625
-0.64033872 -0.020371189 2.3259213
-1.3850616 -0.10714293 4.9721918
-1.4125525 -0.23804185 4.9713378
-1.4283913 -0.37567511 4.9531393
-0.55568802 -0.021439875 2.2002742
-1.2855216 -0.10799621 5.0533404
-1.3044044 -0.24256496 5.0322523
-1.322884 -0.38454854 5.0340304
-0.49737671 -0.022000244 2.1631598
-1.1803424 -0.10952716 5.1153636
-1.1998435 -0.24747169 5.1152339
-1.2116544 -0.3921724 5.0998325
-0.44104642 -0.022571523 2.1270826
-1.0757886 -0.1114163 5.1974001
-1.0886772 -0.25202364 5.1770906
-1.0973506 -0.39987934 5.1695766
-0.38759926 -0.022240747 2.0970778
-0.96647513 -0.1120884 5.2663646
-0.9783048 -0.256771 5.2499638
-0.98579204 -0.40982836 5.2533364
-0.33615562 -0.022902617 2.0670924
-1.4634933 -0.15331475 9.2162638
-1.4840536 -0.41163325 9.2359819
-1.4913456 -0.68334836 9.2191982
-0.28855762 -0.022695014 2.0451975
-1.1979319 -0.15016693 8.8172131
-1.207983 -0.39901996 8.808897
-1.2043836 -0.65963173 8.7841063
-0.24688326 -0.021493705 2.080451
-0.95206702 -0.14723675 8.4345322
-0.95795667 -0.38823208 8.4332838
-0.94937861 -0.63980907 8.4055624
-0.72454852 0.094037175 8.0945215
-0.72856158 -0.14483908 8.0862741
-0.72673935 -0.37755698 8.0680246
-0.71522033 -0.62005579 8.0354109
-0.52424228 0.088726282 7.7905726
-0.52443451 -0.14296654 7.771379
-0.51760447 -0.36868548 7.752162
-0.50136936 -0.60189623 7.7026224
-0.34149823 0.084063753 7.5099721
-0.33387035 -0.14045997 7.4797578
-0.32423803 -0.3589738 7.4486141
-0.30303639 -0.58614933 7.39609
-0.17157933 0.080284908 7.2386303
-0.16006364 -0.13912737 7.2014332
-0.14453597 -0.35053733 7.1633053
-0.12015761 -0.57086951 7.1188483
-0.010999396 0.076908678 7.0024829
0.0036664456 -0.13764186 6.9723172
0.019857846 -0.34371254 6.9152675
0.047090687 -0.55789369 6.8618641
0.13565405 0.072510526 6.7705789
0.15413681 -0.13585642 6.7294497
0.17445943 -0.33705086 6.6784124
0.20179075 -0.54530537 6.6291175
0.27551869 0.0689383 6.5498209
0.29485238 -0.13427027 6.4997663
0.31843749 -0.33071148 6.4617581
0.34756339 -0.53375697 6.4005189
0.40581965 0.065985791 6.3522611
0.42837447 -0.13343322 6.3132181
0.45361918 -0.32553858 6.2562513
0.48687634 -0.52370781 6.2010255
0.52940279 0.062787041 6.1698275
0.55480427 -0.13248059 6.1218033
0.57882541 -0.3193481 6.0519495
0.61512041 -0.51254702 5.997757
0.64593101 0.059667699 5.9845266
0.67221701 -0.13147759 5.9295578
0.70155251 -0.31465313 5.8756776
0.73663867 -0.50363207 5.8095794
0.75559157 0.056446843 5.8063545
0.78613985 -0.12994882 5.7643971
-0.02611593 -0.059798401 0.050936799
-0.02611593 -0.059798401 0.050936799
0.86391562 0.054599702 5.6632447
0.89428455 -0.1296154 5.6113262
0.17011942 -0.11007924 1.1887388
0.17654219 -0.14668201 1.1649485
-0.02611593 -0.059798401 0.050936799
-0.02611593 -0.059798401 0.050936799
0.1914601 -0.10952507 1.1533374
0.19903249 -0.14627616 1.1375253
1.0592977 0.049234405 5.3633876
1.0935998 -0.12790582 5.3065219
0.21411888 -0.10928202 1.1349113
0.22169518 -0.14503326 1.1191174
0.27708834 -0.033008121 1.3841965
0.28670382 -0.077837378 1.3722014
0.23352003 -0.10777511 1.1025643
0.24540997 -0.14484806 1.1036714
1.235908 0.043720201 5.0758839
0.33808407 -0.078355581 1.4452549
0.25951135 -0.10886826 1.1020578
0.26484856 -0.14337735 1.073324
1.3184613 0.041749313 4.9452586
0.35069212 -0.078067064 1.3709989
0.28439444 -0.10884945 1.09559
0.29404527 -0.14468022 1.0837572
1.4022583 0.039539665 4.82761
0.3708832 -0.077364601 1.327619
0.30927753 -0.10883063 1.0891223
0.32201749 -0.14576247 1.0822134
1.4790001 0.03740944 4.7070937
0.40607882 -0.078689024 1.3379394
0.33732465 -0.10998521 1.0915772
0.35108316 -0.14693873 1.085649
1.5527798 0.035253778 4.5886331
0.3673555 -0.07596352 1.1396465
0.366409 -0.11117958 1.0960124
0.38218194 -0.14915818 1.0910286
-0.02611593 -0.059798401 0.050936799
0.40268609 -0.076414734 1.1569828
0.3975344 -0.11141745 1.1024275
0.41641521 -0.15051518 1.1033672
0.4652296 -0.033935033 1.2836232
1.7368478 -0.12231755 4.301239
0.43593544 -0.11295162 1.1236881
0.46412107 -0.15538865 1.1413987
1.7637057 0.029265352 4.2644658
1.8048612 -0.12266907 4.1949229
1.8450443 -0.26760113 4.1255255
1.8900986 -0.41644186 4.0499644
1.831861 0.026769444 4.1661115
1.8708977 -0.12203169 4.0896626
1.9068873 -0.26375088 4.009398
1.9550426 -0.41069317 3.9388149
1.8929094 0.025407024 4.0619087
1.9350281 -0.12147757 3.9894383
1.9772266 -0.26241747 3.9200749
2.0232441 -0.4062084 3.8415861
1.9529725 0.023030281 3.9587057
1.9940846 -0.12083315 3.8853087
2.0413837 -0.25988176 3.8208864
2.0854092 -0.40166581 3.7424705
2.0153201 0.021374851 3.8704786
2.0584395 -0.12049611 3.7970803
2.101579 -0.25736791 3.7237716
2.1507051 -0.39726073 3.6502967
2.0766304 0.019759178 3.7802711
2.1187205 -0.12007234 3.7049279
2.1659606 -0.25504929 3.6365786
2.2109642 -0.39280146 3.5562172
2.1329231 0.018179528 3.6891577
2.180095 -0.11974262 3.6177552
2.222213 -0.25257531 3.5425386
2.2671306 -0.38823742 3.4572146
2.1944208 0.016383 3.6089463
2.2374701 -0.11939853 3.5306578
2.2805393 -0.2501809 3.4524591
2.3337221 -0.3851251 3.3809981
2.2477136 0.014814124 3.5178895
2.2907712 -0.11896773 3.4396367
2.3399782 -0.24789862 3.3683591
2.3869636 -0.38062263 3.2860506
2.3011007 0.01315482 3.4318306
2.3482213 -0.118696 3.3565378
2.3974171 -0.24560913 3.2842965
2.4402804 -0.37619254 3.1951015
2.3555806 0.011401467 3.3507514
2.4047275 -0.11847496 3.2764566
2.4477639 -0.2432041 3.1953673
2.4977796 -0.37295747 3.1140563
2.4090986 0.0096155405 3.2716904
2.4520669 -0.11805882 3.1875479
2.504293 -0.24200131 3.1163039
2.5512087 -0.36863589 3.0291052
2.4564862 0.0079777613 3.1857443
2.5106854 -0.11795347 3.1134269
2.5577705 -0.23973365 3.0343158
2.6067085 -0.3653937 2.9480972
2.51212 0.0070759468 3.1126616
2.5601368 -0.11765304 3.0304787
2.6062112 -0.23741187 2.9504225
2.661227 -0.36216596 2.8681078
2.5646753 0.0052574165 3.0356185
2.6085885 -0.11734901 2.9475489
2.6617777 -0.23624167 2.8733771
2.7147493 -0.35793486 2.7881553
2.6131945 0.003489431 2.9566514
2.6581337 -0.11713901 2.8695986
2.7071819 -0.23387295 2.7875409
2.7571058 -0.35350141 2.6994123
2.6637914 0.0026417375 2.8816636
2.7138085 -0.11707719 2.7985332
2.7587528 -0.23168856 2.7105887
2.8106804 -0.35032439 2.6224406
2.7124035 0.00078330189 2.8076947
2.7634101 -0.11692145 2.7235818
2.8103578 -0.23054019 2.635618
2.8561816 -0.34704626 2.5416207
2.7548862 -0.00092696771 2.726841
2.8048482 -0.11557439 2.639802
2.8528185 -0.22821498 2.5528371
2.9513927 -0.34764898 2.4988127
2.803498 -0.002785407 2.6528723
2.8504126 -0.11536813 2.5629265
2.9440675 -0.22883952 2.5121036
3.0019681 -0.34446117 2.4218972
2.8480589 -0.0035753883 2.5759974
2.9305141 -0.11580847 2.5144026
3.006824 -0.2268755 2.4449413
3.0504878 -0.34121194 2.3420205
2.9068418 -0.0046326779 2.5108557
3.0034707 -0.11507915 2.4580307
3.0543399 -0.22462247 2.3650653
3.1000111 -0.33696643 2.2621431
2.9910736 -0.0052140094 2.4692543
3.0500164 -0.1148584 2.380137
3.098875 -0.22237678 2.2862453
3.1505866 -0.33377865 2.1852279
3.0386674 -0.0070507638 2.3943043
3.0935473 -0.11360896 2.3013177
3.1514797 -0.221232 2.2112556
3.2021995 -0.33063063 2.1102931
3.0863028 -0.007923875 2.3213718
3.1492603 -0.1135833 2.2322516
3.2021072 -0.2190983 2.1373212
3.2568114 -0.32749331 2.0353019
3.1319151 -0.0097715389 2.2474594
3.1988802 -0.11344565 2.1582999
3.2527125 -0.21794632 2.0623693
4.7042413 -0.43519148 2.7564983
3.1805501 -0.010648225 2.1745081
3.2444634 -0.11325748 2.0824244
4.6874342 -0.28071404 2.7906191
4.774199 -0.43047872 2.6462364
3.2231076 -0.012430862 2.0976532
4.6644235 -0.13505067 2.8156931
4.7543654 -0.27797201 2.6793778
4.5614333 -0.40401453 2.389612
3.2929821 -0.013618082 2.037303
4.7344036 -0.13437338 2.7073586
4.8152609 -0.27517232 2.5662498
4.6637888 -0.40181419 2.300705
4.718626 0.0040127859 2.7461703
4.8034205 -0.13372868 2.601042
4.6510568 -0.26147532 2.3414958
4.8165359 -0.40319076 2.2327974
4.7825952 0.0017121397 2.6378942
4.7068768 -0.13095781 2.4128358
4.7413545 -0.26017749 2.2497973
5.0629163 -0.4115513 2.1990218
4.592134 -0.0033134297 2.40329
4.7456741 -0.12998837 2.2950871
5.0342407 -0.26719186 2.2421846
5.1318035 -0.40576273 2.0847979
4.6501637 -0.0046469942 2.2981436
5.0043607 -0.13166448 2.276207
5.1041341 -0.26442444 2.1288877
13.543771 -0.94698918 5.0315118
4.7899508 -0.0060130768 2.2324793
5.0853949 -0.13108093 2.1706648
13.478371 -0.58388382 5.1543465
13.745245 -0.93339735 4.7328844
5.0697579 -0.0048736073 2.2192571
5.1552992 -0.13033126 2.0583315
13.665842 -0.57625878 4.8568735
13.939571 -0.91963565 4.4263911
5.1336327 -0.0070838258 2.1059828
13.598156 -0.24297841 4.9702077
13.849221 -0.56852901 4.5544772
14.129879 -0.90584153 4.1189733
13.525591 0.073141947 5.0933266
13.784698 -0.24143922 4.6776443
14.048692 -0.56094706 4.2567792
14.35319 -0.89418358 3.8118994
13.710297 0.068508446 4.8106885
13.978224 -0.23890725 4.3839669
14.258102 -0.55334675 3.9558935
14.553419 -0.88135284 3.5002768
13.90585 0.06398014 4.5198464
14.17065 -0.23828089 4.0852742
14.454349 -0.54553694 3.646256
14.719256 -0.86400282 3.1673727
14.096351 0.059524074 4.2261
14.375985 -0.23561111 3.7813752
14.458673 -0.53210169 3.2882967
13.361758 -0.7675364 2.5503249
14.287752 0.054155029 3.9273179
14.560158 -0.23270315 3.4688735
14.03336 -0.5034321 2.8446279
12.651483 -0.70872223 2.1055362
14.48401 0.050912403 3.620481
14.525265 -0.22794554 3.1014886
13.356668 -0.46742857 2.3817916
12.113394 -0.66073227 1.7243496
14.53755 0.044885568 3.2772532
13.697701 -0.21462175 2.5980527
12.73485 -0.43648645 1.9658526
11.545758 -0.6130687 1.3677185
14.02895 0.035004411 2.8264439
13.014295 -0.20195097 2.154927
12.126737 -0.40727818 1.5876381
10.999708 -0.56905895 1.0426279
13.333269 0.024903066 2.3731327
12.397847 -0.19145751 1.7625256
11.607258 -0.38001868 1.2427403
6.0435715 -0.32992005 0.45254585
12.700331 0.015855297 1.9586787
11.84306 -0.18183419 1.4049654
6.130538 -0.22274505 0.5358845
6.0389071 -0.31930941 0.30877638
12.12018 0.0078608431 1.5852695
11.338865 -0.17296916 1.078455
5.9646344 -0.21330303 0.38110906
6.03722 -0.30969131 0.16393289
11.604718 0.00096704811 1.2476813
6.0384059 -0.11793458 0.45647848
6.0170331 -0.20798652 0.24117675
3.8766725 -0.21379529 0.03107376
6.1272788 -0.02974543 0.5384376
6.0467267 -0.11538734 0.31332034
6.0734091 -0.20366615 0.1001516
-0.02611593 -0.059798401 0.050936799
5.9653597 -0.033351708 0.38535208
6.0370646 -0.1137934 0.17148195
3.9121346 -0.14817579 -0.010417257
3.6065381 -0.19069278 -0.13750784
6.007751 -0.035016239 0.24648118
3.8742418 -0.092895538 0.038308673
3.8684692 -0.14339757 -0.099543504
-0.02611593 -0.059798401 0.050936799
6.0731583 -0.036781404 0.1081778
5.244072 -0.10299134 -0.088563845
3.6549962 -0.13515443 -0.177424
-0.02611593 -0.059798401 0.050936799
3.929626 -0.046344601 -0.0039005131
3.6200297 -0.088847227 -0.13091592
3.7172663 -0.1327201 -0.2705774
3.8003244 -0.1793794 -0.41902682
-0.02611593 -0.059798401 0.050936799
-0.02611593 -0.059798401 0.050936799
3.8543496 -0.13139196 -0.37415504
1.9336467 -0.11733709 -0.23589325
-0.02611593 -0.059798401 0.050936799
-0.02611593 -0.059798401 0.050936799
3.8356607 -0.12668535 -0.46475074
-0.02611593 -0.059798401 0.050936799
4.9529629 -0.047799777 -0.36820993
3.8007872 -0.085485831 -0.4123348
1.9363323 -0.091954149 -0.25749171
3.5062363 -0.15125442 -0.63908648
4.0863442 -0.050967027 -0.39204988
1.9408594 -0.072406039 -0.23321462
4.1133022 -0.12353694 -0.69997168
3.9857128 -0.15669446 -0.83022678
3.8460245 -0.052806184 -0.45960662
4.2111349 -0.084561162 -0.66408616
3.496721 -0.1105777 -0.6741845
3.8713944 -0.1479696 -0.90095258
1.9335265 -0.057003602 -0.2538057
3.4628079 -0.07938008 -0.62196749
3.5538833 -0.10701706 -0.77322382
3.4536607 -0.13159861 -0.88583028
4.1984086 -0.054709025 -0.70832294
4.0190244 -0.080843896 -0.8284778
3.540302 -0.10343677 -0.85793358
2.6533802 -0.11012612 -0.7374081
3.4920464 -0.056677472 -0.66711956
3.4446652 -0.076287277 -0.78962868
3.7226884 -0.10060459 -0.99934494
2.562649 -0.10406232 -0.776613
3.4007778 -0.058123901 -0.73345947
3.4241524 -0.074753881 -0.87024426
2.6101456 -0.085650273 -0.7541616
2.4451509 -0.097118847 -0.80329651
3.8003492 -0.057332128 -0.91998935
2.6377277 -0.07025639 -0.72639012
2.4637909 -0.081746928 -0.77235705
-0.02611593 -0.059798401 0.050936799
3.7319076 -0.058698304 -0.99575835
2.5539417 -0.068180852 -0.76779795
2.4188704 -0.078684911 -0.82147717
0.19227804 -0.062086057 -0.036223039
2.6073232 -0.059716284 -0.74963808
2.4175363 -0.067276716 -0.78823459
-0.02611593 -0.059798401 0.050936799
-0.02611593 -0.059798401 0.050936799
2.4479887 -0.060801614 -0.76568002
-0.02611593 -0.059798401 0.050936799
0.18330628 -0.060072191 -0.035018235
0.16628674 -0.060992919 -0.035716467
2.4169607 -0.060698878 -0.82011569
0.19130482 -0.060100902 -0.035168558
-0.02611593 -0.059798401 0.050936799
-0.02611593 -0.059798401 0.050936799
-0.02611593 -0.059798401 0.050936799
-0.02611593 -0.059798401 0.050936799
0.16029175 -0.059971556 -0.035585705
0.14527579 -0.059899636 -0.036303513
0.19124864 -0.060046636 -0.038167544
0.1722334 -0.059960354 -0.038810186
-0.02611593 -0.059798401 0.050936799
-0.02611593 -0.059798401 0.050936799
-0.02611593 -0.059798401 0.050936799
-0.02611593 -0.059798401 0.050936799
0.13829972 -0.058892768 -0.035154294
0.12530209 -0.058846112 -0.034910016
0.16425358 -0.059949733 -0.0376602
0.14924154 -0.058877978 -0.038359985
-0.02611593 -0.059798401 0.050936799
-0.02611593 -0.059798401 0.050936799
-0.02611593 -0.059798401 0.050936799
-0.02611593 -0.059798401 0.050936799
0.11634118 -0.05884999 -0.032741584
0.10930502 -0.058788691 -0.03460937
0.13829578 -0.059892599 -0.035172313
0.13122609 -0.058795288 -0.039021414
-0.02611593 -0.059798401 0.050936799
-0.02611593 -0.059798401 0.050936799
-0.02611593 -0.059798401 0.050936799
-0.02611593 -0.059798401 0.050936799
0.10432465 -0.058788836 -0.033515763
0.095307581 -0.058738444 -0.034346301
0.12624182 -0.059795264 -0.037945818
0.11522904 -0.058737867 -0.038720764
-0.02611593 -0.059798401 0.050936799
-0.02611593 -0.059798401 0.050936799
-0.02611593 -0.059798401 0.050936799
-0.02611593 -0.059798401 0.050936799
0.095270135 -0.058702268 -0.036345635
0.087271601 -0.058673557 -0.036195308
0.11122584 -0.05972334 -0.038663622
0.10221269 -0.058673125 -0.039476145
-0.02611593 -0.059798401 0.050936799
-0.02611593 -0.059798401 0.050936799
-0.02611593 -0.059798401 0.050936799
-0.02611593 -0.059798401 0.050936799
0.080329053 -0.0587027 -0.03306479
0.073334254 -0.05767775 -0.032915238
0.094266392 -0.059698511 -0.036344863
0.089233786 -0.058644556 -0.038232211
-0.02611593 -0.059798401 0.050936799
-0.02611593 -0.059798401 0.050936799
-0.02611593 -0.059798401 0.050936799
-0.02611593 -0.059798401 0.050936799
0.073292881 -0.058641404 -0.034932576
0.063354805 -0.05765995 -0.031727664
0.084249504 -0.059644531 -0.037156615
0.077235982 -0.058601487 -0.038006723
-0.02611593 -0.059798401 0.050936799
-0.02611593 -0.059798401 0.050936799
-0.02611593 -0.059798401 0.050936799
-0.02611593 -0.059798401 0.050936799
0.063313432 -0.058623601 -0.033745002
0.056337368 -0.057616737 -0.032595798
0.073251516 -0.059605055 -0.036949921
0.066275433 -0.058598191 -0.03580071
-0.02611593 -0.059798401 0.050936799
-0.02611593 -0.059798401 0.050936799
-0.02611593 -0.059798401 0.050936799
-0.02611593 -0.059798401 0.050936799
0.058239464 -0.0585333 -0.037649702
0.047361668 -0.056602694 -0.031408999
0.063253343 -0.059569165 -0.036762014
0.058258187 -0.05855139 -0.036650043
-0.02611593 -0.059798401 0.050936799
-0.02611593 -0.059798401 0.050936799
-0.02611593 -0.059798401 0.050936799
-0.02611593 -0.059798401 0.050936799
0.047320299 -0.057566345 -0.033426337
0.042343859 -0.056566659 -0.03231471
0.054292437 -0.059573039 -0.034593575
0.053202935 -0.058479179 -0.039555077
-0.02611593 -0.059798401 0.050936799
-0.02611593 -0.059798401 0.050936799
-0.02611593 -0.059798401 0.050936799
-0.02611593 -0.059798401 0.050936799
0.042283766 -0.057512224 -0.035331715
0.038269699 -0.05647995 -0.036238194
0.047256272 -0.05951174 -0.036461368
0.045223117 -0.058468558 -0.038405083
-0.02611593 -0.059798401 0.050936799
-0.02611593 -0.059798401 0.050936799
-0.02611593 -0.059798401 0.050936799
-0.02611593 -0.059798401 0.050936799
0.036266141 -0.057472602 -0.036218632
0.033270616 -0.056462005 -0.036144242
0.040276278 -0.05950471 -0.035330173
0.040186591 -0.058414433 -0.040310457
-0.02611593 -0.059798401 0.050936799
-0.02611593 -0.059798401 0.050936799
-0.02611593 -0.059798401 0.050936799
-0.02611593 -0.059798401 0.050936799
0.030267235 -0.057451069 -0.03610589
0.027275639 -0.055440646 -0.036013484
0.034258649 -0.059465084 -0.03621709
0.030282032 -0.05846899 -0.03512425
-0.02611593 -0.059798401 0.050936799
-0.02611593 -0.059798401 0.050936799
-0.02611593 -0.059798401 0.050936799
-0.02611593 -0.059798401 0.050936799
0.02428706 -0.057447623 -0.034993485
-0.02611593 -0.059798401 0.050936799
0.027297374 -0.059476145 -0.034086231
0.029132433 -0.058320686 -0.043102749
-0.02611593 -0.059798401 0.050936799
-0.02611593 -0.059798401 0.050936799
-0.02611593 -0.059798401 0.050936799
-0.02611593 -0.059798401 0.050936799
0.020250345 -0.05739709 -0.036917642
-0.02611593 -0.059798401 0.050936799
0.022242123 -0.05940393 -0.036991261
0.021190064 -0.058346242 -0.039953437
-0.02611593 -0.059798401 0.050936799
-0.02611593 -0.059798401 0.050936799
-0.02611593 -0.059798401 0.050936799
-0.02611593 -0.059798401 0.050936799
-0.02611593 -0.059798401 0.050936799
-0.02611593 -0.059798401 0.050936799
-0.02611593 -0.059798401 0.050936799
0.017153354 -0.058295712 -0.041877594
-0.02611593 -0.059798401 0.050936799
-0.02611593 -0.059798401 0.050936799
-0.02611593 -0.059798401 0.050936799
-0.02611593 -0.059798401 0.050936799
-0.02611593 -0.059798401 0.050936799
-0.02611593 -0.059798401 0.050936799
-0.02611593 -0.059798401 0.050936799
0.012154265 -0.058277767 -0.041783642
-0.02611593 -0.059798401 0.050936799
-0.02611593 -0.059798401 0.050936799
-0.02611593 -0.059798401 0.050936799
-0.02611593 -0.059798401 0.050936799
-0.02611593 -0.059798401 0.050936799
-0.02611593 -0.059798401 0.050936799
-0.02611593 -0.059798401 0.050936799
0.0071177371 -0.058223642 -0.043689009
-0.02611593 -0.059798401 0.050936799
-0.02611593 -0.059798401 0.050936799
-0.02611593 -0.059798401 0.050936799
-0.02611593 -0.059798401 0.050936799
-0.02611593 -0.059798401 0.050936799
-0.02611593 -0.059798401 0.050936799
-0.02611593 -0.059798401 0.050936799
-0.02611593 -0.059798401 0.050936799
-0.02611593 -0.059798401 0.050936799
-0.02611593 -0.059798401 0.050936799
-0.02611593 -0.059798401 0.050936799
-0.02611593 -0.059798401 0.050936799
-0.02611593 -0.059798401 0.050936799
-0.02611593 -0.059798401 0.050936799
-0.02611593 -0.059798401 0.050936799
-0.02611593 -0.059798401 0.050936799
-0.02611593 -0.059798401 0.050936799
-0.02611593 -0.059798401 0.050936799
-0.02611593 -0.059798401 0.050936799
-0.02611593 -0.059798401 0.050936799
-0.02611593 -0.059798401 0.050936799
-0.02611593 -0.059798401 0.050936799
-0.02611593 -0.059798401 0.050936799
-0.02611593 -0.059798401 0.050936799
-0.02611593 -0.059798401 0.050936799
-0.02611593 -0.059798401 0.050936799
-0.02611593 -0.059798401 0.050936799
-0.02611593 -0.059798401 0.050936799
-0.02611593 -0.059798401 0.050936799
-0.02611593 -0.059798401 0.050936799
-0.02611593 -0.059798401 0.050936799
-0.02611593 -0.059798401 0.050936799
-0.02611593 -0.059798401 0.050936799
-0.02611593 -0.059798401 0.050936799
-0.02611593 -0.059798401 0.050936799
-0.02611593 -0.059798401 0.050936799
-0.02611593 -0.059798401 0.050936799
-0.02611593 -0.059798401 0.050936799
-0.02611593 -0.059798401 0.050936799
-0.02611593 -0.059798401 0.050936799
-0.02611593 -0.059798401 0.050936799
-0.02611593 -0.059798401 0.050936799
-0.02611593 -0.059798401 0.050936799
-0.02611593 -0.059798401 0.050936799
-0.02611593 -0.059798401 0.050936799
-0.02611593 -0.059798401 0.050936799
-0.02611593 -0.059798401 0.050936799
-0.02611593 -0.059798401 0.050936799
-0.02611593 -0.059798401 0.050936799
-0.02611593 -0.059798401 0.050936799
-0.02611593 -0.059798401 0.050936799
-0.02611593 -0.059798401 0.050936799
-0.02611593 -0.059798401 0.050936799
-0.02611593 -0.059798401 0.050936799
-0.02611593 -0.059798401 0.050936799
-0.02611593 -0.059798401 0.050936799
-0.02611593 -0.059798401 0.050936799
-0.02611593 -0.059798401 0.050936799
-0.02611593 -0.059798401 0.050936799
-0.02611593 -0.059798401 0.050936799
-0.02611593 -0.059798401 0.050936799
-0.02611593 -0.059798401 0.050936799
-0.02611593 -0.059798401 0.050936799
-0.02611593 -0.059798401 0.050936799
-0.02611593 -0.059798401 0.050936799
-0.02611593 -0.059798401 0.050936799
-0.02611593 -0.059798401 0.050936799
-0.02611593 -0.059798401 0.050936799
-0.02611593 -0.059798401 0.050936799
-0.02611593 -0.059798401 0.050936799
-0.02611593 -0.059798401 0.050936799
-0.02611593 -0.059798401 0.050936799
-0.02611593 -0.059798401 0.050936799
-0.02611593 -0.059798401 0.050936799
-0.02611593 -0.059798401 0.050936799
-0.02611593 -0.059798401 0.050936799
-0.02611593 -0.059798401 0.050936799
-0.02611593 -0.059798401 0.050936799
-0.02611593 -0.059798401 0.050936799
-0.02611593 -0.059798401 0.050936799
-0.02611593 -0.059798401 0.050936799
-0.02611593 -0.059798401 0.050936799
-0.02611593 -0.059798401 0.050936799
-0.02611593 -0.059798401 0.050936799
-0.02611593 -0.059798401 0.050936799
-0.02611593 -0.059798401 0.050936799
-0.02611593 -0.059798401 0.050936799
-0.02611593 -0.059798401 0.050936799
-0.02611593 -0.059798401 0.050936799
-0.02611593 -0.059798401 0.050936799
-0.02611593 -0.059798401 0.050936799
-0.02611593 -0.059798401 0.050936799
-0.02611593 -0.059798401 0.050936799
-0.02611593 -0.059798401 0.050936799
-0.02611593 -0.059798401 0.050936799
-0.02611593 -0.059798401 0.050936799
-0.02611593 -0.059798401 0.050936799
-0.02611593 -0.059798401 0.050936799
-0.02611593 -0.059798401 0.050936799
-0.02611593 -0.059798401 0.050936799
-0.02611593 -0.059798401 0.050936799
-0.02611593 -0.059798401 0.050936799
-0.02611593 -0.059798401 0.050936799
-0.02611593 -0.059798401 0.050936799
-0.02611593 -0.059798401 0.050936799
-0.02611593 -0.059798401 0.050936799
-0.02611593 -0.059798401 0.050936799
-0.02611593 -0.059798401 0.050936799
-0.02611593 -0.059798401 0.050936799
-0.02611593 -0.059798401 0.050936799
-0.02611593 -0.059798401 0.050936799
-0.02611593 -0.059798401 0.050936799
-0.02611593 -0.059798401 0.050936799
-0.02611593 -0.059798401 0.050936799
-0.02611593 -0.059798401 0.050936799
-0.02611593 -0.059798401 0.050936799
-0.02611593 -0.059798401 0.050936799
-0.02611593 -0.059798401 0.050936799
-0.02611593 -0.059798401 0.050936799
-0.02611593 -0.059798401 0.050936799
-0.02611593 -0.059798401 0.050936799
-0.02611593 -0.059798401 0.050936799
-0.02611593 -0.059798401 0.050936799
-0.02611593 -0.059798401 0.050936799
-0.02611593 -0.059798401 0.050936799
-0.02611593 -0.059798401 0.050936799
-0.02611593 -0.059798401 0.050936799
-0.02611593 -0.059798401 0.050936799
-0.02611593 -0.059798401 0.050936799
-0.02611593 -0.059798401 0.050936799
-0.02611593 -0.059798401 0.050936799
-0.02611593 -0.059798401 0.050936799
-0.02611593 -0.059798401 0.050936799
-0.02611593 -0.059798401 0.050936799
-0.069793284 -0.058019653 -0.038243499
-0.02611593 -0.059798401 0.050936799
-0.02611593 -0.059798401 0.050936799
-0.02611593 -0.059798401 0.050936799
-0.02611593 -0.059798401 0.050936799
-0.02611593 -0.059798401 0.050936799
-0.02611593 -0.059798401 0.050936799
-0.02611593 -0.059798401 0.050936799
-0.0737551 -0.058041476 -0.036169011
-0.02611593 -0.059798401 0.050936799
-0.02611593 -0.059798401 0.050936799
-0.02611593 -0.059798401 0.050936799
-0.02611593 -0.059798401 0.050936799
-0.02611593 -0.059798401 0.050936799
-0.02611593 -0.059798401 0.050936799
-0.074700847 -0.049057506 -0.034988396
-0.078698024 -0.058077797 -0.033076081
-0.077709071 -0.056063633 -0.034058493
-0.02611593 -0.059798401 0.050936799
-0.02611593 -0.059798401 0.050936799
-0.02611593 -0.059798401 0.050936799
-0.02611593 -0.059798401 0.050936799
-0.02611593 -0.059798401 0.050936799
-0.079699941 -0.049039561 -0.034894444
-0.082678571 -0.05808153 -0.032001249
-0.081648253 -0.055103719 -0.030966319
-0.02611593 -0.059798401 0.050936799
-0.02611593 -0.059798401 0.050936799
-0.02611593 -0.059798401 0.050936799
-0.02611593 -0.059798401 0.050936799
-0.085691892 -0.052035604 -0.033836093
-0.083643042 -0.04907947 -0.031820294
-0.089677289 -0.058056407 -0.031869717
-0.089702949 -0.055020742 -0.033814989
-0.02611593 -0.059798401 0.050936799
-0.02611593 -0.059798401 0.050936799
-0.02611593 -0.059798401 0.050936799
-0.02611593 -0.059798401 0.050936799
-0.088635184 -0.052079104 -0.030780729
-0.088623405 -0.049079616 -0.030726675
-0.09669473 -0.058013197 -0.032737851
-0.096720383 -0.054977529 -0.034683116
-0.02611593 -0.059798401 0.050936799
-0.02611593 -0.059798401 0.050936799
-0.02611593 -0.059798401 0.050936799
-0.02611593 -0.059798401 0.050936799
-0.098723039 -0.050952941 -0.035573117
-0.095674358 -0.048000395 -0.033576116
-0.10269364 -0.057991665 -0.032625105
-0.10066349 -0.055017442 -0.031608969
-0.02611593 -0.059798401 0.050936799
-0.02611593 -0.059798401 0.050936799
-0.02611593 -0.059798401 0.050936799
-0.02611593 -0.059798401 0.050936799
-0.10264742 -0.051010944 -0.031499308
-0.10163582 -0.048015043 -0.031464044
-0.11067345 -0.057981037 -0.031475116
-0.11173244 -0.053905778 -0.035382897
-0.02611593 -0.059798401 0.050936799
-0.02611593 -0.059798401 0.050936799
-0.02611593 -0.059798401 0.050936799
-0.02611593 -0.059798401 0.050936799
-0.10964222 -0.04998599 -0.03134976
-0.10864934 -0.046971999 -0.032314159
-0.11867198 -0.05795233 -0.031324793
-0.1176939 -0.053920422 -0.033270836
-0.02611593 -0.059798401 0.050936799
-0.02611593 -0.059798401 0.050936799
-0.02611593 -0.059798401 0.050936799
-0.02611593 -0.059798401 0.050936799
-0.11356658 -0.050043985 -0.027275953
-0.1156254 -0.045965135 -0.03116494
-0.12157388 -0.057032175 -0.026252098
-0.12770687 -0.052866612 -0.034064569
-0.02611593 -0.059798401 0.050936799
-0.02611593 -0.059798401 0.050936799
-0.02611593 -0.059798401 0.050936799
-0.02611593 -0.059798401 0.050936799
-0.12054658 -0.050036956 -0.026144762
-0.12464248 -0.045914747 -0.03199549
-0.13866439 -0.05688072 -0.030930962
-0.13770503 -0.052830722 -0.033876665
-0.02611593 -0.059798401 0.050936799
-0.02611593 -0.059798401 0.050936799
-0.02611593 -0.059798401 0.050936799
-0.02611593 -0.059798401 0.050936799
-0.13461499 -0.048914526 -0.029862311
-0.13159983 -0.044925973 -0.029846609
-0.1476253 -0.056884598 -0.028762527
-0.14768055 -0.051813092 -0.032671079
-0.02611593 -0.059798401 0.050936799
-0.02611593 -0.059798401 0.050936799
-0.02611593 -0.059798401 0.050936799
-0.02611593 -0.059798401 0.050936799
-0.1445905 -0.047896896 -0.028656732
-0.1385611 -0.044937029 -0.027715757
-0.15961917 -0.055841699 -0.028519023
-0.15562293 -0.051838648 -0.029521763
-0.02611593 -0.059798401 0.050936799
-0.02611593 -0.059798401 0.050936799
-0.02611593 -0.059798401 0.050936799
-0.02611593 -0.059798401 0.050936799
-0.15658437 -0.046853997 -0.028413229
-0.15258813 -0.042850945 -0.029415969
-0.16956118 -0.055860076 -0.02533213
-0.17566758 -0.049712941 -0.03210891
-0.02611593 -0.059798401 0.050936799
-0.02611593 -0.059798401 0.050936799
-0.02611593 -0.059798401 0.050936799
-0.02611593 -0.059798401 0.050936799
-0.16855954 -0.045829192 -0.027170055
-0.16254885 -0.042851236 -0.027228743
-0.19059086 -0.054748707 -0.026918832
-0.18862775 -0.049702466 -0.029865306
-0.02611593 -0.059798401 0.050936799
-0.02611593 -0.059798401 0.050936799
-0.02611593 -0.059798401 0.050936799
-0.02611593 -0.059798401 0.050936799
-0.18557122 -0.044750262 -0.027832266
-0.18057515 -0.040750794 -0.028853796
-0.21761943 -0.053615797 -0.028392788
-0.21165313 -0.047584083 -0.031396411
-0.02611593 -0.059798401 0.050936799
-0.02611593 -0.059798401 0.050936799
-0.02611593 -0.059798401 0.050936799
-0.02611593 -0.059798401 0.050936799
-0.21363313 -0.042577755 -0.031268738
-0.19958253 -0.038664863 -0.029460408
-0.25066566 -0.052443266 -0.030753672
-0.23764443 -0.046490941 -0.030889839
-0.02611593 -0.059798401 0.050936799
-0.02611593 -0.059798401 0.050936799
-0.02611593 -0.059798401 0.050936799
-0.02611593 -0.059798401 0.050936799
-0.23458399 -0.040538907 -0.028838772
-0.22257045 -0.036582656 -0.028992187
-1.0159483 -0.022356547 -0.25695795
-0.26863092 -0.044380028 -0.030271299
-0.02611593 -0.059798401 0.050936799
-0.02611593 -0.059798401 0.050936799
-1.0235121 -0.021744058 -0.2337974
-0.02611593 -0.059798401 0.050936799
-0.26860738 -0.038381048 -0.030163184
-0.25055751 -0.034482509 -0.028430015
-1.0481627 -0.019980276 -0.21529774
-1.0143516 0.0051647881 -0.23048104
-0.02611593 -0.059798401 0.050936799
-0.02611593 -0.059798401 0.050936799
-1.0496905 -0.019425493 -0.19025061
-1.0209385 0.0047919517 -0.20835698
-1.0021886 0.028045455 -0.22629347
-0.9703632 0.047162529 -0.23954803
-1.056232 -0.017834848 -0.16609116
-1.0516214 0.0076132715 -0.19172584
-1.002743 0.026615076 -0.20230082
-0.97796863 0.046811368 -0.2184048
-1.062796 -0.017225947 -0.1429494
-1.0551714 0.007193489 -0.16765879
-1.0113442 0.027267337 -0.18112081
-0.98757362 0.046467386 -0.19722401
-1.0502702 -0.016775677 -0.11516637
-1.0586985 0.0077554462 -0.1425741
-1.0309809 0.027995247 -0.16173342
-1.0032297 0.047199037 -0.17891145
-1.071865 -0.015076932 -0.093724042
-1.0632633 0.0083571728 -0.11946992
-1.0395635 0.028629418 -0.13955374
-1.0098205 0.045826372 -0.15680538
-1.0734113 -0.014504058 -0.069676578
-1.0597956 0.0078941798 -0.094534747
-1.0561633 0.02931039 -0.11822341
-1.0254391 0.046521842 -0.1364935
-0.02611593 -0.059798401 0.050936799
-1.0703553 0.0095172711 -0.071299836
-1.0446824 0.027800767 -0.092456937
-1.0390583 0.047210146 -0.11621918
-1.1115234 -0.010197041 -0.022869244
-1.0789191 0.010133353 -0.048120484
-1.0602823 0.028478149 -0.071145393
-1.0436306 0.045812204 -0.093151055
-1.1150508 -0.0096350778 0.0022154674
-1.107494 0.011839135 -0.025546975
-1.0678464 0.029090643 -0.047984831
-1.0471994 0.045410514 -0.070083678
-1.1615771 -0.0059012207 0.027162559
-1.1200343 0.013451314 -0.0012748018
-1.0864271 0.029760703 -0.025617249
-1.0718124 0.047138121 -0.049584657
-0.02611593 -0.059798401 0.050936799
-1.1315602 0.014041977 0.023960236
-1.1129797 0.032441039 -0.0020636469
-1.0843796 0.046768729 -0.026348174
-1.1466169 -0.0048743458 0.077918246
-1.1650928 0.016729355 0.048645034
-1.125524 0.033053391 0.022190519
-1.1049557 0.048445791 -0.0039249957
-1.171095 -0.0022735356 0.10543291
-1.1536081 0.016219562 0.074429527
-1.1440486 0.033669189 0.047557086
-1.123499 0.049079672 0.020441908
-1.1765993 -0.00072265661 0.13157289
-1.17111 0.017813507 0.10079497
-1.1575739 0.034267042 0.072829694
-1.1340477 0.048685014 0.044640474
-1.1960635 0.00084228255 0.15997525
-1.1785953 0.01935347 0.12797219
-1.1601015 0.034825403 0.097895615
-1.1585672 0.050322171 0.070137799
-0.02611593 -0.059798401 0.050936799
-1.1791042 0.019886581 0.15400019
-1.181584 0.036415618 0.12533589
-1.166079 0.049880568 0.096279316
-1.2418894 0.0059065134 0.22194584
-1.216524 0.022479771 0.18475811
-1.1970528 0.036966376 0.15364507
-1.182585 0.050471094 0.12260796
-0.02611593 -0.059798401 0.050936799
-0.02611593 -0.059798401 0.050936799
-1.2005428 0.037492156 0.18072909
-1.1811024 0.048997361 0.14856234
-0.02611593 -0.059798401 0.050936799
-1.2234434 0.024476901 0.24194318
-1.2239875 0.039053373 0.2102063
-1.2065468 0.050565749 0.1780771
-0.02611593 -0.059798401 0.050936799
-1.2558079 0.026997887 0.27560616
-1.2234633 0.038546879 0.23819679
-0.02611593 -0.059798401 0.050936799
-1.2765591 0.013830738 0.34477991
-1.2711979 0.028476113 0.30793196
-1.2279155 0.039040063 0.26729894
-1.2244723 0.050602686 0.23543282
-0.02611593 -0.059798401 0.050936799
-1.3214012 0.03291665 0.34996647
-1.2731987 0.042535182 0.30522284
-1.2468611 0.052106049 0.26789021
-0.02611593 -0.059798401 0.050936799
-1.3247936 0.034351818 0.38206688
-1.2636762 0.041996386 0.33304423
-0.02611593 -0.059798401 0.050936799
-3.0931442 0.13417648 1.0001904
-0.02611593 -0.059798401 0.050936799
-1.3387548 0.048417766 0.3815825
-0.02611593 -0.059798401 0.050936799
-3.1085782 0.13975298 1.0826082
-3.1042521 0.16844532 0.9880141
-1.3401513 0.048845924 0.41362727
-1.3059431 0.054497294 0.37007427
-3.1736317 0.14916459 1.1850311
-3.1027946 0.17105179 1.0650601
-3.1192555 0.19560309 0.98278451
-0.02611593 -0.059798401 0.050936799
-3.2574909 0.15946332 1.2978258
-3.1688936 0.1785035 1.1654664
-3.0909727 0.19325823 1.0512358
-3.1263146 0.21375179 0.97624272
-3.3164144 0.16872674 1.4071335
-3.2418408 0.1858356 1.2740016
-3.1600559 0.19970274 1.1526802
-3.0861018 0.20841862 1.0414153
-3.3990448 0.17980462 1.5319233
-3.3017309 0.1940666 1.3853096
-3.2280269 0.20603521 1.2601037
-3.1581364 0.21282001 1.1458791
-3.4805591 0.19177021 1.6627102
-3.3853836 0.20416635 1.5091003
-3.293905 0.21226998 1.3724879
-3.2291148 0.21716356 1.2533231
-4.7735868 0.29559869 2.3990469
-3.4748859 0.21414292 1.6410013
-3.3775845 0.22038817 1.4952432
-3.2960191 0.22142036 1.3646904
-4.6532006 0.29481477 2.4718032
-4.8155737 0.32585287 2.3943787
-3.4630952 0.2283507 1.6270328
-3.3756924 0.22650659 1.4883159
-4.5912971 0.29877141 2.5717499
-4.6853023 0.32012433 2.461859
-4.7969494 0.34119818 2.3712997
-3.4602485 0.23250207 1.6180515
-3.4374645 0.21488869 2.0354478
-4.5748892 0.31634063 2.5367484
-4.7023158 0.33525512 2.4584498
-4.8129454 0.3462728 2.3706906
-4.6375237 0.32149038 2.875129
-3.4575222 0.22806683 2.0300601
-4.5790172 0.32651603 2.528007
-4.6866107 0.33246958 2.4431002
-3.4848526 0.23371196 2.2777576
-4.6616144 0.33571884 2.867835
-3.4635949 0.23317796 2.0252645
-4.5830698 0.32256728 2.5260108
-4.4197121 0.32398626 3.0221462
-3.5206978 0.24273112 2.2845943
-4.6657734 0.33789566 2.8589492
-3.4607124 0.22725865 2.0201018
-4.3054519 0.32435036 3.0880356
-4.4289761 0.32828927 3.0073924
-3.5455172 0.24465768 2.2940972
-4.6708159 0.32691547 2.858845
-2.5987666 0.17785677 1.9650514
-4.316689 0.32562482 3.0752649
-4.432107 0.32340941 3.0013607
-4.548511 0.31516242 2.9293666
-2.7527678 0.19867532 2.1753826
-2.6049232 0.17602333 1.9571309
-4.3237195 0.31765127 3.0752523
-4.4400826 0.30535072 3.0061848
-3.9926345 0.32853159 3.2873223
-2.7648189 0.19475526 2.1735368
-2.6010489 0.16810082 1.9519134
-4.3198519 0.29367721 3.0727453
-2.4084785 0.17995624 2.0845671
-4.0017891 0.31767428 3.2812951
-2.7559948 0.18385145 2.1661718
-2.613862 0.15291487 1.9648827
-1.9071671 0.13532788 1.7322546
-2.4037058 0.17012092 2.0742965
-4.0018635 0.29867753 3.2809527
-2.7530363 0.16380788 2.1677544
-1.856588 0.13658734 1.7623407
-1.9092768 0.12640896 1.7281314
-2.4116206 0.15802506 2.0812283
-3.9959567 0.26562542 3.2822447
-1.8237207 0.1386399 1.8077778
-1.8616303 0.12560716 1.7622364
-1.9063286 0.11340038 1.7278408
