# .PCD v0.7 - Point Cloud Data file format
VERSION 0.7
FIELDS x y z
SIZE 4 4 4
TYPE F F F
COUNT 1 1 1
WIDTH 1401
HEIGHT 1
VIEWPOINT 0 0 0 1 0 0 0
POINTS 1401
DATA ascii
-1.3313975 0.62859493 0.87510687
-1.3721501 0.6314798 0.83490843
-1.2292333 0.62411988 0.99015212
-1.2740637 0.62609172 0.9460122
-1.314835 0.6289947 0.90481406
-1.3525958 0.6298691 0.86452323
-1.2028114 0.62261075 1.0126377
-1.252562 0.62552792 0.97260839
-1.2943182 0.62741661 0.93241078
-1.338014 0.6302579 0.89526761
-1.1773666 0.62208688 1.0361599
-1.223186 0.6220445 0.99300236
-1.2737789 0.62682027 0.96102512
-1.3214405 0.62863994 0.92593849
-1.1430929 0.61667627 1.0514255
-1.1997074 0.6204918 1.0185434
-1.2532585 0.62624192 0.98863983
-1.3009052 0.62704372 0.95453477
-1.1196399 0.61815923 1.0750211
-1.1762396 0.62095684 1.0431207
-1.2307796 0.62469286 1.0141995
-1.2813469 0.6264329 0.9841677
-1.0912557 0.61667907 1.09547
-1.1488593 0.61848044 1.0635701
-1.2102551 0.62511438 1.0418322
-1.2637696 0.62581116 1.0148376
-1.0668442 0.61719483 1.1170295
-1.1214788 0.61600399 1.0840197
-1.1828412 0.62160194 1.0642631
-1.241276 0.62324405 1.0413791
-1.0404519 0.6177215 1.1375518
-1.0980111 0.61646909 1.108597
-1.1603585 0.62105268 1.0898409
-1.2217139 0.62363303 1.0710299
-1.0111243 0.616292 1.1549827
-1.0735662 0.6159488 1.132138
-1.1319635 0.61755472 1.1112531
-1.1962582 0.62109143 1.0955157
-0.97694403 0.61097175 1.1652501
-1.0462005 0.61449027 1.1516058
-1.1084996 0.61701995 1.1358126
-1.1737607 0.61952424 1.1220751
-0.94863486 0.60956401 1.1817001
-1.0198121 0.61401707 1.1721101
-1.0840547 0.61649966 1.1593535
-1.1502632 0.61795348 1.1486157
-0.92225736 0.61110854 1.2012409
-0.99048829 0.61158776 1.1895231
-1.0576327 0.61499053 1.1818391
-1.1247851 0.61639357 1.1741192
-0.89202726 0.60876608 1.2136366
-0.96801245 0.61405611 1.2141553
-1.0351421 0.61644089 1.207453
-1.0993254 0.61485183 1.1986229
-0.86273301 0.60837257 1.2290864
-0.93870336 0.61264461 1.2305865
-1.0067619 0.61396086 1.2278837
-1.0768014 0.6152662 1.226218
-0.83252168 0.60604823 1.2404824
-0.90939826 0.61023337 1.2469999
-0.98035473 0.61346966 1.2493876
-1.0523002 0.61469167 1.2527579
-0.80520445 0.60664356 1.2569875
-0.88398308 0.61174536 1.2685587
-0.95198935 0.6120075 1.2688367
-1.0229428 0.61122632 1.2721522
-0.78082252 0.60919517 1.2765838
-0.85277194 0.60941744 1.2799361
-0.92460114 0.61153072 1.2893223
-0.99547964 0.61067718 1.2966365
-0.75158447 0.6088559 1.2890345
-0.82444006 0.60899132 1.2974037
-0.89817137 0.61202121 1.3118439
-0.97097468 0.61110246 1.3231943
-0.72136533 0.60853124 1.3004667
-0.79708534 0.60955054 1.315908
-0.86884356 0.61059165 1.3292749
-0.93963635 0.60764802 1.3415513
-0.68829346 0.60432303 1.3047729
-0.76779109 0.60915703 1.3313576
-0.84045553 0.6101113 1.3497417
-0.91121089 0.60713148 1.3640174
-0.66103232 0.60497266 1.3182788
-0.73851556 0.60878164 1.3458077
-0.81112379 0.60968161 1.3671906
-0.88278151 0.60761476 1.3865014
-0.63279015 0.60563684 1.3307662
-0.71021724 0.60939151 1.3612942
-0.7817921 0.60925192 1.3846396
-0.85337877 0.6061129 1.4079311
-0.60358948 0.60533381 1.3412175
-0.67806238 0.60711426 1.3696537
-0.74760813 0.60493165 1.3949249
-0.82590789 0.6075635 1.4324512
-0.5734452 0.60508144 1.3486511
-0.64686996 0.60480428 1.3800315
-0.717314 0.60453451 1.4103557
-0.7926448 0.6041742 1.446772
-0.54042947 0.60092747 1.3499582
-0.61569232 0.60351241 1.3894275
-0.68989527 0.60703921 1.431895
-0.76125342 0.60468286 1.4672003
-0.51224345 0.60164595 1.3594468
-0.58547318 0.60318762 1.4008597
-0.65768433 0.6047076 1.4432536
-0.72990328 0.6042279 1.4856114
-0.48309901 0.60139716 1.3668991
-0.55524999 0.6038627 1.41231
-0.62351114 0.60240507 1.4525753
-0.69659495 0.60280216 1.5019675
-0.45109791 0.59826475 1.3672434
-0.52409112 0.60258889 1.4207065
-0.59319443 0.60298967 1.4690238
-0.6652863 0.60138363 1.5183613
-0.4229306 0.59900123 1.3757323
-0.48918119 0.59551865 1.4169236
-0.5609796 0.60165799 1.4804004
-0.63097429 0.60095406 1.5347166
-0.39384231 0.59880674 1.3801856
-0.45899552 0.59622997 1.4263747
-0.52876073 0.60132605 1.4917952
-0.59676367 0.59861529 1.5460377
-0.3674638 0.60536855 1.3988168
-0.43062529 0.60078496 1.4449321
-0.49558347 0.60002691 1.5011536
-0.56151187 0.59723657 1.5593572
-0.33466586 0.59841406 1.3890736
-0.39764705 0.59666717 1.4442399
-0.46144384 0.59876031 1.5084941
-0.52823317 0.59784663 1.5737501
-0.30832878 0.60401225 1.4056875
-0.36554447 0.59544396 1.4496186
-0.43020216 0.59941375 1.5209252
-0.49206033 0.59553689 1.5830342
-0.27646661 0.59900677 1.398998
-0.33627197 0.59908593 1.4631411
-0.39700228 0.59909636 1.5313013
-0.45776311 0.59612525 1.5984079
-0.24914446 0.60561925 1.4146113
-0.30428961 0.59597158 1.4624857
-0.3629415 0.59690225 1.5346251
-0.4215903 0.59381557 1.6076919
-0.21842496 0.59774452 1.4008892
-0.27226588 0.59382087 1.4638476
-0.32879791 0.59663552 1.5419835
-0.38634941 0.59445459 1.6200479
-0.19022715 0.60146248 1.4104317
-0.24211374 0.59556818 1.4713172
-0.29469573 0.5954051 1.5473244
-0.35018751 0.59416252 1.6283685
-0.15946233 0.59555125 1.3987448
-0.21008606 0.59441733 1.4726973
-0.26146531 0.59806913 1.5587544
-0.31400684 0.59385252 1.6376886
-0.13209492 0.60412717 1.4163935
-0.17899421 0.5952155 1.4771311
-0.22744192 0.5959112 1.5600789
-0.27686772 0.59257519 1.6449727
-0.1014355 0.59530693 1.3996544
-0.14610957 0.59118819 1.4714407
-0.1933319 0.59668052 1.5654558
-0.23982623 0.59038842 1.6472404
-0.073083073 0.6048972 1.4163026
-0.1160323 0.5930078 1.4749115
-0.15924844 0.59546822 1.5697973
-0.20266055 0.59109271 1.65556
-0.044400636 0.59706581 1.4006187
-0.084023364 0.59187502 1.475292
-0.12523986 0.59432834 1.57014
-0.16559637 0.58988768 1.6588454
-0.016194966 0.60278338 1.4101971
-0.053006392 0.59274554 1.4757271
-0.090231463 0.59318477 1.570464
-0.12755106 0.58869725 1.6611123
0.011514223 0.59693718 1.3955677
-0.022053437 0.59167063 1.4731271
-0.055177778 0.59400475 1.5728234
-0.089460492 0.58947021 1.6654146
0.040678337 0.60168755 1.4031101
0.0088768657 0.58961397 1.4695096
-0.021184005 0.59388274 1.5721844
-0.052475117 0.58733779 1.6646832
0.067286246 0.59393567 1.3834652
0.039920427 0.592466 1.4709805
0.012704381 0.5908516 1.5664933
-0.014486 0.58620155 1.6639512
0.096495666 0.60064954 1.3930429
0.070896029 0.59237289 1.4693984
0.046739534 0.59169328 1.5678717
0.022627424 0.58795995 1.6692899
0.10228859 0.50130332 1.1880678
0.10175145 0.59038854 1.4617822
0.080654487 0.59064376 1.5632162
0.060519002 0.58591437 1.6635417
0.15219279 0.59772038 1.3769418
0.10357947 0.47492424 1.2085736
0.11561064 0.5905543 1.5605593
0.098470673 0.58481431 1.6608102
0.17786489 0.59191746 1.3603504
0.1626506 0.5912599 1.4556557
-0.02611593 -0.059798401 0.050936799
0.1365051 0.58564156 1.6621137
0.2070142 0.59768575 1.3669112
0.192386 0.5873881 1.4420244
0.18346715 0.59043688 1.5522838
-0.02611593 -0.059798401 0.050936799
0.23275429 0.59482819 1.3533729
0.22330543 0.58734918 1.4374431
0.21738602 0.59038723 1.5476463
0.21352544 0.58934647 1.6617385
0.26180607 0.5996871 1.3549176
0.25537539 0.59217918 1.4399309
0.25128618 0.59035569 1.5420091
0.25024083 0.58546758 1.6469758
0.28644094 0.59392393 1.3363458
0.28307372 0.58835071 1.4243379
0.28516763 0.59034216 1.5353724
0.26255462 0.53381068 1.5137658
0.31441012 0.5968591 1.3338742
0.31295586 0.58835161 1.4177761
0.31903034 0.59034675 1.5277357
0.32385975 0.58254623 1.6265377
0.33915037 0.59400505 1.3203549
0.34498841 0.59321785 1.4182646
0.35077322 0.58846736 1.5141028
0.36074066 0.58252198 1.6198446
0.36926597 0.60080582 1.3249156
0.37264535 0.5884257 1.4006541
0.38571855 0.59039575 1.5104822
0.39856523 0.58254838 1.6101334
0.391781 0.59315872 1.3003474
0.40249401 0.58946258 1.3921112
0.41848388 0.58949459 1.4978482
0.43434876 0.58161837 1.5984428
0.41871297 0.59613365 1.2958956
0.43128276 0.58955747 1.3805699
0.45023072 0.588615 1.4842333
0.47217724 0.58264458 1.5887498
0.44237849 0.5933556 1.2783962
0.46006757 0.58865261 1.3690107
0.48195884 0.58775359 1.4696187
0.5090059 0.58367437 1.5790757
0.46822789 0.59440678 1.2699285
0.48677391 0.58682734 1.3534724
0.51374698 0.58783776 1.4580212
0.54267347 0.5818603 1.5614064
-0.02611593 -0.059798401 0.050936799
0.43460798 0.49067059 1.150641
0.543374 0.58507425 1.4384099
0.57842356 0.58196622 1.5477345
0.50838691 0.58302146 1.226956
0.45002672 0.48213932 1.121188
-0.02611593 -0.059798401 0.050936799
-0.02611593 -0.059798401 0.050936799
0.54363751 0.5956946 1.2375288
0.57529444 0.59297717 1.325917
0.5891152 0.56804824 1.3742237
0.57141846 0.50957155 1.3484885
0.56734836 0.59487998 1.222065
0.59783995 0.58831155 1.3024025
0.63971275 0.58835876 1.4016529
0.68146443 0.58149755 1.4957792
0.59318292 0.59694916 1.2126155
0.62557268 0.58846426 1.2878811
0.66832513 0.58661681 1.3810788
0.71513993 0.58168304 1.478146
0.61277044 0.5932579 1.1911747
0.65228689 0.58863878 1.2723789
0.70112491 0.58969682 1.3695166
0.7487967 0.58188665 1.4595133
0.638605 0.59532708 1.1817254
0.67797863 0.58783501 1.2558776
0.72665513 0.58603835 1.344964
0.78347594 0.58306837 1.4418794
0.65717 0.59065765 1.1592855
0.70471555 0.58899117 1.2413931
0.75945491 0.58911836 1.3334018
0.81407315 0.58233714 1.4202861
0.68505353 0.59568298 1.151852
0.72730637 0.58628899 1.2199141
0.78498906 0.58645976 1.3088673
0.84669268 0.58258051 1.3996726
0.71291429 0.59972644 1.1434007
0.75504702 0.58844149 1.2054286
0.81158692 0.58574289 1.2873491
0.88033855 0.58480185 1.3800762
0.7345919 0.59995508 1.125993
0.77768308 0.58770281 1.185985
0.84025252 0.58796406 1.2688463
0.90782011 0.58319008 1.3525232
0.75526196 0.59818757 1.108568
0.80540502 0.58987325 1.1704999
0.86889148 0.58820367 1.2493078
0.93736517 0.58351654 1.3279675
0.77693963 0.59841609 1.0911605
0.82598138 0.58819622 1.1480767
0.89445221 0.58752656 1.2258089
0.96692914 0.58382493 1.3044118
0.79863602 0.59862661 1.0747524
0.84963995 0.58843571 1.1296318
0.92107666 0.58879125 1.2053264
0.99443722 0.58419478 1.2778944
0.8172316 0.59693861 1.0533667
0.87634337 0.59062785 1.1131661
0.94870102 0.59005237 1.1848251
1.0239824 0.58452123 1.2533388
0.83686829 0.59621066 1.0339792
0.896905 0.58996874 1.0897611
0.97120613 0.58944035 1.1583837
1.0514944 0.58589095 1.2268395
0.86163592 0.60035545 1.0205859
0.9174813 0.58829165 1.0673379
0.99372989 0.58881021 1.132942
1.077984 0.58628243 1.1993413
0.88025016 0.59864938 1.0001997
0.94519246 0.59247994 1.0508894
1.018276 0.5891546 1.1084803
1.0993729 0.5847826 1.1669028
0.89989084 0.5989213 0.98083025
0.96271318 0.59086788 1.0255235
1.0418261 0.59050238 1.0840554
1.1258851 0.58615589 1.1404222
0.91953135 0.59919327 0.96146089
0.98431599 0.59116876 1.0041171
1.0653539 0.59086847 1.0586131
1.1554421 0.58948183 1.1159208
0.93508607 0.59655231 0.93811393
1.0038817 0.59151304 0.98074919
1.0878814 0.59123814 1.0331893
1.17479 0.58702558 1.0815023
0.95575315 0.59880221 0.91976154
1.0244472 0.59185374 0.95736235
1.1134578 0.59456038 1.0097626
1.1962243 0.58748931 1.0510992
0.9794609 0.602005 0.90337002
1.0450355 0.59317613 0.93499327
1.1298625 0.59206069 0.97839957
1.222707 0.59089839 1.0226552
0.99401963 0.60036761 0.88005996
1.0635599 0.59256035 0.90962666
1.1402042 0.58763707 0.94411439
1.2410817 0.59042734 0.98929143
1.012627 0.60167915 0.85872799
1.0821111 0.59392613 0.88529587
1.1566544 0.5871008 0.9147867
1.2604601 0.59095246 0.95592684
1.0251448 0.59908521 0.83343816
1.1006583 0.5942921 0.86094695
1.1862793 0.59337199 0.8933382
1.28088 0.59243768 0.92456073
1.0447706 0.600375 0.81308711
1.1151648 0.59370875 0.83465588
1.2077962 0.59576303 0.86696976
1.2911694 0.58906823 0.88729453
1.0634005 0.60266829 0.79277295
1.1347158 0.5950709 0.81030619
1.2140975 0.59039015 0.83074224
1.3095708 0.59057873 0.85496634
1.084034 0.60595417 0.77243918
1.1482036 0.5945093 0.78303427
1.2295514 0.59085727 0.80145144
1.3309942 0.5930602 0.82359952
1.0945108 0.60240382 0.74516958
1.1687623 0.59786749 0.75870186
1.2500353 0.59428793 0.7731204
1.3483809 0.5955922 0.79030848
1.1090775 0.60276604 0.72189552
1.1812278 0.59632766 0.73043108
1.261426 0.59282398 0.7408697
1.3586783 0.59422231 0.75307834
1.1246477 0.60412443 0.69862062
1.193716 0.59576964 0.70317787
1.2778878 0.59528726 0.71159607
1.3720392 0.59478712 0.71882671
1.1331248 0.60058117 0.67138863
1.2092154 0.59820026 0.67592245
1.2913049 0.59579778 0.68034363
1.3803369 0.59342444 0.68163419
1.1486953 0.60193968 0.64811379
1.2227074 0.59863842 0.64866853
1.3047407 0.59629023 0.65009063
1.3906609 0.59403616 0.64543968
1.1682954 0.60626519 0.62581748
1.232136 0.59714556 0.61845475
1.3090727 0.59390593 0.61495453
1.4070704 0.59755349 0.61318511
1.1717321 0.60177624 0.5966621
1.2466316 0.59857994 0.59120005
1.3275607 0.59834349 0.58667904
1.4194206 0.60013962 0.57798874
1.1913322 0.60610181 0.57436579
1.2591277 0.60002154 0.56398296
1.3349373 0.59791189 0.55352187
1.4277451 0.60075849 0.54183179
1.1987948 0.60358006 0.54617089
1.2665567 0.59853578 0.5338068
1.3463401 0.59944749 0.52132529
1.4370731 0.60237366 0.50567412
1.2173765 0.6079272 0.52289373
1.2780155 0.60001713 0.50460911
1.3547393 0.59999406 0.489167
1.4373497 0.60005796 0.46761417
1.2167912 0.60247093 0.4927958
1.2894969 0.60248023 0.47642916
1.3661458 0.60252953 0.45698839
1.4456967 0.60165864 0.43247494
1.2394027 0.60978508 0.47049719
1.2959261 0.60099816 0.44627175
1.3664973 0.60014147 0.42292708
1.4530292 0.60428071 0.39637285
1.2337729 0.60238332 0.43845785
1.3043667 0.60250837 0.41613081
1.3738819 0.60170949 0.38980594
1.4543319 0.60394305 0.35932979
1.2583878 0.61069018 0.41613969
1.3158294 0.60498947 0.38695121
1.3792629 0.60228491 0.35670438
1.4335474 0.59474015 0.31953898
1.2557843 0.60525912 0.38507965
1.3182405 0.60353988 0.35586932
1.3856665 0.6038385 0.32460171
1.1344348 0.46040308 0.2356807
1.2743551 0.611624 0.36083889
1.3297073 0.60702085 0.32670769
1.1809853 0.50686818 0.25565645
1.1318884 0.45993498 0.2067101
1.2717514 0.60619301 0.32977888
1.3280926 0.60360396 0.29466528
1.1282002 0.48172861 0.2191776
-0.02611593 -0.059798401 0.050936799
1.2882812 0.61160147 0.30355832
1.1295376 0.50548571 0.23258686
1.126687 0.48022085 0.1921695
0.76457673 0.29593757 0.11859074
1.2796934 0.60517406 0.27359271
1.130024 0.50397086 0.20554116
0.85215914 0.35225385 0.13797624
0.75721437 0.29430673 0.099692687
1.1414728 0.53260088 0.22385092
-0.02611593 -0.059798401 0.050936799
0.72634727 0.29329151 0.1072548
0.75285161 0.29266512 0.080738246
-0.02611593 -0.059798401 0.050936799
0.70751619 0.2972143 0.11568119
0.72502524 0.29260281 0.090261333
0.7494964 0.29301959 0.061801061
0.90153861 0.40790564 0.1470615
0.72125638 0.3034344 0.10053131
0.7266956 0.29492089 0.072265893
0.74513745 0.29237777 0.042864643
0.72051358 0.31623679 0.11178061
0.72394544 0.30573076 0.083516732
0.72137046 0.29324669 0.055329569
0.74382329 0.29368871 0.025907213
0.72019136 0.31554449 0.094768353
0.72061986 0.30404943 0.066542834
0.73207372 0.29951367 0.038236745
0.74447519 0.29602849 0.0069309026
0.71788424 0.3138414 0.078775331
0.72531241 0.30733848 0.049508698
0.73275918 0.30081746 0.02124173
0.74013889 0.29636842 -0.010987837
0.72459525 0.3171052 0.062703267
0.72901601 0.30861336 0.033456977
0.73342985 0.30313912 0.0032650791
0.73580271 0.29670841 -0.028906573
0.72326928 0.31541663 0.045691781
0.73371255 0.31290224 0.016440857
0.74311453 0.3094278 -0.01480861
0.74545395 0.3040331 -0.048961572
0.72898036 0.31868404 0.029638518
0.7353791 0.31422052 -0.0015726015
0.74278146 0.31075326 -0.032784492
0.74811327 0.30836529 -0.06793943
0.73168427 0.3199625 0.013605587
0.73907179 0.31751317 -0.018587947
0.7394489 0.31208944 -0.050704002
0.74678433 0.31069419 -0.085878491
0.73236972 0.32126626 -0.0033894256
0.73974246 0.31983483 -0.0365646
0.74410802 0.31641451 -0.069719441
0.75043273 0.31704059 -0.10583878
0.73704356 0.3245734 -0.021423217
0.74640125 0.32415271 -0.055617623
0.7477712 0.32174298 -0.088698074
0.7540772 0.32238716 -0.12581706
0.73772901 0.32587716 -0.038418233
0.75107902 0.32845968 -0.073633403
0.75341529 0.3270824 -0.10871394
0.7537145 0.32574841 -0.14575621
0.74540627 0.3301734 -0.05649038
0.75373447 0.33179212 -0.092629291
0.74709421 0.3264116 -0.12561345
0.63276017 0.26995707 -0.13149601
0.75108391 0.33447677 -0.074524947
0.75440907 0.33511361 -0.1105879
0.75970042 0.3367793 -0.14866975
0.59459579 0.25520453 -0.13705023
0.75273943 0.33781278 -0.09350203
0.74906909 0.33445734 -0.12850589
0.66864187 0.29402274 -0.14273632
-0.02611593 -0.059798401 0.050936799
0.75540978 0.34012729 -0.11151627
0.75371331 0.3398003 -0.14850296
0.60455841 0.2652393 -0.1410566
0.21276927 0.063820735 -0.03432852
0.74808496 0.33846027 -0.12841502
0.70055389 0.31606698 -0.15193814
-0.02611593 -0.059798401 0.050936799
0.1957449 0.056882933 -0.034135211
0.76070207 0.34681016 -0.15050769
-0.02611593 -0.059798401 0.050936799
0.20980726 0.063795328 -0.032272831
-0.02611593 -0.059798401 0.050936799
0.67364669 0.30503911 -0.14463137
-0.02611593 -0.059798401 0.050936799
-0.02611593 -0.059798401 0.050936799
0.16571805 0.043974724 -0.032806084
0.5936352 0.2652064 -0.13685125
-0.02611593 -0.059798401 0.050936799
0.1767583 0.049916133 -0.031905003
-0.02611593 -0.059798401 0.050936799
-0.02611593 -0.059798401 0.050936799
0.19775629 0.059875254 -0.034118738
-0.02611593 -0.059798401 0.050936799
0.14070205 0.034048058 -0.031516839
0.21478853 0.068812706 -0.034276012
-0.02611593 -0.059798401 0.050936799
0.15073466 0.037993401 -0.03063301
-0.02611593 -0.059798401 0.050936799
-0.02611593 -0.059798401 0.050936799
0.16672572 0.04597079 -0.032788835
-0.02611593 -0.059798401 0.050936799
0.12167411 0.026117612 -0.031303965
0.18175046 0.052915778 -0.032944564
-0.02611593 -0.059798401 0.050936799
0.13268781 0.030077457 -0.031438589
-0.02611593 -0.059798401 0.050936799
-0.02611593 -0.059798401 0.050936799
0.14766032 0.038076527 -0.03457528
-0.02611593 -0.059798401 0.050936799
0.10268362 0.018150985 -0.029091772
0.15969257 0.042014696 -0.033729028
-0.02611593 -0.059798401 0.050936799
0.11466362 0.023143243 -0.031226486
-0.02611593 -0.059798401 0.050936799
-0.02611593 -0.059798401 0.050936799
0.12367375 0.026110433 -0.031341545
-0.02611593 -0.059798401 0.050936799
0.090666175 0.013194898 -0.02895638
0.14163092 0.035116658 -0.035516262
-0.02611593 -0.059798401 0.050936799
0.098676503 0.016165679 -0.029052649
-0.02611593 -0.059798401 0.050936799
-0.02611593 -0.059798401 0.050936799
0.10865293 0.020165291 -0.031167801
-0.02611593 -0.059798401 0.050936799
0.079652473 0.0092350608 -0.028821759
0.11864808 0.024146806 -0.032283299
-0.02611593 -0.059798401 0.050936799
0.088629089 0.013238254 -0.030918118
-0.02611593 -0.059798401 0.050936799
-0.02611593 -0.059798401 0.050936799
0.092665806 0.01318772 -0.02899396
-0.02611593 -0.059798401 0.050936799
0.071627364 0.0072822003 -0.02970713
0.098672569 0.015165848 -0.029070668
-0.02611593 -0.059798401 0.050936799
0.077630185 0.0082604978 -0.029801853
-0.02611593 -0.059798401 0.050936799
-0.02611593 -0.059798401 0.050936799
0.083636954 0.010238618 -0.02987856
-0.02611593 -0.059798401 0.050936799
0.063583523 0.0053474284 -0.031592168
0.092609636 0.013241988 -0.031992946
-0.02611593 -0.059798401 0.050936799
0.068601333 0.0053113946 -0.030686457
-0.02611593 -0.059798401 0.050936799
-0.02611593 -0.059798401 0.050936799
0.072619326 0.0052789496 -0.029761959
-0.02611593 -0.059798401 0.050936799
0.050655954 -0.00069534511 -0.026457693
0.079607174 0.0072715776 -0.030857112
-0.02611593 -0.059798401 0.050936799
0.057625078 0.0013153719 -0.028552514
-0.02611593 -0.059798401 0.050936799
-0.02611593 -0.059798401 0.050936799
0.061643071 0.0012829271 -0.027628016
-0.02611593 -0.059798401 0.050936799
0.042664357 -0.0036842115 -0.025361761
0.072563156 0.0053332169 -0.032760937
-0.02611593 -0.059798401 0.050936799
0.050618507 -0.00065916695 -0.028457019
-0.02611593 -0.059798401 0.050936799
-0.02611593 -0.059798401 0.050936799
0.057568908 0.0013696392 -0.031551499
-0.02611593 -0.059798401 0.050936799
0.039608736 -0.0036191773 -0.028304376
0.064534105 0.0023805255 -0.033664331
-0.02611593 -0.059798401 0.050936799
0.043611936 -0.0026336988 -0.028361518
-0.02611593 -0.059798401 0.050936799
-0.02611593 -0.059798401 0.050936799
0.050562337 -0.00060489972 -0.031456005
-0.02611593 -0.059798401 0.050936799
0.033605911 -0.0045974706 -0.028209653
0.056523796 -0.00059025525 -0.033568066
-0.02611593 -0.059798401 0.050936799
0.037586454 -0.0045937374 -0.029284474
-0.02611593 -0.059798401 0.050936799
-0.02611593 -0.059798401 0.050936799
0.044536863 -0.0025649313 -0.032378945
-0.02611593 -0.059798401 0.050936799
0.02759915 -0.0065755984 -0.028132945
0.047532387 -0.0035755322 -0.03245334
-0.02611593 -0.059798401 0.050936799
0.029628374 -0.0086186118 -0.026207238
-0.02611593 -0.059798401 0.050936799
-0.02611593 -0.059798401 0.050936799
0.036545262 -0.0055538011 -0.031283028
-0.02611593 -0.059798401 0.050936799
0.022596139 -0.0075574843 -0.028057009
0.039540783 -0.0065643983 -0.031357415
-0.02611593 -0.059798401 0.050936799
0.02559559 -0.0075682513 -0.028113384
-0.02611593 -0.059798401 0.050936799
-0.02611593 -0.059798401 0.050936799
0.027620884 -0.010611095 -0.026205696
-0.02611593 -0.059798401 0.050936799
0.017593129 -0.0085393675 -0.027981076
0.033552751 -0.0085606119 -0.030281045
-0.02611593 -0.059798401 0.050936799
0.021573668 -0.0085356338 -0.029055897
-0.02611593 -0.059798401 0.050936799
-0.02611593 -0.059798401 0.050936799
0.023584172 -0.010560562 -0.028129857
-0.02611593 -0.059798401 0.050936799
0.013560341 -0.007489006 -0.029887214
0.029478593 -0.0084738992 -0.034204535
-0.02611593 -0.059798401 0.050936799
0.017536961 -0.0084851002 -0.030980062
-0.02611593 -0.059798401 0.050936799
-0.02611593 -0.059798401 0.050936799
0.018581159 -0.011542448 -0.028053921
-0.02611593 -0.059798401 0.050936799
-0.02611593 -0.059798401 0.050936799
0.022524262 -0.011502536 -0.031128068
-0.02611593 -0.059798401 0.050936799
0.013518967 -0.0084526548 -0.031904552
-0.02611593 -0.059798401 0.050936799
-0.02611593 -0.059798401 0.050936799
0.013578149 -0.012524334 -0.027977988
-0.02611593 -0.059798401 0.050936799
0.0055391523 -0.0084420331 -0.030754577
0.017521251 -0.012484423 -0.031052135
-0.02611593 -0.059798401 0.050936799
-0.02611593 -0.059798401 0.050936799
-0.02611593 -0.059798401 0.050936799
-0.02611593 -0.059798401 0.050936799
-0.02611593 -0.059798401 0.050936799
-0.02611593 -0.059798401 0.050936799
-0.02611593 -0.059798401 0.050936799
0.012518233 -0.013466305 -0.030976202
-0.02611593 -0.059798401 0.050936799
-0.02611593 -0.059798401 0.050936799
-0.02611593 -0.059798401 0.050936799
-0.02611593 -0.059798401 0.050936799
-0.02611593 -0.059798401 0.050936799
-0.02611593 -0.059798401 0.050936799
-0.02611593 -0.059798401 0.050936799
0.0084815202 -0.013415771 -0.032900359
-0.02611593 -0.059798401 0.050936799
-0.02611593 -0.059798401 0.050936799
-0.02611593 -0.059798401 0.050936799
-0.02611593 -0.059798401 0.050936799
-0.02611593 -0.059798401 0.050936799
-0.02611593 -0.059798401 0.050936799
-0.02611593 -0.059798401 0.050936799
0.0034785094 -0.01439766 -0.032824423
-0.02611593 -0.059798401 0.050936799
-0.02611593 -0.059798401 0.050936799
-0.02611593 -0.059798401 0.050936799
-0.02611593 -0.059798401 0.050936799
-0.02611593 -0.059798401 0.050936799
-0.02611593 -0.059798401 0.050936799
-0.02611593 -0.059798401 0.050936799
0.0004455396 -0.013350882 -0.034749359
-0.02611593 -0.059798401 0.050936799
-0.02611593 -0.059798401 0.050936799
-0.02611593 -0.059798401 0.050936799
-0.02611593 -0.059798401 0.050936799
-0.02611593 -0.059798401 0.050936799
-0.02611593 -0.059798401 0.050936799
-0.02611593 -0.059798401 0.050936799
-0.02611593 -0.059798401 0.050936799
-0.02611593 -0.059798401 0.050936799
-0.02611593 -0.059798401 0.050936799
-0.02611593 -0.059798401 0.050936799
-0.02611593 -0.059798401 0.050936799
-0.02611593 -0.059798401 0.050936799
-0.02611593 -0.059798401 0.050936799
-0.02611593 -0.059798401 0.050936799
-0.02611593 -0.059798401 0.050936799
-0.02611593 -0.059798401 0.050936799
-0.02611593 -0.059798401 0.050936799
-0.02611593 -0.059798401 0.050936799
-0.02611593 -0.059798401 0.050936799
-0.02611593 -0.059798401 0.050936799
-0.02611593 -0.059798401 0.050936799
-0.02611593 -0.059798401 0.050936799
-0.02611593 -0.059798401 0.050936799
-0.02611593 -0.059798401 0.050936799
-0.02611593 -0.059798401 0.050936799
-0.02611593 -0.059798401 0.050936799
-0.02611593 -0.059798401 0.050936799
-0.02611593 -0.059798401 0.050936799
-0.02611593 -0.059798401 0.050936799
-0.02611593 -0.059798401 0.050936799
-0.02611593 -0.059798401 0.050936799
-0.02611593 -0.059798401 0.050936799
-0.02611593 -0.059798401 0.050936799
-0.02611593 -0.059798401 0.050936799
-0.02611593 -0.059798401 0.050936799
-0.02611593 -0.059798401 0.050936799
-0.02611593 -0.059798401 0.050936799
-0.02611593 -0.059798401 0.050936799
-0.02611593 -0.059798401 0.050936799
-0.02611593 -0.059798401 0.050936799
-0.02611593 -0.059798401 0.050936799
-0.02611593 -0.059798401 0.050936799
-0.02611593 -0.059798401 0.050936799
-0.02611593 -0.059798401 0.050936799
-0.02611593 -0.059798401 0.050936799
-0.02611593 -0.059798401 0.050936799
-0.025624594 -0.013185213 -0.03825945
-0.02611593 -0.059798401 0.050936799
-0.02611593 -0.059798401 0.050936799
-0.02611593 -0.059798401 0.050936799
-0.02611593 -0.059798401 0.050936799
-0.02611593 -0.059798401 0.050936799
-0.02611593 -0.059798401 0.050936799
-0.02611593 -0.059798401 0.050936799
-0.02611593 -0.059798401 0.050936799
-0.02611593 -0.059798401 0.050936799
-0.02611593 -0.059798401 0.050936799
-0.02611593 -0.059798401 0.050936799
-0.02611593 -0.059798401 0.050936799
-0.02611593 -0.059798401 0.050936799
-0.02611593 -0.059798401 0.050936799
-0.02611593 -0.059798401 0.050936799
-0.02611593 -0.059798401 0.050936799
-0.02611593 -0.059798401 0.050936799
-0.02611593 -0.059798401 0.050936799
-0.02611593 -0.059798401 0.050936799
-0.02611593 -0.059798401 0.050936799
-0.02611593 -0.059798401 0.050936799
-0.02611593 -0.059798401 0.050936799
-0.02611593 -0.059798401 0.050936799
-0.02611593 -0.059798401 0.050936799
-0.02611593 -0.059798401 0.050936799
-0.02611593 -0.059798401 0.050936799
-0.02611593 -0.059798401 0.050936799
-0.02611593 -0.059798401 0.050936799
-0.02611593 -0.059798401 0.050936799
-0.02611593 -0.059798401 0.050936799
-0.02611593 -0.059798401 0.050936799
-0.02611593 -0.059798401 0.050936799
-0.02611593 -0.059798401 0.050936799
-0.02611593 -0.059798401 0.050936799
-0.02611593 -0.059798401 0.050936799
-0.02611593 -0.059798401 0.050936799
-0.02611593 -0.059798401 0.050936799
-0.02611593 -0.059798401 0.050936799
-0.02611593 -0.059798401 0.050936799
-0.046564583 -0.013164113 -0.034865864
-0.02611593 -0.059798401 0.050936799
-0.02611593 -0.059798401 0.050936799
-0.02611593 -0.059798401 0.050936799
-0.02611593 -0.059798401 0.050936799
-0.02611593 -0.059798401 0.050936799
-0.02611593 -0.059798401 0.050936799
-0.054415435 -0.0042454679 -0.028555404
-0.050574712 -0.011132011 -0.035754323
-0.02611593 -0.059798401 0.050936799
-0.02611593 -0.059798401 0.050936799
-0.02611593 -0.059798401 0.050936799
-0.02611593 -0.059798401 0.050936799
-0.02611593 -0.059798401 0.050936799
-0.02611593 -0.059798401 0.050936799
-0.058410779 -0.0032312856 -0.028462224
-0.055555079 -0.011132156 -0.034660712
-0.02611593 -0.059798401 0.050936799
-0.02611593 -0.059798401 0.050936799
-0.02611593 -0.059798401 0.050936799
-0.02611593 -0.059798401 0.050936799
-0.057438452 -0.010233682 -0.028607145
-0.02611593 -0.059798401 0.050936799
-0.061372783 -0.0032566967 -0.02640653
-0.058483567 -0.012193576 -0.030623708
-0.02611593 -0.059798401 0.050936799
-0.062436625 -0.0051984983 -0.029422764
-0.02611593 -0.059798401 0.050936799
-0.02611593 -0.059798401 0.050936799
-0.062467124 -0.0081798974 -0.03047647
-0.02611593 -0.059798401 0.050936799
-0.066401452 -0.0012029128 -0.028275859
-0.063478723 -0.011175801 -0.030511733
-0.02611593 -0.059798401 0.050936799
-0.067446575 -0.0031628073 -0.030292425
-0.02611593 -0.059798401 0.050936799
-0.02611593 -0.059798401 0.050936799
-0.066443749 -0.0071838042 -0.029383637
-0.02611593 -0.059798401 0.050936799
-0.070392869 0.00081110414 -0.028164662
-0.069503292 -0.0081185969 -0.03234427
-0.02611593 -0.059798401 0.050936799
-0.070408583 -0.0031882185 -0.028236736
-0.02611593 -0.059798401 0.050936799
-0.02611593 -0.059798401 0.050936799
-0.070405565 -0.0072056269 -0.02730915
-0.02611593 -0.059798401 0.050936799
-0.074354686 0.00078928174 -0.026090182
-0.073465116 -0.0081404196 -0.030269776
-0.02611593 -0.059798401 0.050936799
-0.075399809 -0.0011706126 -0.028106745
-0.02611593 -0.059798401 0.050936799
-0.02611593 -0.059798401 0.050936799
-0.074367382 -0.0072274487 -0.025234669
-0.02611593 -0.059798401 0.050936799
-0.077316694 0.00076387031 -0.024034485
-0.078441553 -0.007140737 -0.029158153
-0.02611593 -0.059798401 0.050936799
-0.081405655 0.0018684983 -0.028939612
-0.02611593 -0.059798401 0.050936799
-0.02611593 -0.059798401 0.050936799
-0.081387848 -0.0031668297 -0.027030379
-0.02611593 -0.059798401 0.050936799
-0.083337337 0.004820901 -0.025848992
-0.084432594 -0.0051195421 -0.029009372
-0.02611593 -0.059798401 0.050936799
-0.086382091 0.0028681844 -0.027827974
-0.02611593 -0.059798401 0.050936799
-0.02611593 -0.059798401 0.050936799
-0.02611593 -0.059798401 0.050936799
-0.02611593 -0.059798401 0.050936799
-0.088313766 0.0058205868 -0.024737362
-0.09145698 -0.0020587498 -0.0308231
-0.02611593 -0.059798401 0.050936799
-0.089325368 0.0028246841 -0.024772625
-0.02611593 -0.059798401 0.050936799
-0.02611593 -0.059798401 0.050936799
-0.093384735 0.0018934761 -0.027714461
-0.02611593 -0.059798401 0.050936799
-0.095334224 0.0098812105 -0.026533075
-0.097429305 -5.5651413e-05 -0.029674657
-0.02611593 -0.059798401 0.050936799
-0.098360255 0.0079104044 -0.027512398
-0.02611593 -0.059798401 0.050936799
-0.02611593 -0.059798401 0.050936799
-0.10240483 0.0059612771 -0.029472589
-0.02611593 -0.059798401 0.050936799
-0.10233596 0.013923737 -0.027329121
-0.10644547 0.0050119804 -0.031414781
-0.02611593 -0.059798401 0.050936799
-0.10130354 0.0078669041 -0.024457045
-0.02611593 -0.059798401 0.050936799
-0.02611593 -0.059798401 0.050936799
-0.106344 0.0069211889 -0.026380431
-0.02611593 -0.059798401 0.050936799
-0.10728973 0.015905164 -0.025199816
-0.11445093 0.0080582723 -0.032210059
-0.02611593 -0.059798401 0.050936799
-0.1103197 0.012934528 -0.026197158
-0.02611593 -0.059798401 0.050936799
-0.02611593 -0.059798401 0.050936799
-0.11536016 0.011988821 -0.028120551
-0.02611593 -0.059798401 0.050936799
-0.11326206 0.017908262 -0.024051376
-0.12240025 0.01105029 -0.030006353
-0.02611593 -0.059798401 0.050936799
-0.12031695 0.017987654 -0.026918821
-0.02611593 -0.059798401 0.050936799
-0.02611593 -0.059798401 0.050936799
-0.12533867 0.017023863 -0.027842551
-0.02611593 -0.059798401 0.050936799
-0.12024508 0.021932708 -0.02384777
-0.1323975 0.016103422 -0.030728023
-0.02611593 -0.059798401 0.050936799
-0.13132882 0.024062295 -0.02860333
-0.02611593 -0.059798401 0.050936799
-0.02611593 -0.059798401 0.050936799
-0.13330673 0.020033978 -0.026638508
-0.02611593 -0.059798401 0.050936799
-0.131253 0.029007172 -0.02551426
-0.14335711 0.021123964 -0.029431567
-0.02611593 -0.059798401 0.050936799
-0.13725975 0.027029051 -0.025437556
-0.02611593 -0.059798401 0.050936799
-0.02611593 -0.059798401 0.050936799
-0.14529967 0.026094111 -0.027304575
-0.02611593 -0.059798401 0.050936799
-0.14123154 0.034042217 -0.025236264
-0.15533136 0.027166007 -0.029097971
-0.02611593 -0.059798401 0.050936799
-0.15126322 0.035114113 -0.027029667
-0.02611593 -0.059798401 0.050936799
-0.02611593 -0.059798401 0.050936799
-0.16231346 0.036207687 -0.029803939
-0.02611593 -0.059798401 0.050936799
-0.15624569 0.044148616 -0.027773198
-0.17129701 0.035222068 -0.028653175
-0.02611593 -0.059798401 0.050936799
-0.16122304 0.040131059 -0.025752004
-0.02611593 -0.059798401 0.050936799
-0.02611593 -0.059798401 0.050936799
-0.17827518 0.045263577 -0.029341124
-0.02611593 -0.059798401 0.050936799
-0.1671866 0.049151067 -0.025477089
-0.19026907 0.046306476 -0.029097617
-0.02611593 -0.059798401 0.050936799
-0.18322411 0.053262077 -0.028103352
-0.02611593 -0.059798401 0.050936799
-0.02611593 -0.059798401 0.050936799
-0.19019325 0.051251356 -0.026008539
-0.02611593 -0.059798401 0.050936799
-0.18416293 0.059228469 -0.025977131
-0.21223663 0.058401477 -0.029467661
-0.02611593 -0.059798401 0.050936799
-0.20018174 0.063321382 -0.027603731
-0.02611593 -0.059798401 0.050936799
-0.02611593 -0.059798401 0.050936799
-0.21114227 0.063324682 -0.025397714
-0.02611593 -0.059798401 0.050936799
-0.20313105 0.071312688 -0.026403546
-0.23514785 0.070445806 -0.026819933
-0.02611593 -0.059798401 0.050936799
-0.21610601 0.072341092 -0.025141597
-0.02611593 -0.059798401 0.050936799
-0.02611593 -0.059798401 0.050936799
-0.24110746 0.08046563 -0.026527006
-0.02611593 -0.059798401 0.050936799
-0.22308025 0.083382435 -0.025811512
-0.2680859 0.08957909 -0.02685716
-0.02611593 -0.059798401 0.050936799
-0.24604855 0.090463787 -0.025253199
-0.02611593 -0.059798401 0.050936799
-0.02611593 -0.059798401 0.050936799
-0.90837932 0.51170534 -0.22329989
-0.02611593 -0.059798401 0.050936799
-0.24799411 0.099451356 -0.024053797
-0.9699887 0.51758307 -0.20303321
-0.95812529 0.54075319 -0.2148402
-1.0476018 0.63087147 -0.25654894
-0.02611593 -0.059798401 0.050936799
-0.98557997 0.52527744 -0.18259519
-0.97876388 0.55051929 -0.1972712
-1.0912712 0.65580803 -0.24327575
-1.042351 0.65670443 -0.24817714
-0.99614632 0.52991807 -0.16030584
-0.98735726 0.55317128 -0.17605515
-1.0968354 0.65641338 -0.2201528
-1.0469273 0.65430665 -0.225127
-1.0087085 0.53556573 -0.13796093
-1.0099651 0.56592596 -0.15739481
-1.107391 0.65903628 -0.19689982
-1.0535289 0.65495169 -0.20398457
-1.0212854 0.54223132 -0.11659762
-1.1146796 0.62927401 -0.15328698
-1.1109409 0.65861648 -0.1728328
-1.0601157 0.65457886 -0.18186048
-1.0348396 0.54988229 -0.094197877
-1.1582513 0.65512002 -0.13499746
-1.1134762 0.65717518 -0.14780292
-1.0687131 0.65623099 -0.16066246
-1.1053808 0.59185857 -0.077112049
-1.161741 0.65564579 -0.10791343
-1.1180259 0.65675902 -0.12371712
-1.0743002 0.65585452 -0.13855718
-1.1998775 0.64893663 -0.060304642
-1.1552562 0.65013665 -0.081125408
-1.1115639 0.6502682 -0.097946785
-1.0798831 0.65647793 -0.11643387
-1.2013451 0.65043688 -0.032240517
-1.1567652 0.65067339 -0.055078641
-1.114114 0.64984483 -0.073898546
-1.0774686 0.65205544 -0.093551315
-1.2018127 0.65193373 -0.0041951835
-1.1562597 0.65018499 -0.028087787
-1.1156644 0.64941788 -0.049869098
-1.0870391 0.65569264 -0.071298808
-1.1952827 0.64838809 0.024628196
-1.1527812 0.64770424 -0.0021890104
-1.1172146 0.64899093 -0.025839649
-1.0916225 0.65631241 -0.049194276
-1.1947694 0.6498993 0.05165508
-1.1552861 0.64924437 0.023894589
-1.1177651 0.6485604 -0.0018289983
-1.0972054 0.65693593 -0.027070977
-1.1832626 0.64535403 0.079366826
-1.1488121 0.64575303 0.04971898
-1.1192926 0.64911515 0.023218129
-1.0847936 0.64746022 -0.0034667701
-1.1757663 0.64284086 0.1061901
-1.1473404 0.64629704 0.074709736
-1.1188473 0.64768118 0.047191978
-1.0893583 0.64806193 0.019637413
-1.1712576 0.64333797 0.13312382
-1.1448727 0.64583766 0.099663675
-1.1203936 0.64825404 0.071239442
-1.0919418 0.64867449 0.041704342
-1.1607846 0.6398322 0.15887304
-1.1414089 0.64437479 0.12458082
-1.1149718 0.64582044 0.094101653
-1.093511 0.64826566 0.064734131
-1.1602446 0.64332503 0.18693562
-1.135927 0.6428867 0.15046003
-1.1135225 0.6453827 0.11807473
-1.0921031 0.64686435 0.086689875
-1.1537589 0.64283317 0.21281406
-1.1284642 0.64140958 0.17530201
-1.1120735 0.64494497 0.14204781
-1.0896807 0.64444137 0.10960846
-1.1442776 0.64133072 0.23861811
-1.1259925 0.64194995 0.20027396
-1.1096245 0.64450365 0.16600209
-1.0942373 0.64704275 0.13274866
-1.1348151 0.63984638 0.26342252
-1.1215212 0.64248317 0.22520836
-1.1061757 0.64405876 0.18993759
-1.0878235 0.6426059 0.15555605
-1.1253299 0.6393438 0.28924459
-1.1120815 0.64001715 0.24899507
-1.0977583 0.64061451 0.2127254
-1.0853933 0.64218271 0.1785107
-1.1148864 0.63787395 0.31303054
-1.1086099 0.64055395 0.27394825
-1.0992781 0.64316893 0.23780857
-1.0869583 0.64277363 0.20155849
-1.1123617 0.6423775 0.34007391
-1.1021578 0.64109808 0.29784539
-1.0918565 0.64072806 0.26063323
-1.0845281 0.64235044 0.22451311
-1.1009183 0.64090407 0.36384106
-1.0907222 0.63762504 0.32157651
-1.0864081 0.64027601 0.28453112
-1.0840937 0.64293426 0.24752334
-1.0795338 0.63443172 0.38533086
-1.0842701 0.63816917 0.34547365
-1.0819781 0.63984561 0.30744818
-1.0776718 0.64049691 0.27036676
-1.068109 0.63297641 0.40809834
-1.075837 0.63872421 0.36833355
-1.0745488 0.63940442 0.33030882
-1.0762336 0.64207697 0.29337621
-1.0566578 0.63350254 0.43190154
-1.0614433 0.63427663 0.38999096
-1.0691005 0.63895237 0.35420674
-1.0718076 0.6406467 0.31627524
-1.0432522 0.63205814 0.45363179
-1.0559832 0.63682413 0.41394293
-1.061671 0.63851118 0.37706745
-1.065382 0.63920933 0.33913669
-1.0288469 0.63061017 0.47534326
-1.0415857 0.63337636 0.43561834
-1.0512877 0.63609582 0.39783639
-1.0579792 0.63678658 0.36096168
-1.0204097 0.63216501 0.49822116
-1.0321715 0.63394594 0.45745981
-1.0428585 0.63565105 0.42067826
-1.0525495 0.6363526 0.3838599
-1.0069964 0.63272023 0.51998746
-1.0217654 0.63251227 0.47924641
-1.0324562 0.63321745 0.44244686
-1.044147 0.63392627 0.40566611
-0.99358678 0.63227564 0.54173577
-1.0103328 0.63305664 0.50204992
-1.0250416 0.63379425 0.46432588
-1.0387132 0.63449216 0.42858231
-0.97919613 0.63184553 0.56246555
-0.99991882 0.63362265 0.52387261
-1.0156127 0.6333459 0.48714894
-1.0342607 0.6350435 0.45251709
-0.96184754 0.63044095 0.58112162
-0.98655063 0.63221431 0.54360354
-1.0062026 0.63291562 0.50897241
-1.0248731 0.63363147 0.47332284
-0.94945258 0.63101786 0.60190713
-0.97514081 0.63177693 0.56538934
-0.99678832 0.63348526 0.53081381
-1.016444 0.6331867 0.49616471
-0.93309981 0.63061678 0.62059999
-0.959773 0.63036144 0.58508271
-0.98342407 0.63107705 0.5505268
-1.0100106 0.63374895 0.51906216
-0.91577375 0.62823045 0.63823843
-0.94739681 0.63095641 0.60486847
-0.97498715 0.63263208 0.57340467
-1.0025812 0.63330775 0.54192287
-0.89744395 0.62684047 0.65587604
-0.93600172 0.63153696 0.6256727
-0.96457303 0.63319802 0.5952273
-0.99316698 0.6338774 0.56376433
-0.88503736 0.63041687 0.67671549
-0.92065263 0.63013953 0.64436638
-0.95220476 0.63179338 0.61497706
-0.9837569 0.63344711 0.58558774
-0.86477578 0.62607443 0.69126254
-0.90332663 0.62775326 0.66200483
-0.93883657 0.63038504 0.63470799
-0.97037387 0.6310209 0.60630029
-0.85531938 0.63262486 0.7142117
-0.89192367 0.63033348 0.682845
-0.92644167 0.63096201 0.65549338
-0.9639138 0.63356471 0.63023347
-0.83014548 0.62533736 0.72461218
-0.87263936 0.62697631 0.69842851
-0.91209239 0.62956822 0.6742059
-0.95153075 0.63114214 0.65096486
-0.81185317 0.62398356 0.74025047
-0.86416793 0.63251245 0.72237819
-0.89674336 0.62817079 0.69289947
-0.9361856 0.6287449 0.66964048
-0.79552996 0.62561816 0.75698012
-0.8449024 0.62917352 0.73696202
-0.88237149 0.6277588 0.71262974
-0.92477173 0.62930733 0.6914444
-0.77530193 0.62231177 0.76954579
-0.82268262 0.62386018 0.74945414
-0.87490386 0.63229865 0.73658013
-0.90943056 0.62591028 0.71010202
-0.75797898 0.62394297 0.78625667
-0.81420732 0.63039613 0.77342176
-0.85268801 0.62598562 0.74905419
-0.89899004 0.62845784 0.73296034
-0.74265158 0.62658107 0.8030231
-0.78907079 0.62314481 0.78182286
-0.84519768 0.63150722 0.77402228
-0.88364488 0.62606066 0.75163603
-0.72046149 0.62330365 0.8135519
-0.7727555 0.62277991 0.79851645
-0.82002378 0.62421972 0.7844227
-0.86927301 0.62564862 0.77136618
-0.70122552 0.62200052 0.82617253
-0.75839055 0.6253854 0.81730098
-0.80566663 0.6248256 0.80317128
-0.86176783 0.63015234 0.7973159
-0.68589818 0.62463862 0.84293896
-0.74009424 0.62503135 0.83295727
-0.79128689 0.62641323 0.82293743
-0.83953333 0.6238212 0.8107897
-0.66472262 0.6223827 0.85250491
-0.72377104 0.62666619 0.84968698
-0.77788436 0.62898618 0.84374005
-0.82415766 0.62440538 0.83051908
-0.64352447 0.62110859 0.86308849
-0.70060372 0.62240338 0.85917932
-0.75079358 0.61976421 0.85006821
-0.80682766 0.62301892 0.84817553
-0.62528044 0.62180859 0.87576395
-0.68430316 0.62305629 0.87489128
-0.7364099 0.62235165 0.86985236
-0.79047883 0.62161803 0.86685038
-0.60603654 0.62250507 0.88842058
-0.66213173 0.61979699 0.88442045
-0.72104901 0.62395376 0.88860011
-0.77312225 0.62221313 0.88554257
-0.58585697 0.6212526 0.89802331
-0.6458233 0.62244964 0.90016842
-0.69788176 0.61969101 0.89809251
-0.75678825 0.62183011 0.90323573
-0.56569606 0.62001818 0.90662646
-0.62656468 0.62212819 0.91380662
-0.67960423 0.61935508 0.91274917
-0.74040884 0.62341052 0.92296445
-0.54646695 0.62173253 0.9183014
-0.60538518 0.62087214 0.92339063
-0.6651752 0.62390602 0.93456876
-0.71916234 0.6200825 0.93651104
-0.52530628 0.6204946 0.92688566
-0.58712244 0.62155408 0.93706566
-0.64591652 0.62358457 0.94820696
-0.69887429 0.61772162 0.95209372
-0.50514144 0.62026 0.93550682
-0.56690145 0.62126529 0.94868582
-0.62177211 0.6183365 0.95666289
-0.6786198 0.61639667 0.96569514
-0.4821091 0.61512405 0.93798351
-0.54572195 0.62000918 0.95826977
-0.60444516 0.62096751 0.97339165
-0.66221774 0.61895895 0.98644149
-0.4629401 0.61589289 0.9466415
-0.52551973 0.6197384 0.96889025
-0.58516383 0.62162781 0.9880476
-0.63998628 0.61664516 0.99898762
-0.4427487 0.61763984 0.95629835
-0.50338179 0.61751503 0.97643811
-0.56394696 0.62033552 0.99963093
-0.61969036 0.61628395 1.0146064
-0.42164415 0.61645615 0.96188366
-0.48319823 0.61726242 0.98605889
-0.54081327 0.61710876 1.0071419
-0.5994131 0.61594087 1.0292255
-0.40153944 0.61527598 0.96748787
-0.46205625 0.61604255 0.99364358
-0.51766074 0.613864 1.0156527
-0.58006781 0.61854655 1.0469165
-0.38138545 0.61705917 0.97514528
-0.43899733 0.61288816 0.99715602
-0.49645853 0.61358958 1.0262544
-0.5568552 0.61624724 1.0584441
-0.361258 0.61686075 0.98176712
-0.41974565 0.61558431 1.0098486
-0.47331691 0.6123625 1.0338014
-0.53170705 0.61199546 1.0668993
-0.33925509 0.61376423 0.98229939
-0.39951676 0.61729515 1.0215048
-0.45209607 0.61207014 1.0454028
-0.50946766 0.61168134 1.0794814
-0.31912374 0.61456561 0.98893923
-0.37649924 0.61317706 1.0229999
-0.42993161 0.61182833 1.0539863
-0.48724699 0.61138529 1.0910641
-0.29896981 0.6163488 0.99659663
-0.35534939 0.61395675 1.0306206
-0.40779373 0.60960495 1.0615342
-0.46498495 0.61205292 1.1046638
-0.2779628 0.61425567 0.9971658
-0.33417687 0.61571825 1.039259
-0.38841397 0.61619192 1.0802969
-0.44080606 0.61078608 1.1141915
-0.25687298 0.61408985 1.0017694
-0.31113666 0.61258197 1.0417717
-0.36530975 0.61500102 1.0858448
-0.41564998 0.60853386 1.1226827
-0.23684315 0.61298209 1.0033749
-0.28902838 0.61239445 1.0473562
-0.34212676 0.61473757 1.095409
-0.39433855 0.61216837 1.1383547
-0.21491906 0.60895807 0.99989051
-0.26696143 0.61124337 1.0509235
-0.3171283 0.61063045 1.0958668
-0.36826149 0.60898513 1.1428103
-0.19479859 0.61177731 1.0055667
-0.24584903 0.61205924 1.0565449
-0.29398271 0.61040318 1.1034319
-0.34409735 0.60873616 1.1513565
-0.17381029 0.60970229 1.005136
-0.22381952 0.61094427 1.0581127
-0.27181041 0.6121611 1.1120516
-0.31802028 0.60555303 1.1558121
-0.15378045 0.60859448 1.0067415
-0.20172994 0.61077493 1.0626976
-0.24776649 0.61002105 1.1145636
-0.29562241 0.61211103 1.175518
-0.13374272 0.60948634 1.008383
-0.17965907 0.6106236 1.066283
-0.22459039 0.61277521 1.1231824
-0.26858294 0.60896039 1.1779556
-0.11364099 0.61232358 1.0130596
-0.15760301 0.61149019 1.0688865
-0.19958803 0.6096679 1.1236583
-0.24258074 0.6058495 1.1784126
-0.093644649 0.61225182 1.0126839
-0.13561489 0.6094116 1.0684371
-0.17551754 0.60950935 1.127206
-0.21828467 0.61049116 1.1930468
-0.072697707 0.60921311 1.0102358
-0.11347606 0.61220545 1.0750755
-0.15234146 0.61226356 1.1358248
-0.19128266 0.60737669 1.1934849
-0.05261077 0.61306828 1.0139307
-0.091461368 0.61210841 1.0756618
-0.12837636 0.60919607 1.13432
-0.16521645 0.60621125 1.1969771
-0.032833084 0.60517877 1.0034142
-0.06855619 0.60809898 1.0711588
-0.10432458 0.60905558 1.136868
-0.1381918 0.60407853 1.198433
-0.012832813 0.60610682 1.0030564
-0.046496183 0.60996538 1.0737804
-0.079355724 0.60698432 1.1353625
-0.11305746 0.60586178 1.2049968
0.0061449893 0.60605675 1.0016997
-0.024609532 0.60597759 1.0682967
-0.055322688 0.60686201 1.1369108
-0.085942216 0.607656 1.2105236
0.026126536 0.60700291 1.0003422
-0.0036094468 0.60690206 1.0679201
-0.031263053 0.60872126 1.139495
-0.059060402 0.6026504 1.2049278
0.045104332 0.60695279 0.99898553
0.018386526 0.60682309 1.0675067
-0.0072487202 0.60861707 1.1400437
-0.032941051 0.60544807 1.2104912
0.065063231 0.6069172 0.99661046
0.040363781 0.60676217 1.0660936
0.016641494 0.60562187 1.1345403
-0.0059499163 0.60435134 1.2099658
0.08398094 0.60592151 0.99223673
0.061277188 0.60475951 1.0616643
0.040701129 0.60748112 1.1371244
0.02006405 0.60423988 1.210477
0.10393982 0.60588592 0.98986167
0.083258368 0.60569847 1.0602694
0.064591341 0.60448599 1.1316211
0.047209799 0.60901552 1.2170573
0.12288411 0.6068719 0.98652363
0.10517552 0.60469204 1.0558392
0.089613341 0.60637778 1.1321869
0.074076816 0.60502785 1.21048
0.14169642 0.60296714 0.97709757
0.12713405 0.60464925 1.0534265
0.11363553 0.60827321 1.1327717
0.098699883 0.59626532 1.1918542
0.16068208 0.60491669 0.97577697
0.1490778 0.60562444 1.0500321
0.13748831 0.60531425 1.1252691
0.12797333 0.60492444 1.2044671
0.17958106 0.60393912 0.97040361
0.16891256 0.60269785 1.041605
0.16142774 0.60528237 1.1218191
0.15497625 0.60682726 1.2039958
0.19852927 0.6059249 0.96708363
0.19089766 0.60463661 1.040228
0.18530709 0.60430497 1.1153522
0.17974608 0.60193735 1.1924396
0.21747357 0.60691082 0.96374559
0.21284141 0.60561186 1.0368336
0.20820926 0.60431284 1.1099217
0.2077941 0.60579997 1.1939847
0.23533526 0.60597295 0.95639175
0.23261608 0.6017397 1.0253896
0.2320886 0.60333538 1.1034546
0.23359035 0.60288811 1.1834457
0.25421944 0.6060133 0.95003682
0.25565022 0.60663819 1.0260471
0.25597188 0.60335779 1.0970057
0.25945058 0.60192156 1.1759415
0.27312237 0.60603559 0.94468153
0.27440637 0.60278773 1.013622
0.27885532 0.60338378 1.0905756
0.28533351 0.60193682 1.1694549
0.29100674 0.60607952 0.93834525
0.29422638 0.60087913 1.0042132
0.30271989 0.60342425 1.083127
0.31117505 0.60098833 1.1609509
0.3078312 0.6051814 0.92901087
0.31622326 0.60581744 1.0028902
0.32454342 0.60250825 1.0736986
0.33597928 0.60007966 1.1504667
0.32571554 0.60522532 0.92267466
0.33604324 0.60390866 0.99348146
0.34528047 0.59866875 1.0602363
0.3628886 0.60207289 1.144997
0.34462634 0.60724729 0.91735536
0.35797611 0.60690165 0.98912352
0.36919427 0.60167253 1.0548412
0.38977921 0.60408425 1.1385276
0.36144683 0.60534942 0.90800297
0.37673613 0.60405099 0.97671646
0.39410391 0.60367292 1.0494092
0.41139588 0.59834999 1.1190127
0.38033894 0.60738951 0.90168405
0.3944777 0.60122216 0.9633286
0.40331209 0.58432776 1.0108737
0.401512 0.5490154 1.0282745
0.39505836 0.60358953 0.88733482
0.41224185 0.59937489 0.95095843
0.43668023 0.60291672 1.0265906
0.46414366 0.60341221 1.1041116
0.41294661 0.60463327 0.88101661
0.43313354 0.60140777 0.94460183
0.45950752 0.60299695 1.0171614
0.48682812 0.60061955 1.0876307
0.43082017 0.606695 0.87371683
0.4540104 0.60445845 0.93726373
0.480279 0.60313869 1.0047709
0.51062173 0.60173219 1.0762016
0.44660732 0.60583669 0.8624019
0.47281972 0.6045711 0.9269101
0.50207293 0.60425854 0.99337924
0.53646028 0.60480118 1.0667702
0.46447691 0.60689855 0.85508406
0.48954272 0.60176396 0.91254139
0.5228405 0.60340041 0.98097062
0.55710369 0.60105211 1.0483096
0.48026803 0.60704011 0.84378713
0.5083372 0.6028946 0.90120602
0.54155225 0.60260373 0.96560073
0.58290476 0.60415727 1.0368788
0.49603257 0.60520005 0.83145446
0.52715051 0.60400707 0.89087045
0.56436867 0.60470176 0.955208
0.60255617 0.60241139 1.018473
0.51082385 0.60534525 0.82017636
0.5438773 0.60219967 0.87651974
0.57997173 0.600007 0.93482405
0.62525243 0.60261828 1.0020462
0.53176481 0.61034137 0.81587327
0.56371701 0.60529017 0.86720097
0.60177344 0.60312647 0.92346841
