# .PCD v0.7 - Point Cloud Data file format
VERSION 0.7
FIELDS x y z
SIZE 4 4 4
TYPE F F F
COUNT 1 1 1
WIDTH 1377
HEIGHT 1
VIEWPOINT 0 0 0 1 0 0 0
POINTS 1377
DATA ascii
-0.10049186 0.0030269637 -0.033562876
-0.10044263 0.0059902775 -0.031509504
-0.02611593 -0.059798401 0.050936799
-0.095359623 -0.0061522513 -0.024822049
-0.02611593 -0.059798401 0.050936799
-0.02611593 -0.059798401 0.050936799
-0.099326551 0.0068779774 -0.025512308
-0.02611593 -0.059798401 0.050936799
-0.10136848 0.00090427138 -0.026582494
-0.10742956 0.0090148915 -0.031323913
-0.02611593 -0.059798401 0.050936799
-0.10336116 -0.0021061278 -0.025599308
-0.02611593 -0.059798401 0.050936799
-0.02611593 -0.059798401 0.050936799
-0.10835751 0.012963529 -0.028234065
-0.02611593 -0.059798401 0.050936799
-0.11140317 0.0059935772 -0.029303476
-0.11339797 0.012017821 -0.030157451
-0.02611593 -0.059798401 0.050936799
-0.1093187 -0.0011209458 -0.023469221
-0.02611593 -0.059798401 0.050936799
-0.02611593 -0.059798401 0.050936799
-0.11128599 0.011902109 -0.024197068
-0.02611593 -0.059798401 0.050936799
-0.11532755 0.0059355767 -0.025229678
-0.12138472 0.015046024 -0.02995307
-0.02611593 -0.059798401 0.050936799
-0.12337833 0.0070183785 -0.028060317
-0.02611593 -0.059798401 0.050936799
-0.02611593 -0.059798401 0.050936799
-0.12129804 0.017973153 -0.025900371
-0.02611593 -0.059798401 0.050936799
-0.12633942 0.012010209 -0.026914187
-0.13237786 0.021102574 -0.030637931
-0.02611593 -0.059798401 0.050936799
-0.13033174 0.009006992 -0.02589342
-0.02611593 -0.059798401 0.050936799
-0.02611593 -0.059798401 0.050936799
-0.13029549 0.023022696 -0.026640821
-0.02611593 -0.059798401 0.050936799
-0.13733648 0.017066929 -0.027617067
-0.14338973 0.027177207 -0.03232244
-0.02611593 -0.059798401 0.050936799
-0.14232472 0.015067124 -0.026559487
-0.02611593 -0.059798401 0.050936799
-0.02611593 -0.059798401 0.050936799
-0.14330305 0.030104335 -0.028269734
-0.02611593 -0.059798401 0.050936799
-0.14829612 0.022087466 -0.02632061
-0.15132031 0.030151136 -0.029119078
-0.02611593 -0.059798401 0.050936799
-0.1583278 0.023159362 -0.028114006
-0.02611593 -0.059798401 0.050936799
-0.02611593 -0.059798401 0.050936799
-0.15326287 0.035121288 -0.026992086
-0.02611593 -0.059798401 0.050936799
-0.16530988 0.032201052 -0.028819971
-0.16329455 0.036193185 -0.028785478
-0.02611593 -0.059798401 0.050936799
-0.17026854 0.028165404 -0.025799107
-0.02611593 -0.059798401 0.050936799
-0.02611593 -0.059798401 0.050936799
-0.16421856 0.041141655 -0.02567761
-0.02611593 -0.059798401 0.050936799
-0.18127555 0.040257104 -0.028375179
-0.17925626 0.045249082 -0.028322667
-0.02611593 -0.059798401 0.050936799
-0.19124021 0.03925699 -0.026205968
-0.02611593 -0.059798401 0.050936799
-0.02611593 -0.059798401 0.050936799
-0.17617407 0.04716561 -0.024344355
-0.02611593 -0.059798401 0.050936799
-0.20124741 0.051345099 -0.02880083
-0.19723243 0.055330068 -0.028803919
-0.02611593 -0.059798401 0.050936799
-0.2142076 0.051355578 -0.026557218
-0.02611593 -0.059798401 0.050936799
-0.02611593 -0.059798401 0.050936799
-0.20018566 0.062321551 -0.02762175
-0.02611593 -0.059798401 0.050936799
-0.22116704 0.061379008 -0.026245501
-0.2181854 0.06640356 -0.028211113
-0.02611593 -0.059798401 0.050936799
-0.24015176 0.06444668 -0.025834423
-0.02611593 -0.059798401 0.050936799
-0.02611593 -0.059798401 0.050936799
-0.2191242 0.072369941 -0.026084878
-0.02611593 -0.059798401 0.050936799
-0.24911779 0.07749486 -0.026430734
-0.24211121 0.079469398 -0.026526231
-0.02611593 -0.059798401 0.050936799
-0.94263566 0.46892506 -0.2284341
-0.02611593 -0.059798401 0.050936799
-0.02611593 -0.059798401 0.050936799
-0.23602563 0.08237499 -0.022586275
-0.96626973 0.47970188 -0.21079069
-0.96345997 0.50797582 -0.22633715
-0.26801011 0.094523974 -0.023768082
-0.02611593 -0.059798401 0.050936799
-0.97284478 0.48232844 -0.18861257
-0.97404897 0.51163465 -0.20506547
-0.02611593 -0.059798401 0.050936799
-0.94032574 0.54790443 -0.22704822
-0.99645621 0.49408698 -0.16995147
-0.97965074 0.51227617 -0.18394184
-0.97483438 0.53752536 -0.19858025
-0.96401209 0.5597353 -0.21238577
-1.0040125 0.49669921 -0.14675489
-0.99424613 0.51896703 -0.16354063
-0.99146682 0.54425955 -0.18014076
-0.99972492 0.57866234 -0.20037067
-1.0165746 0.50234687 -0.12440995
-1.0048352 0.52262592 -0.14226899
-1.0010748 0.54793292 -0.15988755
-1.0765114 0.62491274 -0.19709533
-1.0301325 0.50899792 -0.10202822
-1.0174161 0.52829164 -0.1209237
-1.0106679 0.55058843 -0.13865273
-1.1311737 0.6559059 -0.184507
-1.0436867 0.51664883 -0.079628453
-1.0369948 0.53899986 -0.10035645
-1.0232675 0.55627233 -0.11830712
-1.1357422 0.6555078 -0.16142085
-1.0592178 0.52528864 -0.056173429
-1.0445696 0.54163009 -0.078159541
-1.0778885 0.58822906 -0.10370146
-1.140292 0.65509158 -0.13733503
-1.0777406 0.53593892 -0.032626003
-1.0601195 0.55028796 -0.055704176
-1.1784884 0.6474368 -0.092743233
-1.1468561 0.65570045 -0.11419326
-1.0932677 0.5455786 -0.0091529712
-1.1206338 0.5851754 -0.03593342
-1.1870031 0.65101618 -0.067510508
-1.1413976 0.64821339 -0.088422142
-1.1177362 0.56021357 0.0165786
-1.228067 0.64826286 -0.016774297
-1.1845245 0.64853907 -0.041592956
-1.1489539 0.65082556 -0.065225571
-1.2739795 0.65039992 0.041143604
-1.2295533 0.64978123 0.010290176
-1.189029 0.65008634 -0.015471771
-1.1495122 0.64839536 -0.041250952
-1.2644501 0.64684355 0.069910601
-1.2310249 0.65028179 0.038336288
-1.1925561 0.65064836 0.0096129477
-1.1550539 0.64998239 -0.017110303
-1.2628994 0.64831501 0.098918021
-1.2245282 0.64777219 0.065178357
-1.1900777 0.64817113 0.035530515
-1.1556083 0.64855206 0.0068823323
-1.2533697 0.64475864 0.12768503
-1.2230191 0.64827996 0.092168428
-1.1895869 0.64870065 0.061539717
-1.1601502 0.65013552 0.03100419
-1.2488236 0.64521956 0.15661806
-1.2205138 0.64778441 0.1191217
-1.1861273 0.64623809 0.086438835
-1.1576942 0.6466766 0.055904076
-1.2413006 0.64468801 0.18447702
-1.2150133 0.64627826 0.14600058
-1.1906238 0.64978498 0.11259605
-1.1592406 0.64724946 0.079951547
-1.2347589 0.64414185 0.21335447
-1.2124854 0.64676434 0.17397153
-1.1821729 0.64530474 0.13736518
-1.1588138 0.64583361 0.10292573
-1.2222633 0.64161068 0.24008378
-1.2040079 0.64426577 0.19977635
-1.1776909 0.64382017 0.1632632
-1.15635 0.64437431 0.12786166
-1.2157363 0.64208251 0.26797956
-1.1945306 0.64176345 0.22556239
-1.1772188 0.64436781 0.18827274
-1.1549009 0.64393663 0.15183473
-1.2092054 0.64355409 0.29589337
-1.1880261 0.64125353 0.25244051
-1.1707597 0.6418944 0.2131155
-1.1554326 0.64348793 0.17684504
-1.1977245 0.64204454 0.32165983
-1.1795634 0.63977277 0.27726367
-1.1652737 0.64140612 0.23901272
-1.1509879 0.64203972 0.20074373
-1.1822522 0.6385209 0.34731513
-1.174055 0.64026624 0.3041786
-1.1598105 0.63993615 0.26389229
-1.1505159 0.6425873 0.22575328
-1.1687757 0.63600427 0.37302598
-1.1625968 0.63777494 0.3289274
-1.1553392 0.64046937 0.28882664
-1.1460754 0.64013916 0.24963395
-1.1573095 0.63551259 0.39781082
-1.1610719 0.64228201 0.35598952
-1.153845 0.64199519 0.3148351
-1.1455994 0.64168656 0.27466151
-1.1458248 0.63500273 0.42359531
-1.1446637 0.63680947 0.378591
-1.1444051 0.63952905 0.33862182
-1.1371633 0.63822424 0.29844901
-1.1313779 0.63451833 0.44732413
-1.143139 0.64131659 0.40565318
-1.1359423 0.63804829 0.36344498
-1.141652 0.64377081 0.32464224
-1.1199119 0.63402665 0.47210896
-1.1287037 0.6378327 0.42932791
-1.1265173 0.63660014 0.38625008
-1.1322386 0.63932317 0.34739327
-1.106465 0.63354588 0.49585652
-1.1162792 0.63637376 0.45207661
-1.1230191 0.63911843 0.41223896
-1.1277674 0.6398564 0.37232766
-1.0890453 0.63106912 0.51849329
-1.1038362 0.63489676 0.47582495
-1.1106026 0.63565993 0.4349516
-1.122319 0.6394043 0.39622557
-1.0746173 0.63060284 0.54122239
-1.0894158 0.63243073 0.49851805
-1.101159 0.63419366 0.45875633
-1.1109061 0.63494951 0.41893899
-1.060208 0.63015467 0.56295186
-1.0789832 0.63297868 0.52134037
-1.0937028 0.63573408 0.48265269
-1.1014625 0.63348317 0.44274372
-1.0438029 0.62869942 0.58462572
-1.0665361 0.63250142 0.54510677
-1.0852551 0.63527119 0.50649428
-1.0979869 0.6350199 0.46771494
-1.0293709 0.62923294 0.60737288
-1.0521306 0.63105339 0.56681824
-1.0688806 0.63083452 0.52711439
-1.0935117 0.63655299 0.49266735
-1.0159348 0.63076997 0.63015687
-1.042675 0.63258666 0.59067702
-1.0614059 0.63235688 0.55201048
-1.0810951 0.63309437 0.51538002
-0.99954456 0.63033265 0.6508491
-1.0243157 0.6291607 0.61027795
-1.0519543 0.63289028 0.5758512
-1.0706702 0.63164258 0.53816628
-0.98119605 0.62892443 0.66948646
-1.0138751 0.63170832 0.63313627
-1.0395446 0.63244933 0.59761828
-1.0632184 0.63218313 0.56204462
-0.96284753 0.62751639 0.68812376
-0.99453467 0.62829691 0.6517188
-1.0280932 0.63297546 0.6214214
-1.0537705 0.63171673 0.5858674
-0.9435032 0.6251049 0.70672423
-0.98407924 0.62982661 0.67555881
-1.0097566 0.62856781 0.64000475
-1.0443228 0.63125032 0.60969013
-0.92417359 0.62371123 0.72434306
-0.96673054 0.62842196 0.69421482
-1.0003197 0.63011914 0.66286379
-1.0328943 0.63079476 0.63247567
-0.90583986 0.62332106 0.74199879
-0.95035905 0.62800282 0.71390748
-0.98591036 0.62967092 0.68459326
-1.0244198 0.63231355 0.65735286
-0.89143741 0.62589037 0.76278263
-0.93596447 0.62857252 0.73465526
-0.97447795 0.63021529 0.70739686
-1.0100371 0.62988377 0.67804664
-0.86917245 0.62254059 0.77731013
-0.91566169 0.62519377 0.75121969
-0.95317912 0.62583309 0.7239244
-0.9966315 0.62843925 0.69977689
-0.85967463 0.63005471 0.80227667
-0.89733189 0.62380379 0.7688573
-0.94174266 0.62737715 0.74674594
-0.98320323 0.62797654 0.72252476
-0.8276301 0.6188513 0.80647546
-0.88195229 0.62538779 0.78860474
-0.92242092 0.62398392 0.76432878
-0.96979368 0.62753189 0.74427307
-0.81224656 0.62143517 0.8262409
-0.8645997 0.62498307 0.80727887
-0.90902227 0.62555707 0.78511339
-0.95538831 0.62608385 0.76598454
-0.79490089 0.62404805 0.8439694
-0.84824294 0.62558174 0.82598978
-0.89363182 0.62512332 0.80582446
-0.93902075 0.6246649 0.78565907
-0.77366912 0.6217379 0.85653436
-0.82795101 0.62422079 0.84159052
-0.87923336 0.62669283 0.8265903
-0.92461139 0.62421668 0.80738854
-0.75339198 0.62139481 0.87115347
-0.809636 0.62384862 0.85824651
-0.85990769 0.62429941 0.84419107
-0.91215634 0.6257391 0.831191
-0.73508787 0.62304038 0.88684583
-0.79034382 0.62249124 0.87386608
-0.8406195 0.62194216 0.85979265
-0.89281195 0.62332755 0.84979153
-0.71580654 0.62370068 0.90150177
-0.77202493 0.62311888 0.89054012
-0.82226706 0.62153393 0.87844801
-0.87642169 0.62289029 0.87048376
-0.68970382 0.61748177 0.90790272
-0.75370598 0.62374657 0.90721411
-0.80295223 0.62115824 0.89508522
-0.85807323 0.62148219 0.88912106
-0.6733501 0.62209791 0.92568612
-0.73145181 0.62241459 0.92077792
-0.78462249 0.61976814 0.91272283
-0.84070188 0.62105942 0.90879482
-0.6550234 0.62472528 0.9423961
-0.71217448 0.62207502 0.93541592
-0.76826179 0.62136668 0.93145174
-0.8213762 0.61866599 0.92639565
-0.63477975 0.62541819 0.9550339
-0.69093889 0.62076473 0.94799882
-0.74894696 0.62099093 0.948089
-0.80691373 0.62218088 0.95019656
-0.60775203 0.61926806 0.95741749
-0.66776764 0.6175018 0.95750922
-0.72667414 0.61964089 0.9626525
-0.78758413 0.62078726 0.9678154
-0.58463705 0.61605936 0.96392882
-0.65235758 0.62206721 0.97831035
-0.70735532 0.62026501 0.97930777
-0.76531518 0.61843729 0.98236084
-0.56052208 0.61284709 0.97042149
-0.62624699 0.61784798 0.98474735
-0.68612367 0.61795479 0.99187273
-0.74402726 0.61607277 0.9979248
-0.54416049 0.61946291 0.98824084
-0.60793889 0.62049347 1.0004578
-0.66775942 0.62054592 1.0105821
-0.72658801 0.6185953 1.0206516
-0.52010572 0.61530507 0.9917165
-0.58285087 0.61529601 1.0058959
-0.6435923 0.61627966 1.0200557
-0.70527351 0.6182124 1.0372514
-0.50083536 0.61798316 1.0054088
-0.56258446 0.61697066 1.0195513
-0.6232698 0.61790001 1.0367101
-0.68302333 0.61588055 1.0507971
-0.47870827 0.61777759 1.0119929
-0.54231817 0.61864531 1.0332067
-0.59909874 0.6146335 1.0462017
-0.66168624 0.61647934 1.0684144
-0.45754361 0.61753947 1.0205953
-0.51916176 0.6164003 1.0417355
-0.57781792 0.61528659 1.0608201
-0.64037174 0.6160965 1.0850141
-0.43446207 0.61536676 1.0251254
-0.49699727 0.61615855 1.0503191
-0.55560112 0.61399072 1.0723846
-0.61903471 0.61669534 1.1026313
-0.41039941 0.61320859 1.0286371
-0.47194266 0.61199719 1.0537759
-0.53333521 0.61565822 1.0860025
-0.5957768 0.61635965 1.1161946
-0.39118516 0.61594093 1.0393302
-0.45169112 0.61468971 1.0664498
-0.50726599 0.6104753 1.0904222
-0.57056451 0.61405313 1.1276846
-0.36718652 0.61183739 1.039807
-0.42950401 0.6154297 1.076051
-0.48406419 0.61019379 1.1009864
-0.54634815 0.61275005 1.1392115
-0.34790432 0.61751497 1.0535533
-0.40634367 0.6141845 1.0845977
-0.46086249 0.60991228 1.1115502
-0.5211547 0.61046177 1.1497021
-0.32394314 0.61344755 1.0520306
-0.38323942 0.61299354 1.0901455
-0.43861526 0.61159778 1.1241685
-0.49783275 0.61207128 1.1663001
-0.30278936 0.6152271 1.0596693
-0.36008996 0.61376613 1.0977286
-0.41539088 0.61229801 1.1357503
-0.47167683 0.60981554 1.1747725
-0.28073719 0.61509395 1.0622549
-0.33700442 0.61259335 1.1022767
-0.38935518 0.60815114 1.1381887
-0.44743782 0.60949427 1.1873171
-0.25773448 0.61199379 1.0627683
-0.31291914 0.611417 1.106806
-0.36708528 0.61081839 1.1518246
-0.42219117 0.61116904 1.1998789
-0.235705 0.61087883 1.0643362
-0.28982976 0.61124396 1.1113721
-0.34104177 0.60867119 1.154299
-0.39511824 0.60698235 1.2042978
-0.21458471 0.61369449 1.0699936
-0.26672164 0.61105287 1.116938
-0.31591919 0.60745496 1.1608088
-0.36989418 0.60767537 1.215842
-0.19166082 0.60966682 1.0664904
-0.24363221 0.6108799 1.1215041
-0.29085672 0.60529333 1.1643016
-0.34273061 0.60741568 1.2243316
-0.17062721 0.60955524 1.0680951
-0.21960706 0.60875791 1.1230164
-0.26670739 0.60606229 1.1718659
-0.31752533 0.60812688 1.2348762
-0.14940152 0.61527997 1.078805
-0.19557399 0.6086356 1.1245646
-0.24158093 0.60584593 1.1783937
-0.29038048 0.60788524 1.2423661
-0.12651506 0.61128849 1.0733024
-0.17341644 0.61141139 1.1322026
-0.21732229 0.61052376 1.1910285
-0.26227719 0.60667634 1.2478198
-0.10537213 0.61508584 1.0799774
-0.15028174 0.61320192 1.1388041
-0.19046311 0.60453647 1.1844152
-0.23515107 0.60645282 1.2543101
-0.083508141 0.6101163 1.073476
-0.12537691 0.60918528 1.1342638
-0.16628724 0.60728699 1.1930152
-0.2080476 0.60524762 1.2597827
-0.062553354 0.60907722 1.071064
-0.10234367 0.60906655 1.1358308
-0.14030376 0.60419422 1.1924726
-0.1800005 0.60409302 1.2622377
-0.041429147 0.61289269 1.0767395
-0.07830669 0.60994405 1.1373971
-0.11512807 0.6069411 1.2010539
-0.15191199 0.6039021 1.2667098
-0.019538572 0.60990465 1.0712737
-0.055337474 0.60787988 1.1359292
-0.090049893 0.60877872 1.2046187
-0.1238836 0.60276562 1.2681649
0.00035237521 0.60692388 1.0658455
-0.031364515 0.60681206 1.1344606
-0.063269556 0.60186386 1.1939886
-0.09577246 0.60355639 1.2736548
0.022374928 0.6088264 1.0664679
-0.0083647985 0.60772932 1.1340464
-0.038131289 0.6046471 1.2005706
-0.067744069 0.60241991 1.2751099
0.043228243 0.60587823 1.0590216
0.014608342 0.60666502 1.1325967
-0.012286741 0.5996812 1.1929942
-0.039753117 0.60131955 1.2745658
0.064273626 0.60876608 1.0606804
0.037608065 0.60758227 1.1321825
0.012772707 0.60153687 1.1955596
-0.010781072 0.60023367 1.2730032
0.084104478 0.60483974 1.0522352
0.060502388 0.60559058 1.126716
0.037809502 0.60241085 1.1971071
0.016402129 0.60497314 1.2815828
0.10510848 0.60676408 1.0518767
0.084543295 0.60746789 1.1283004
0.063872695 0.6052627 1.1996716
0.044310335 0.60194558 1.2770041
0.12492062 0.60285574 1.0424318
0.10739625 0.60451251 1.1208163
0.088533208 0.59646398 1.183045
0.073244929 0.60089588 1.2734421
0.14594728 0.60576183 1.0430909
0.13029841 0.60452044 1.115386
0.11576564 0.60416675 1.1936783
0.092401035 0.55342072 1.1841943
0.1658047 0.60381699 1.0356815
0.15327942 0.60545582 1.1139721
0.14174609 0.60509127 1.1922081
0.13009557 0.5988183 1.2653375
0.18568479 0.60285389 1.0292897
0.17613631 0.60350019 1.1065063
0.16662526 0.6041103 1.1857224
0.15807565 0.59973568 1.2638297
0.20774175 0.60873777 1.0309837
0.19910249 0.60545349 1.1041107
0.19258696 0.60505301 1.1832523
0.18710086 0.60261309 1.2643385
0.22655407 0.60483307 1.0215576
0.22091818 0.60253781 1.0946465
0.21742477 0.60310835 1.1747494
0.213893 0.59869772 1.2537625
0.24431041 0.60098624 1.0091515
0.24171534 0.59964389 1.0842012
0.24122137 0.60020357 1.1642476
0.24175288 0.59772402 1.2462207
0.26632211 0.60490656 1.00881
0.26570401 0.6025753 1.0828046
0.26720968 0.6031279 1.1628134
0.26963541 0.59773213 1.2396966
0.28622875 0.60592508 1.003454
0.28754625 0.60164124 1.0743759
0.28992373 0.59829944 1.1482959
0.29643539 0.59581643 1.2291566
0.30507153 0.60500175 0.99508172
0.30945256 0.60265249 1.0689821
0.316897 0.602238 1.1458614
0.32325801 0.59488249 1.2196343
0.32495952 0.60603839 0.9887259
0.33236262 0.60466021 1.0635877
0.33861518 0.59841299 1.1313807
0.35220832 0.5978322 1.2161443
0.3427611 0.60415494 0.97835505
0.35314494 0.60278404 1.0521609
0.36454728 0.60139149 1.1269475
0.37897483 0.5969525 1.2036231
0.36058539 0.6032533 0.96900183
0.37501377 0.60383153 1.0447679
0.38943434 0.6024102 1.1204978
0.40584272 0.59798211 1.1961361
0.37836829 0.60138804 0.95763129
0.39584142 0.60391903 1.0353763
0.41009256 0.59764314 1.1030189
0.43371439 0.60000783 1.1886483
0.39827883 0.60340637 0.95229328
0.40821847 0.58941752 1.0048718
0.40130997 0.55021417 1.0172963
0.40268266 0.52074522 1.0427462
0.41295692 0.59864283 0.93592668
0.43745536 0.60313016 1.0145758
0.45666811 0.59687257 1.0801252
0.48416904 0.59733188 1.1596456
0.43387127 0.60165745 0.93058783
0.45826429 0.60323572 1.0041846
0.48049918 0.59794909 1.0706953
0.51098078 0.59841567 1.1491596
0.45483088 0.60663545 0.92728436
0.47907323 0.60334122 0.99379343
0.50325155 0.59810168 1.0572674
0.53568751 0.59659761 1.1336589
0.47057274 0.60381371 0.91393405
0.49886364 0.60346842 0.9824214
0.52606404 0.59919989 1.0468566
0.56044352 0.59774286 1.1202115
0.48838225 0.60393 0.90359926
0.51759011 0.60165387 0.96803302
0.55089879 0.60127258 1.037426
0.58619922 0.59888452 1.1067454
0.50619173 0.60404623 0.89326435
0.53633934 0.60082102 0.95466238
0.57161421 0.60146856 1.0220366
0.60987264 0.59810615 1.0892822
0.5198552 0.60030425 0.87593496
0.55509245 0.60098803 0.94130975
0.59543037 0.60356301 1.0116249
0.63462859 0.59925139 1.0758349
0.53664619 0.60044217 0.86461926
0.57281923 0.599177 0.92694026
0.61303693 0.59986091 0.99122143
0.65830201 0.59847289 1.0583715
0.55859071 0.60643458 0.86031538
0.59774858 0.60617656 0.92159832
0.63683838 0.60297316 0.9798283
0.67996097 0.5987196 1.0399643
0.5753817 0.60657251 0.84899962
0.61134803 0.60048908 0.90123391
0.65857613 0.60414732 0.96543759
0.69953364 0.59604621 1.0175419
0.5870229 0.60185593 0.83069015
0.62701893 0.59873945 0.88390303
0.67210072 0.59853226 0.94107455
0.72427875 0.59920925 1.0031309
0.60894877 0.60786641 0.82538652
0.64681715 0.60086632 0.87256694
0.69386107 0.6006881 0.92770165
0.7490238 0.60237223 0.98871994
0.61854899 0.6021933 0.80509734
0.66657794 0.60302937 0.85923159
0.71149427 0.59896755 0.90833384
0.76757795 0.59972066 0.96531671
0.63636631 0.60430926 0.79479855
0.68429381 0.60323614 0.84389842
0.73117626 0.60020304 0.89098173
0.79024452 0.60196334 0.94692659
0.65210122 0.60450512 0.78050262
0.69996864 0.60248643 0.82658553
0.74985451 0.60044241 0.87363046
0.81088895 0.60323149 0.92755646
0.66376901 0.60177004 0.76322883
0.71566617 0.60271841 0.81029028
0.76547319 0.59974694 0.85331863
0.82744735 0.60158688 0.90420878
0.67850024 0.60096961 0.74893367
0.73238218 0.60292876 0.79497594
0.78413266 0.60000437 0.83496767
0.84500945 0.6009385 0.88086039
0.6942578 0.60214722 0.73565543
0.7470386 0.60220069 0.7766822
0.80179632 0.60126519 0.81665355
0.86259043 0.600272 0.85851157
0.70901567 0.60332829 0.72239602
0.76373976 0.6034289 0.76038623
0.82148218 0.6035006 0.79931951
0.88120157 0.60258335 0.83719772
0.72473568 0.60454214 0.70711851
0.77635515 0.60174435 0.7401126
0.8330189 0.60089219 0.77504814
0.89876372 0.60193503 0.81384927
0.73949349 0.60572326 0.6938591
0.79205656 0.6029762 0.72383541
0.84764171 0.6012001 0.75477308
0.91737884 0.60524607 0.79255342
0.75421381 0.60694057 0.67860031
0.80671686 0.603248 0.70555967
0.86630905 0.60345721 0.73645818
0.92783695 0.60171384 0.76428413
0.76690793 0.60618353 0.6623435
0.82037729 0.60352331 0.68730271
0.87788713 0.60181248 0.71420413
0.94340336 0.60207248 0.74099129
0.77958339 0.60544455 0.64508688
0.8350414 0.60479492 0.66904491
0.89349496 0.60313469 0.69292861
0.96201849 0.60538363 0.71969545
0.79125905 0.60470915 0.62784916
0.84870183 0.60507029 0.65078795
0.90710312 0.60446417 0.6716907
0.97655159 0.60678184 0.69444001
0.80091232 0.60299915 0.6096313
0.86134374 0.60536736 0.63155013
0.92373335 0.60676461 0.65141404
0.98806262 0.60720909 0.66822338
0.81665897 0.60619456 0.59538943
0.87092215 0.60372972 0.60933369
0.93227452 0.60516679 0.62721705
0.99856597 0.60564035 0.64198947
0.82529378 0.60450625 0.57619071
0.8855902 0.60600114 0.59109396
0.94686383 0.6065107 0.60496068
1.0110996 0.60704571 0.6167717
0.83697331 0.60477072 0.55897105
0.89925849 0.60827613 0.572873
0.95642745 0.60589105 0.58176255
1.0236329 0.60845107 0.59155387
0.85066026 0.60702765 0.54174978
0.90783709 0.60664225 0.55067533
0.96799856 0.60726386 0.55856282
1.0341442 0.60888189 0.56535602
0.86133999 0.60729569 0.52454883
0.92351294 0.61090964 0.53245282
0.97858459 0.60762233 0.5363636
1.0406108 0.60736364 0.53719789
0.87300473 0.60857803 0.50634748
0.93008792 0.60828304 0.51027471
0.98713362 0.60802418 0.51220262
1.0521524 0.61077231 0.51203501
0.885692 0.61083853 0.48914498
0.94272292 0.61159766 0.49009126
0.99970853 0.61039323 0.48900217
1.0636672 0.61219943 0.4858363
0.8912859 0.60819745 0.4679853
0.95132411 0.61094534 0.46891123
1.0082803 0.61177683 0.46585888
1.0661347 0.61069542 0.45775339
0.90295064 0.60947973 0.44978398
0.96091044 0.61130738 0.44673079
1.0158068 0.61120045 0.44069901
1.0726278 0.61115867 0.43063104
0.90856725 0.60782033 0.42964193
0.9695195 0.61265486 0.42558682
1.0213337 0.61063135 0.41557676
1.0801249 0.61261821 0.40350786
0.91923207 0.60910636 0.41145936
0.97710615 0.61302406 0.40344393
1.0288868 0.61203659 0.39145255
1.0846144 0.6120888 0.37640503
0.92785597 0.60943586 0.39129698
0.9866963 0.61438602 0.38128155
1.0374435 0.61443812 0.3673276
1.0901117 0.61355555 0.34931946
0.94153214 0.61371046 0.37311214
0.99731296 0.61772585 0.360136
1.0449966 0.61584342 0.34320346
1.0915833 0.61305505 0.32127336
0.95015997 0.61503983 0.3529678
1.0028774 0.61712056 0.33701304
1.0525538 0.6182484 0.31909728
1.0970844 0.61552161 0.29420578
0.95475805 0.61340201 0.33184493
1.0004088 0.61256272 0.31296864
1.0540587 0.61671197 0.29303247
1.0985746 0.61500299 0.26715934
0.96438956 0.61572766 0.31169984
1.013014 0.61791313 0.29082191
1.0605973 0.61913866 0.26794547
1.09905 0.61550593 0.23915003
0.96899158 0.61508971 0.290595
1.0145752 0.61632246 0.2677561
1.0591028 0.61761296 0.24193703
1.094515 0.61302727 0.21118063
0.97459733 0.615448 0.26948938
1.0201473 0.61771679 0.24466917
1.0586269 0.6160655 0.21690947
1.0950093 0.61351204 0.18417099
0.98422885 0.61777359 0.24934427
1.0206901 0.61614758 0.22062248
1.005885 0.58285481 0.18428512
0.65970749 0.35341322 0.11559284
0.9878124 0.61715734 0.22725856
0.7156828 0.4174993 0.15471734
0.61672044 0.34051552 0.11916557
0.64233428 0.34380159 0.097738199
0.64150673 0.38382494 0.15249623
0.61690253 0.3533867 0.12639745
0.61040235 0.33582729 0.10319366
0.63802761 0.34210566 0.081782743
0.59800363 0.35436428 0.13177079
0.60356605 0.34372446 0.11046697
0.6000998 0.33013555 0.088278532
0.60263324 0.32154238 0.065067783
0.57864863 0.33972439 0.11586295
0.59125608 0.3360402 0.095553383
0.58779365 0.32345116 0.073382974
-0.02611593 -0.059798401 0.050936799
0.58242714 0.34092698 0.10380988
0.58497542 0.33131585 0.08158078
0.58252066 0.32072285 0.059427612
0.6101203 0.33003688 0.036071438
0.56712461 0.3302359 0.089898273
0.57769883 0.32759491 0.067644984
0.58328098 0.32195425 0.046431247
-0.02611593 -0.059798401 0.050936799
0.57289177 0.33344901 0.076843992
0.58044016 0.32883719 0.053611375
0.5890187 0.32720321 0.031413678
0.59856361 0.32660162 0.007215891
0.58868474 0.34362504 0.063727945
0.57520455 0.32607275 0.041655343
0.58374965 0.32547474 0.017476344
-0.02611593 -0.059798401 0.050936799
0.57340091 0.3329159 0.050816
0.57794976 0.32831484 0.02763975
0.59150964 0.33169827 0.0034388714
0.60201001 0.33414686 -0.023722637
-0.02611593 -0.059798401 0.050936799
0.56868833 0.32358316 0.014723174
0.59023291 0.332973 -0.011519235
0.59674484 0.33341819 -0.037641957
0.56791806 0.32938677 0.025846355
0.57344103 0.3278178 0.00070604309
0.58997476 0.3342261 -0.025496468
0.61045235 0.3456915 -0.0556827
0.57068199 0.33161083 0.012830418
0.57420534 0.33004904 -0.012272302
0.60171223 0.34447074 -0.04153635
0.74701715 0.43692601 -0.09760344
0.59445959 0.34779328 -0.0023271702
0.59195352 0.34327167 -0.028370872
0.61343098 0.3547335 -0.058575891
0.75367671 0.44626111 -0.11756603
0.59119016 0.34605765 -0.016302086
0.5936802 0.34553543 -0.043367334
0.7300272 0.43396941 -0.096338384
0.76031762 0.45561436 -0.13852827
0.57595164 0.33731201 -0.027178675
0.60842502 0.35776904 -0.059427537
0.75866288 0.45729563 -0.12046073
0.76395124 0.46297869 -0.15947017
0.60669148 0.35852277 -0.045376688
0.72301763 0.4360123 -0.097170487
0.76231128 0.463642 -0.14042103
0.76458132 0.46935397 -0.18037374
0.60541081 0.3587977 -0.060352817
0.75764525 0.46233454 -0.12235118
0.76594478 0.47100627 -0.16136295
0.76822281 0.47871792 -0.20127961
0.72102195 0.43701932 -0.097114891
0.75930095 0.46567047 -0.14132829
0.76560479 0.47534928 -0.18028443
0.21595633 0.10678457 -0.032610446
0.75863814 0.46534848 -0.12331559
0.76395303 0.47301313 -0.16128932
0.77321595 0.48673481 -0.20322876
0.19592766 0.093840465 -0.031469211
0.76229739 0.46967715 -0.14231223
0.76758265 0.47937763 -0.18224925
0.21098292 0.10376684 -0.030571222
-0.02611593 -0.059798401 0.050936799
0.76596051 0.47500557 -0.16129087
0.76423925 0.48273164 -0.20113239
0.19693533 0.095836535 -0.031451963
0.16986263 0.080954075 -0.03221456
0.76360911 0.47635639 -0.18022883
0.20600948 0.10074911 -0.028532006
-0.02611593 -0.059798401 0.050936799
-0.02611593 -0.059798401 0.050936799
0.77124983 0.485706 -0.20120986
0.19893889 0.096829198 -0.031471524
0.17683962 0.084964447 -0.034273341
0.1408534 0.063006945 -0.028994981
0.20801303 0.10174177 -0.028551567
-0.02611593 -0.059798401 0.050936799
-0.02611593 -0.059798401 0.050936799
-0.02611593 -0.059798401 0.050936799
0.19396153 0.092811622 -0.029450327
0.17385103 0.082957461 -0.033253338
0.14880061 0.069049574 -0.033035833
0.12380245 0.054087579 -0.02983737
-0.02611593 -0.059798401 0.050936799
-0.02611593 -0.059798401 0.050936799
-0.02611593 -0.059798401 0.050936799
-0.02611593 -0.059798401 0.050936799
0.16688493 0.076929353 -0.030230936
0.15178528 0.070056714 -0.034073856
0.13373449 0.061140943 -0.034897458
0.10578519 0.044135794 -0.028679665
-0.02611593 -0.059798401 0.050936799
-0.02611593 -0.059798401 0.050936799
-0.02611593 -0.059798401 0.050936799
-0.02611593 -0.059798401 0.050936799
0.14684144 0.065003164 -0.030071348
0.12977569 0.057101708 -0.031895384
0.11274738 0.04916409 -0.031720094
0.095733859 0.040208537 -0.030563153
-0.02611593 -0.059798401 0.050936799
-0.02611593 -0.059798401 0.050936799
-0.02611593 -0.059798401 0.050936799
-0.02611593 -0.059798401 0.050936799
0.12978655 0.055083964 -0.030931756
0.11970171 0.052192725 -0.034796555
0.098718517 0.041215699 -0.031601172
0.08174637 0.033223797 -0.028426893
-0.02611593 -0.059798401 0.050936799
-0.02611593 -0.059798401 0.050936799
-0.02611593 -0.059798401 0.050936799
-0.02611593 -0.059798401 0.050936799
0.11176536 0.044132352 -0.02979207
0.103688 0.043233588 -0.033658404
0.089667 0.037284851 -0.03350345
0.072694868 0.029292952 -0.030329175
-0.02611593 -0.059798401 0.050936799
-0.02611593 -0.059798401 0.050936799
-0.02611593 -0.059798401 0.050936799
-0.02611593 -0.059798401 0.050936799
-0.02611593 -0.059798401 0.050936799
0.091666639 0.037277676 -0.033541031
0.076679341 0.030296523 -0.031385984
0.062710583 0.023293687 -0.028250057
-0.02611593 -0.059798401 0.050936799
-0.02611593 -0.059798401 0.050936799
-0.02611593 -0.059798401 0.050936799
-0.02611593 -0.059798401 0.050936799
0.0837451 0.028199377 -0.027554907
0.079645269 0.031321764 -0.033423655
0.068631567 0.027361922 -0.033289034
0.05273021 0.018294252 -0.02615292
-0.02611593 -0.059798401 0.050936799
-0.02611593 -0.059798401 0.050936799
-0.02611593 -0.059798401 0.050936799
-0.02611593 -0.059798401 0.050936799
0.075693399 0.02426495 -0.02947598
0.068642437 0.025344171 -0.032325406
0.058651213 0.02236248 -0.0311919
0.048659973 0.019380793 -0.030058388
-0.02611593 -0.059798401 0.050936799
-0.02611593 -0.059798401 0.050936799
-0.02611593 -0.059798401 0.050936799
-0.02611593 -0.059798401 0.050936799
0.064694494 0.019287195 -0.028359715
0.062598243 0.023402222 -0.034248028
0.050636962 0.018391876 -0.031113651
0.038694412 0.013363433 -0.02697961
-0.02611593 -0.059798401 0.050936799
-0.02611593 -0.059798401 0.050936799
-0.02611593 -0.059798401 0.050936799
-0.02611593 -0.059798401 0.050936799
0.055695228 0.014302252 -0.027281035
0.053598974 0.018417286 -0.03316934
0.045596506 0.01744616 -0.033037037
0.035661444 0.014410208 -0.028904542
-0.02611593 -0.059798401 0.050936799
-0.02611593 -0.059798401 0.050936799
-0.02611593 -0.059798401 0.050936799
-0.02611593 -0.059798401 0.050936799
0.05262088 0.014385375 -0.031223308
0.045607373 0.015428417 -0.032073408
0.037638426 0.013421289 -0.029959798
0.02671442 0.0083711762 -0.024844892
-0.02611593 -0.059798401 0.050936799
-0.02611593 -0.059798401 0.050936799
-0.02611593 -0.059798401 0.050936799
-0.02611593 -0.059798401 0.050936799
0.042655323 0.0083680199 -0.028144524
0.040581714 0.013464789 -0.033015154
0.033582997 0.013489911 -0.032883622
0.022662908 0.0094396295 -0.027750697
-0.02611593 -0.059798401 0.050936799
-0.02611593 -0.059798401 0.050936799
-0.02611593 -0.059798401 0.050936799
-0.02611593 -0.059798401 0.050936799
0.034678519 0.0043612309 -0.026066951
0.032586187 0.0094760964 -0.031937242
0.026609939 0.010479364 -0.030806828
0.019626006 0.0094865737 -0.029693644
-0.02611593 -0.059798401 0.050936799
-0.02611593 -0.059798401 0.050936799
-0.02611593 -0.059798401 0.050936799
-0.02611593 -0.059798401 0.050936799
0.030637875 0.0034119338 -0.028009132
0.028549474 0.0095266299 -0.033861414
0.020603178 0.0085012438 -0.030730117
0.0136567 0.0074722678 -0.027617618
-0.02611593 -0.059798401 0.050936799
-0.02611593 -0.059798401 0.050936799
-0.02611593 -0.059798401 0.050936799
-0.02611593 -0.059798401 0.050936799
0.025616143 0.0024481369 -0.028932858
0.02060619 0.004483832 -0.029802527
0.017566286 0.008548189 -0.032673065
0.0096347835 0.0065048747 -0.028560136
-0.02611593 -0.059798401 0.050936799
-0.02611593 -0.059798401 0.050936799
-0.02611593 -0.059798401 0.050936799
-0.02611593 -0.059798401 0.050936799
0.019628106 0.0004519237 -0.027856492
0.018524723 0.0075809471 -0.0347092
0.013533495 0.0095985532 -0.034579214
0.0056167906 0.0065373196 -0.029484633
-0.02611593 -0.059798401 0.050936799
-0.02611593 -0.059798401 0.050936799
-0.02611593 -0.059798401 0.050936799
-0.02611593 -0.059798401 0.050936799
0.014621168 -0.0015297929 -0.027798574
0.012532761 0.0045848992 -0.033650856
0.0075563295 0.0055845855 -0.032539219
0.0025838208 0.0075841025 -0.031409558
-0.02611593 -0.059798401 0.050936799
-0.02611593 -0.059798401 0.050936799
-0.02611593 -0.059798401 0.050936799
-0.02611593 -0.059798401 0.050936799
-0.02611593 -0.059798401 0.050936799
0.0075484747 0.0035849242 -0.032575253
0.0035422668 0.0066168536 -0.033445701
-0.0033519738 0.0045337877 -0.027352236
-0.02611593 -0.059798401 0.050936799
-0.02611593 -0.059798401 0.050936799
-0.02611593 -0.059798401 0.050936799
-0.02611593 -0.059798401 0.050936799
-0.02611593 -0.059798401 0.050936799
0.0035265554 0.0026175384 -0.033517774
-0.00046092842 0.0056313858 -0.033388559
-0.0063701472 0.0045626434 -0.028295524
-0.02611593 -0.059798401 0.050936799
-0.02611593 -0.059798401 0.050936799
-0.02611593 -0.059798401 0.050936799
-0.02611593 -0.059798401 0.050936799
-0.02611593 -0.059798401 0.050936799
0.00047486462 0.0036824029 -0.036442362
-0.0054304241 0.0036134911 -0.031331308
-0.010399003 0.0066128313 -0.030183651
-0.02611593 -0.059798401 0.050936799
-0.02611593 -0.059798401 0.050936799
-0.02611593 -0.059798401 0.050936799
-0.02611593 -0.059798401 0.050936799
-0.0024210224 -0.0034322646 -0.029514492
-0.0054422072 0.00061400281 -0.031385366
-0.0084781907 0.0056781862 -0.034237895
-0.014383477 0.0056092744 -0.029126842
-0.02611593 -0.059798401 0.050936799
-0.02611593 -0.059798401 0.050936799
-0.02611593 -0.059798401 0.050936799
-0.02611593 -0.059798401 0.050936799
-0.02611593 -0.059798401 0.050936799
-0.0085234903 0.003714703 -0.036273248
-0.012510974 0.0067285434 -0.036144033
-0.017401652 0.0056381305 -0.030070134
-0.02611593 -0.059798401 0.050936799
-0.02611593 -0.059798401 0.050936799
-0.02611593 -0.059798401 0.050936799
-0.02611593 -0.059798401 0.050936799
-0.02611593 -0.059798401 0.050936799
-0.013463395 -0.00033903122 -0.032252729
-0.016514171 0.0057430761 -0.036086891
-0.021445304 0.0087062456 -0.0329399
-0.02611593 -0.059798401 0.050936799
-0.02611593 -0.059798401 0.050936799
-0.02611593 -0.059798401 0.050936799
-0.02611593 -0.059798401 0.050936799
-0.02611593 -0.059798401 0.050936799
-0.017458733 0.00067515887 -0.032159545
-0.020475993 0.0057212533 -0.034012407
-0.025400188 0.0056668418 -0.029919811
-0.02611593 -0.059798401 0.050936799
-0.02611593 -0.059798401 0.050936799
-0.02611593 -0.059798401 0.050936799
-0.02611593 -0.059798401 0.050936799
-0.02611593 -0.059798401 0.050936799
-0.021476725 0.00070760358 -0.03308405
-0.024475262 0.0057356092 -0.033937246
-0.027395893 0.0066738427 -0.029864211
-0.02611593 -0.059798401 0.050936799
-0.02611593 -0.059798401 0.050936799
-0.02611593 -0.059798401 0.050936799
-0.02611593 -0.059798401 0.050936799
-0.02611593 -0.059798401 0.050936799
-0.025475994 0.00072195928 -0.033008888
-0.027474713 0.0057463758 -0.033880875
-0.03137644 0.0066701095 -0.028789382
-0.02611593 -0.059798401 0.050936799
-0.02611593 -0.059798401 0.050936799
-0.02611593 -0.059798401 0.050936799
-0.02611593 -0.059798401 0.050936799
-0.02611593 -0.059798401 0.050936799
-0.028475445 0.00073272601 -0.032952517
-0.031522293 0.0078146597 -0.03676866
-0.034375891 0.006680876 -0.028733011
-0.02611593 -0.059798401 0.050936799
-0.02611593 -0.059798401 0.050936799
-0.02611593 -0.059798401 0.050936799
-0.02611593 -0.059798401 0.050936799
-0.02611593 -0.059798401 0.050936799
-0.032474712 0.00074708165 -0.032877356
-0.03553243 0.0098467665 -0.037657123
-0.038356435 0.0066771423 -0.027658187
-0.02611593 -0.059798401 0.050936799
-0.02611593 -0.059798401 0.050936799
-0.02611593 -0.059798401 0.050936799
-0.02611593 -0.059798401 0.050936799
-0.02611593 -0.059798401 0.050936799
-0.036455255 0.00074334827 -0.031802528
-0.039453793 0.0057713538 -0.032655727
-0.041351959 0.0076877475 -0.027583797
-0.02611593 -0.059798401 0.050936799
-0.02611593 -0.059798401 0.050936799
-0.02611593 -0.059798401 0.050936799
-0.02611593 -0.059798401 0.050936799
-0.02611593 -0.059798401 0.050936799
-0.03945471 0.000754115 -0.031746153
-0.044526853 0.01087889 -0.037469987
-0.045347299 0.0087019335 -0.027490616
-0.02611593 -0.059798401 0.050936799
-0.02611593 -0.059798401 0.050936799
-0.02611593 -0.059798401 0.050936799
-0.02611593 -0.059798401 0.050936799
-0.02611593 -0.059798401 0.050936799
-0.044498179 0.0038258149 -0.034597129
-0.047444474 0.0077997264 -0.032469366
-0.048298433 0.0066587646 -0.024471298
-0.02611593 -0.059798401 0.050936799
-0.02611593 -0.059798401 0.050936799
-0.02611593 -0.059798401 0.050936799
-0.02611593 -0.059798401 0.050936799
-0.02611593 -0.059798401 0.050936799
-0.048460003 0.0038039926 -0.032522649
-0.052502736 0.011889342 -0.036301985
-0.053367574 0.012766139 -0.029267546
-0.02611593 -0.059798401 0.050936799
-0.02611593 -0.059798401 0.050936799
-0.02611593 -0.059798401 0.050936799
-0.02611593 -0.059798401 0.050936799
-0.049427219 -0.0022456623 -0.029612985
-0.053469956 0.0058396878 -0.033392321
-0.056479357 0.012885439 -0.035209138
-0.057362914 0.013780325 -0.029174365
-0.02611593 -0.059798401 0.050936799
-0.02611593 -0.059798401 0.050936799
-0.02611593 -0.059798401 0.050936799
-0.02611593 -0.059798401 0.050936799
-0.02611593 -0.059798401 0.050936799
-0.057480093 0.0078717936 -0.034280781
-0.060441181 0.012863617 -0.033134654
-0.060324915 0.013754914 -0.027118664
-0.02611593 -0.059798401 0.050936799
-0.02611593 -0.059798401 0.050936799
-0.02611593 -0.059798401 0.050936799
-0.02611593 -0.059798401 0.050936799
-0.058432508 0.00080421532 -0.030389469
-0.061445843 0.0068501332 -0.032224316
-0.064403005 0.012841795 -0.031060167
-0.065345734 0.017808352 -0.028951965
-0.02611593 -0.059798401 0.050936799
-0.02611593 -0.059798401 0.050936799
-0.02611593 -0.059798401 0.050936799
-0.02611593 -0.059798401 0.050936799
-0.062394336 0.0007823928 -0.028314985
-0.068499811 0.011946765 -0.036001336
-0.068398349 0.013855981 -0.030966986
-0.070340894 0.018826135 -0.028839994
-0.02611593 -0.059798401 0.050936799
-0.02611593 -0.059798401 0.050936799
-0.02611593 -0.059798401 0.050936799
-0.02611593 -0.059798401 0.050936799
-0.066389672 0.0017965754 -0.028221805
-0.072472505 0.013942693 -0.034890469
-0.074433766 0.018930934 -0.033763137
-0.073317692 0.019818641 -0.027765941
-0.02611593 -0.059798401 0.050936799
-0.02611593 -0.059798401 0.050936799
-0.02611593 -0.059798401 0.050936799
-0.02611593 -0.059798401 0.050936799
-0.071380906 0.0038141813 -0.028091814
-0.076434322 0.013920871 -0.032815989
-0.080435693 0.022969874 -0.034577977
-0.079338335 0.023875669 -0.029580437
-0.02611593 -0.059798401 0.050936799
-0.02611593 -0.059798401 0.050936799
-0.02611593 -0.059798401 0.050936799
-0.02611593 -0.059798401 0.050936799
-0.077353232 0.0058172871 -0.026943378
-0.082421437 0.016941896 -0.032649189
-0.08439751 0.022948051 -0.032503497
-0.084310837 0.025875187 -0.028450798
-0.02611593 -0.059798401 0.050936799
-0.02611593 -0.059798401 0.050936799
-0.02611593 -0.059798401 0.050936799
-0.02611593 -0.059798401 0.050936799
-0.081329845 0.0068133767 -0.025850534
-0.089427106 0.019984599 -0.033463262
-0.088340618 0.02290814 -0.029429343
-0.088268735 0.026853194 -0.026358292
-0.02611593 -0.059798401 0.050936799
-0.02611593 -0.059798401 0.050936799
-0.02611593 -0.059798401 0.050936799
-0.02611593 -0.059798401 0.050936799
-0.088346377 0.011873831 -0.027628228
-0.094395682 0.02298394 -0.032315593
-0.097386368 0.030011602 -0.033132754
-0.094270647 0.030892141 -0.027173135
-0.02611593 -0.059798401 0.050936799
-0.02611593 -0.059798401 0.050936799
-0.02611593 -0.059798401 0.050936799
-0.02611593 -0.059798401 0.050936799
-0.093285359 0.012837338 -0.024517279
-0.10138262 0.026008554 -0.032130003
-0.10132947 0.029971691 -0.030058604
-0.10025777 0.033913158 -0.027006336
-0.02611593 -0.059798401 0.050936799
-0.02611593 -0.059798401 0.050936799
-0.02611593 -0.059798401 0.050936799
-0.02611593 -0.059798401 0.050936799
-0.098257869 0.014836855 -0.023387626
-0.10735102 0.029011484 -0.030963544
-0.10832727 0.035014056 -0.030836646
-0.10825147 0.039958935 -0.027747568
-0.02611593 -0.059798401 0.050936799
-0.02611593 -0.059798401 0.050936799
-0.02611593 -0.059798401 0.050936799
-0.02611593 -0.059798401 0.050936799
-0.11132855 0.024990346 -0.028961126
-0.11837374 0.037103873 -0.033611681
-0.11529156 0.039020412 -0.029633369
-0.11524927 0.045001298 -0.028525595
-0.02611593 -0.059798401 0.050936799
-0.02611593 -0.059798401 0.050936799
-0.02611593 -0.059798401 0.050936799
-0.02611593 -0.059798401 0.050936799
-0.1223217 0.031046895 -0.029645983
-0.12331274 0.038067382 -0.030500729
-0.12629557 0.047094699 -0.031281851
-0.12120286 0.046986308 -0.026377492
-0.02611593 -0.059798401 0.050936799
-0.02611593 -0.059798401 0.050936799
-0.02611593 -0.059798401 0.050936799
-0.02611593 -0.059798401 0.050936799
-0.12622343 0.031970639 -0.024554498
-0.1322688 0.04408057 -0.029223837
-0.13324505 0.050083145 -0.029096939
-0.12917784 0.05301401 -0.026119057
-0.02611593 -0.059798401 0.050936799
-0.02611593 -0.059798401 0.050936799
-0.02611593 -0.059798401 0.050936799
-0.02611593 -0.059798401 0.050936799
-0.13721263 0.039027013 -0.025221333
-0.1412288 0.049093936 -0.027964965
-0.14120524 0.055092912 -0.027856857
-0.13713801 0.058023773 -0.024878982
-0.02611593 -0.059798401 0.050936799
-0.02611593 -0.059798401 0.050936799
-0.02611593 -0.059798401 0.050936799
-0.02611593 -0.059798401 0.050936799
-0.14716852 0.045043789 -0.023925658
-0.15723883 0.060203753 -0.030465107
-0.15619279 0.067180887 -0.029358108
-0.1531402 0.071133249 -0.027343072
-0.02611593 -0.059798401 0.050936799
-0.02611593 -0.059798401 0.050936799
-0.02611593 -0.059798401 0.050936799
-0.02611593 -0.059798401 0.050936799
-0.16314112 0.05611743 -0.024426464
-0.1711822 0.069234379 -0.02904021
-0.1671485 0.073201239 -0.028043631
-0.16108164 0.076124944 -0.025103338
-0.02611593 -0.059798401 0.050936799
-0.02611593 -0.059798401 0.050936799
-0.02611593 -0.059798401 0.050936799
-0.02611593 -0.059798401 0.050936799
-0.18815945 0.074294537 -0.028630678
-0.18512166 0.079264827 -0.02759729
-0.18210256 0.084253207 -0.027563572
-0.17705424 0.08719857 -0.025604151
-0.02611593 -0.059798401 0.050936799
-0.02611593 -0.059798401 0.050936799
-0.02611593 -0.059798401 0.050936799
-0.02611593 -0.059798401 0.050936799
-0.20407587 0.085313909 -0.026132494
-0.20306729 0.092327215 -0.027024824
-0.19803378 0.096290506 -0.026047036
-0.19198959 0.098232463 -0.024124421
-0.02611593 -0.059798401 0.050936799
-0.02611593 -0.059798401 0.050936799
-0.02611593 -0.059798401 0.050936799
-0.02611593 -0.059798401 0.050936799
-0.2269901 0.10137563 -0.024412364
-0.22398581 0.10738195 -0.025360279
-0.22098152 0.11338826 -0.026308205
-0.21494818 0.11734794 -0.025349207
-0.02611593 -0.059798401 0.050936799
-0.02611593 -0.059798401 0.050936799
-0.02611593 -0.059798401 0.050936799
-0.02611593 -0.059798401 0.050936799
-0.26491061 0.12954345 -0.025193125
-0.25289804 0.12848246 -0.024436962
-0.24789409 0.13448158 -0.025422469
-0.23486689 0.13239908 -0.023703467
-0.02611593 -0.059798401 0.050936799
-0.02611593 -0.059798401 0.050936799
-0.02611593 -0.059798401 0.050936799
-0.02611593 -0.059798401 0.050936799
-0.9262988 0.6472258 -0.19150221
-0.8883127 0.65010697 -0.19316182
-0.85031176 0.65197021 -0.19383982
-0.26177946 0.15349241 -0.022817735
-0.93389243 0.64987409 -0.17030492
-0.89094162 0.64875609 -0.17313024
-0.85496992 0.6526624 -0.17573395
-0.02611593 -0.059798401 0.050936799
-0.93446553 0.64846176 -0.14731194
-0.89255196 0.64738357 -0.15211779
-0.85961723 0.65133679 -0.15666446
-0.82570523 0.6543048 -0.1622476
-0.93804497 0.65007788 -0.1252082
-0.89717269 0.64803958 -0.13201261
-0.86327946 0.65102559 -0.1385954
-0.8293941 0.65201193 -0.14521423
-0.93762225 0.64766216 -0.10225204
-0.8997938 0.64868844 -0.11194501
-0.87393564 0.65675652 -0.12128636
-0.83608544 0.65374738 -0.12905209
-0.9422124 0.65129954 -0.081093118
-0.90241879 0.64833742 -0.091895424
-0.86958545 0.65038145 -0.10147641
-0.83775586 0.65142924 -0.11105664
-0.94178575 0.64988363 -0.058118947
-0.90202951 0.6469577 -0.070920549
-0.87023735 0.64804167 -0.0825001
-0.8414408 0.65013623 -0.094005257
-0.93836349 0.64745724 -0.03521914
-0.90365475 0.64660305 -0.050889753
-0.87688726 0.65074068 -0.064320609
-0.84711748 0.65085012 -0.076880261
-0.93595594 0.64605218 -0.013282195
-0.90426135 0.64622676 -0.029878072
-0.8805269 0.65141118 -0.045233876
-0.84780687 0.64854646 -0.059903271
-0.93354434 0.64564711 0.0086727664
-0.90089923 0.64285487 -0.0099952817
-0.88117492 0.6500712 -0.026239537
-0.85148782 0.64825332 -0.042833865
-0.93015969 0.64325684 0.029573239
-0.90252054 0.64350003 0.010053538
-0.88082314 0.64872766 -0.0072639957
-0.85616076 0.64996344 -0.025709637
-0.93173552 0.6458655 0.051657416
-0.9021461 0.64313823 0.030046761
-0.87747973 0.64537376 0.011619128
-0.85383987 0.64563131 -0.007825397
-0.92834294 0.64547491 0.072593927
-0.90276349 0.64477968 0.050094813
-0.88213396 0.64706576 0.029743031
-0.86250418 0.64935547 0.0094100311
-0.9259423 0.64708745 0.093585268
-0.9013893 0.64441431 0.070069246
-0.88177824 0.64672208 0.048736595
-0.85818762 0.64401633 0.027238678
-0.91756624 0.64267963 0.11435576
-0.90102571 0.6460703 0.089098841
-0.88142246 0.6463784 0.067730151
-0.85885042 0.64369428 0.045251366
-0.91416979 0.64328873 0.13531029
-0.89665985 0.64369446 0.10898086
-0.88108546 0.64605278 0.085724048
-0.86351937 0.64640421 0.062393613
-0.91077316 0.64389795 0.15626481
-0.88931715 0.64032626 0.12778884
-0.88074845 0.64572716 0.10371795
-0.86520076 0.64610392 0.079425432
-0.90440375 0.64251482 0.17612727
-0.88693911 0.64095706 0.14776251
-0.87939292 0.6453799 0.12269272
-0.86387181 0.64377499 0.0973645
-0.89404297 0.63911772 0.19587854
-0.88059628 0.63759232 0.16658926
-0.87305403 0.64101535 0.14150146
-0.86054713 0.64043927 0.11524798
-0.88866538 0.63973778 0.21579583
-0.87921417 0.63922668 0.18659973
-0.875682 0.64468175 0.16062346
-0.86320174 0.642124 0.13333428
-0.88328797 0.64035785 0.23571312
-0.87288606 0.6368798 0.20444484
-0.86835814 0.64133155 0.17843178
-0.86088771 0.64080954 0.15027292
-0.87493765 0.63898563 0.25453833
-0.87349176 0.6415208 0.22454694
-0.86502558 0.63999534 0.19635129
-0.85755908 0.63847345 0.16817442
-0.87055212 0.64160901 0.27451044
-0.86217642 0.63615656 0.24224406
-0.86069322 0.6386556 0.21425202
-0.8552264 0.63714081 0.18611272
-0.8572371 0.63623762 0.29216999
-0.85881341 0.63780183 0.2612173
-0.85636085 0.63731575 0.23215272
-0.8568812 0.63882208 0.20418024
-0.85484338 0.64086777 0.31221569
-0.85245883 0.63743663 0.28009811
-0.85200584 0.63695771 0.25107113
-0.85751742 0.64048159 0.22322862
-0.84252036 0.63749969 0.32993007
-0.84512693 0.63608599 0.29794246
-0.85163838 0.63961351 0.27011874
-0.85221183 0.63715667 0.24007484
-0.83318502 0.63714176 0.34775484
-0.83976436 0.63772404 0.31687811
-0.84730208 0.63927358 0.28803748
-0.85084838 0.63880908 0.25908566
-0.82089943 0.63380969 0.36346987
-0.83342844 0.6373769 0.33475927
-0.84096617 0.63892639 0.30591863
-0.84553885 0.63648397 0.2759499
-0.81253731 0.63543707 0.38234913
-0.82511556 0.63604087 0.35158515
-0.83760315 0.64057165 0.32489187
-0.84714836 0.64012867 0.29605278
-0.80222088 0.63509363 0.3991555
-0.81678003 0.63568652 0.36942875
-0.82931679 0.637254 0.34068206
-0.84283471 0.638807 0.31295383
-0.79290426 0.63475382 0.41598061
-0.80549026 0.63335788 0.38518059
-0.82198507 0.63590342 0.35852641
-0.83550686 0.63645661 0.33078015
-0.77863383 0.63243252 0.4306764
-0.8011235 0.63599938 0.40415305
-0.81664503 0.63655972 0.37644437
-0.82919747 0.63412786 0.34762561
-0.76931322 0.63309258 0.44751954
-0.79082972 0.63467425 0.41994169
-0.80635899 0.63323486 0.39219698
-0.82386142 0.63378429 0.36552557
-0.75701582 0.63276005 0.46328866
-0.78350878 0.63534147 0.43682238
-0.80298817 0.6368798 0.41120625
-0.820521 0.63444775 0.38348114
-0.74769139 0.63441992 0.48014981
-0.77319235 0.63499802 0.45362872
-0.7976442 0.63853592 0.42914224
-0.81418508 0.63410068 0.4013623
-0.73343962 0.63211673 0.49384597
-0.76289457 0.6346727 0.46943539
-0.78833151 0.63719624 0.44594935
-0.80784923 0.63375354 0.41924343
-0.7231341 0.63379109 0.50968868
-0.7516197 0.63336211 0.48420563
-0.77706444 0.63388598 0.46068349
-0.8005361 0.63242102 0.43608814
-0.70987827 0.63249141 0.52342165
-0.73835295 0.63004458 0.49890217
-0.76774776 0.63354611 0.47750863
-0.79717314 0.63406634 0.45506138
-0.69662237 0.63119167 0.53715461
-0.72511977 0.62776315 0.51161748
-0.76042688 0.63421333 0.49438936
-0.78885633 0.63373005 0.47190523
-0.68435866 0.63189518 0.55094236
-0.7197454 0.63240063 0.53060716
-0.75112897 0.63389158 0.51021481
-0.77954358 0.63239038 0.48871237
-0.66912574 0.62960649 0.56362009
-0.7025435 0.62712342 0.54219359
-0.7388581 0.63157749 0.52494818
-0.76826173 0.62806219 0.50442815
-0.65783525 0.63229525 0.57846236
-0.6912607 0.62781245 0.5569998
