# .PCD v0.7 - Point Cloud Data file format
VERSION 0.7
FIELDS x y z
SIZE 4 4 4
TYPE F F F
COUNT 1 1 1
WIDTH 1411
HEIGHT 1
VIEWPOINT 0 0 0 1 0 0 0
POINTS 1411
DATA ascii
-0.2406185 -0.030446718 -0.03254449
-0.21852107 -0.028616458 -0.027923536
-0.979644 0.018362563 -0.24889837
-0.02611593 -0.059798401 0.050936799
-0.02611593 -0.059798401 0.050936799
-0.02611593 -0.059798401 0.050936799
-0.99829561 0.020104811 -0.23051143
-0.95944101 0.042178173 -0.24284378
-0.26858288 -0.027364828 -0.030964643
-0.2485373 -0.024473291 -0.029287077
-1.0068595 0.020720894 -0.20733209
-0.97507459 0.043891564 -0.22351354
-0.02611593 -0.059798401 0.050936799
-0.02611593 -0.059798401 0.050936799
-1.0144383 0.022351308 -0.18515319
-0.99474478 0.045655489 -0.20610745
-0.96391529 0.06577599 -0.21932516
-0.93611181 0.083925679 -0.23352224
-1.0240206 0.022989066 -0.1629547
-0.99729484 0.045232117 -0.1820592
-0.9795714 0.066507638 -0.20101264
-0.96988386 0.087848052 -0.22181502
-1.0335989 0.024626657 -0.14073822
-1.0159239 0.047956109 -0.16265458
-0.99320525 0.06821385 -0.18171994
-0.97648942 0.087493293 -0.20069061
-1.0471766 0.026278606 -0.11844657
-1.020511 0.047576092 -0.14056808
-0.99577403 0.067808568 -0.15867138
-0.99815929 0.0892644 -0.18324691
-1.044705 0.026819026 -0.093474612
-1.0391027 0.050263897 -0.11916412
-1.014407 0.069532722 -0.13928474
-1.0067644 0.088916831 -0.16208492
-1.048251 0.027399074 -0.069389567
-1.0436672 0.050865624 -0.096059941
-1.0340397 0.07126046 -0.11987934
-1.0063338 0.088500783 -0.13909271
-1.0688423 0.030094061 -0.047948018
-1.0582446 0.052521162 -0.07374949
-1.0366087 0.070855185 -0.096830763
-1.0279663 0.090235703 -0.11964974
-1.0773833 0.031691886 -0.023751006
-1.0768402 0.054209139 -0.05236356
-1.0471908 0.071496539 -0.074613512
-1.0415853 0.090923995 -0.099375434
-1.1159486 0.035433218 -0.00095355511
-1.0933986 0.055853758 -0.029015876
-1.0757952 0.075238146 -0.054003298
-1.0461537 0.090525895 -0.076289266
-1.1204718 0.036998589 0.024167966
-1.1079574 0.057491213 -0.0057057813
-1.0823634 0.074847221 -0.03087955
-1.0677674 0.092242725 -0.055846609
-1.1389885 0.039614044 0.04957056
-1.1314878 0.061142515 0.018809132
-1.0969223 0.076484673 -0.0075694397
-1.0843446 0.093905441 -0.0334986
-1.1465111 0.041190192 0.074748456
-1.1390145 0.061718836 0.043969005
-1.1264702 0.080175616 0.016058553
-1.0959078 0.094532296 -0.010262884
-1.1670047 0.044794567 0.10120632
-1.1555127 0.064309016 0.070333682
-1.1260022 0.079723388 0.041050076
-1.0984578 0.094108924 0.013785355
-1.1764896 0.046341702 0.1284211
-1.1660349 0.065895937 0.095567949
-1.1485182 0.08235319 0.066527843
-1.1259916 0.096774749 0.038357411
-1.1939462 0.049899135 0.15682192
-1.1745198 0.067439482 0.12276395
-1.1570445 0.082933098 0.091706499
-1.1345367 0.097372748 0.062536404
-1.2063892 0.052420691 0.18611044
-1.2009937 0.071047306 0.15033421
-1.1715432 0.085516095 0.1180336
-1.1490806 0.097992286 0.08682815
-0.02611593 -0.059798401 0.050936799
-1.195489 0.070540957 0.1772311
-1.1900264 0.087095551 0.14541751
-1.1505936 0.097529151 0.11285692
-1.2133235 0.055435739 0.24231385
-1.2179074 0.074080154 0.2077252
-1.1915165 0.087614141 0.17246397
-0.02611593 -0.059798401 0.050936799
-1.2526373 0.060945153 0.27816173
-1.2173793 0.074573487 0.23573372
-1.2039821 0.089153968 0.20073479
-1.1855602 0.10068087 0.16758715
-0.02611593 -0.059798401 0.050936799
-1.2308031 0.077080548 0.26604068
-1.2224052 0.091678984 0.2311357
-1.1960487 0.10123174 0.19480272
-0.02611593 -0.059798401 0.050936799
-0.02611593 -0.059798401 0.050936799
-1.2238767 0.092179492 0.2591818
-1.2164716 0.10376394 0.22524121
-0.02611593 -0.059798401 0.050936799
-1.2944375 0.087045714 0.33743653
-0.02611593 -0.059798401 0.050936799
-0.02611593 -0.059798401 0.050936799
-1.3399063 0.077714369 0.42114741
-1.3028102 0.088480756 0.37063053
-1.2964907 0.10215887 0.33174646
-1.2552837 0.10778512 0.28806192
-3.1037695 0.26733807 0.99479616
-1.356945 0.095880851 0.41579327
-1.288949 0.10160917 0.36060509
-0.02611593 -0.059798401 0.050936799
-3.0983012 0.27292967 1.0718211
-3.1259267 0.30771774 0.97893608
-1.3550212 0.10999793 0.40901029
-0.02611593 -0.059798401 0.050936799
-3.1693192 0.28634402 1.1754285
-3.082736 0.3064093 1.0421252
-3.1320658 0.33898723 0.96561217
-0.02611593 -0.059798401 0.050936799
-3.2372813 0.29969332 1.2819786
-3.1507812 0.31783131 1.1446406
-3.0799301 0.33368334 1.0265608
-1.361434 0.12049659 0.43833017
-3.3011472 0.31393769 1.3934698
-3.2128088 0.32921371 1.2480428
-3.1360977 0.34317121 1.1228167
-3.0890894 0.35494724 1.0141127
-3.3827956 0.33004731 1.5163314
-3.285677 0.34249052 1.3596852
-3.2011325 0.35256469 1.2262392
-3.122416 0.35848022 1.1028306
-3.4643281 0.34704825 1.6452091
-3.3703058 0.35859287 1.4836029
-3.2680469 0.36385649 1.3357334
-3.1963701 0.36883345 1.210439
-4.801826 0.5167737 2.3975759
-3.4508648 0.37360865 1.6114262
-3.3447642 0.37700298 1.455448
-3.2642922 0.37812918 1.3199159
-4.67941 0.51394671 2.4722581
-3.4916713 0.38469857 1.7264297
-3.4283302 0.39002982 1.5832918
-3.3340826 0.38730547 1.4364281
-4.5719695 0.51215535 2.5482399
-4.7503152 0.55426711 2.4703145
-3.5038569 0.40399164 1.7130023
-3.4156945 0.39836171 1.5621988
-3.4469457 0.38002321 2.0316112
-4.673532 0.55226141 2.5648725
-5.0458302 0.61420983 2.5939734
-3.5001523 0.4102838 1.696041
-4.656703 0.54859585 2.8755965
-3.4603031 0.3984828 2.0091877
-4.913475 0.60136676 2.6672878
-5.0690308 0.62452579 2.5815904
-3.5772927 0.4162223 2.3268065
-4.6841359 0.57119548 2.8485098
-3.5031388 0.41454399 2.0152822
-4.9346352 0.60762197 2.657794
-3.1308932 0.3658179 2.1404736
-4.5667686 0.56542319 2.9212325
-4.690485 0.58259505 2.8278279
-4.81813 0.59369183 2.7393885
-4.3197165 0.54449338 3.085284
-3.1382458 0.37622118 2.1197927
-4.5819745 0.57471067 2.9086809
-4.7135186 0.58271378 2.8262606
-2.6053514 0.31196764 1.9615995
-4.3401041 0.5549795 3.0628479
-3.1760619 0.38321167 2.1286302
-4.5941682 0.56791776 2.8997831
-2.7110238 0.33626103 2.1350763
-2.6175995 0.31526345 1.9478837
-4.3572836 0.55622119 3.0531886
-3.2118421 0.38012433 2.1412485
-2.4374278 0.30542853 2.0103536
-2.6819103 0.33198634 2.088438
-2.613893 0.31252098 1.9327596
-4.3783832 0.54435289 3.0503678
-2.3953714 0.30826774 2.0656364
-2.4466963 0.30371442 1.9964916
-2.7797294 0.34125459 2.1504581
-2.615067 0.30165303 1.9255826
-2.3257849 0.30744126 2.096329
-2.4026477 0.30454677 2.0517006
-4.0384469 0.53225905 3.2588553
-2.766113 0.32551458 2.1329124
-1.8652301 0.24165608 1.7614026
-2.3487775 0.30350637 2.0976889
-3.939095 0.52656949 3.3309166
-2.7425404 0.32491592 2.2164888
-1.8166132 0.2428865 1.7935256
-1.8714023 0.23582333 1.75341
-2.3607509 0.29549655 2.100769
-2.6972647 0.32151026 2.2846026
-1.9495001 0.27455541 2.007659
-1.8276987 0.23498164 1.7905892
-1.872539 0.22491923 1.7482322
-2.3766274 0.27837595 2.1107602
-2.1202922 0.3153497 2.2786865
-1.9213399 0.25819591 1.9658217
-1.8268584 0.22308859 1.7843562
-1.876545 0.20888203 1.7510182
-3.3216295 0.54917532 3.7178965
-2.1098704 0.29780164 2.2511647
-1.9224923 0.24329254 1.9605719
-1.82891 0.20508075 1.7850691
-3.2402539 0.55356669 3.7894764
-3.3388369 0.52434915 3.7117672
-2.1011753 0.27798983 2.2386391
-1.9323442 0.22311473 1.9723954
-3.1461542 0.55516517 3.8467629
-3.2505195 0.52375245 3.7811265
-3.3517315 0.49318397 3.723449
-2.1188278 0.25564212 2.2615731
-3.0510328 0.55774176 3.9050486
-3.1553531 0.52327526 3.8423569
-3.2515821 0.48868957 3.784513
-3.3448572 0.44711235 3.7254877
-2.9560084 0.55940902 3.9583173
-3.0621679 0.52278715 3.9046247
-3.1574125 0.4841986 3.8466899
-3.2496023 0.4405278 3.7926078
-2.8590403 0.56112331 4.0085502
-2.9641562 0.5214442 3.957783
-3.0661449 0.48062778 3.9139395
-3.149502 0.43307009 3.8516188
-2.7669327 0.56472862 4.0659103
-2.8739514 0.52094877 4.0211067
-2.9699867 0.47814745 3.9751151
-3.054307 0.42553985 3.9157219
-2.6797681 0.56829762 4.1263633
-2.7828219 0.52052218 4.0804129
-2.87393 0.4737578 4.0312557
-2.9591079 0.41900945 3.9798431
-2.5818942 0.57009882 4.1715784
-2.6906285 0.52203739 4.142736
-2.7856016 0.47114331 4.1015787
-2.863868 0.4134427 4.0459819
-2.47631 0.57014287 4.2016129
-2.6004574 0.52257806 4.2040777
-2.6894023 0.46962658 4.1647716
-2.7647407 0.40797016 4.1060472
-2.382278 0.57381344 4.2549367
-2.5072641 0.52408963 4.2663813
-2.5874965 0.46536016 4.2128034
-2.6705003 0.40240705 4.1722045
-2.3008716 0.58118618 4.3275709
-2.4131687 0.52468824 4.3236499
-2.5001225 0.46471283 4.2851801
-2.571373 0.39693451 4.2322702
-2.2165449 0.58762068 4.3961315
-2.3200319 0.52625412 4.3829546
-2.4030023 0.46226496 4.3443375
-2.4742229 0.39245081 4.2933903
-2.134985 0.59584856 4.4767809
-2.2278528 0.52878726 4.4442954
-2.3088396 0.46079159 4.4055686
-2.3800013 0.38690579 4.3585482
-1.9806156 0.57977486 4.3915706
-2.1318326 0.52945107 4.4975276
-2.2107341 0.4593581 4.4637251
-2.2808101 0.3833786 4.4216485
-1.7614312 0.54042822 4.1406703
-2.034734 0.53103876 4.5547576
-2.1174362 0.4587616 4.5319915
-2.1826227 0.37885523 4.4847498
-1.0096316 0.3006601 2.5187075
-1.9376311 0.53362632 4.6120057
-2.016346 0.45833522 4.5891099
-2.0834126 0.37531 4.5488501
-0.92285174 0.29046768 2.4548771
-0.98624718 0.25499785 2.4944353
-1.0457224 0.21858619 2.5299027
-1.9841239 0.37269226 4.6169667
-0.84391665 0.2811591 2.3992119
-0.90231305 0.24567129 2.4386766
-0.95778894 0.20924526 2.4740682
-1.0141867 0.16873308 2.5144053
-0.77082282 0.27372697 2.3516927
-0.81955123 0.23551129 2.3739214
-0.87099427 0.19803491 2.4112191
-0.92244911 0.15755907 2.448463
-0.69796157 0.26451221 2.2921414
-0.74646139 0.22707936 2.3263843
-0.79396129 0.18964288 2.3606079
-0.83757138 0.14828318 2.3896863
-0.63282889 0.25707266 2.2467723
-0.67358136 0.21784659 2.2678328
-0.71611971 0.18042833 2.2999632
-0.75673026 0.13905784 2.328985
-0.57059807 0.25055319 2.2064755
-0.6093322 0.21130186 2.2284982
-0.64417946 0.17214465 2.2444477
-0.68077201 0.13074175 2.274394
-0.51136285 0.24504435 2.1662531
-0.54617649 0.20485115 2.1841841
-0.5798741 0.16554569 2.208112
-0.61069638 0.12333848 2.2259319
-0.45603317 0.23945943 2.1311042
-0.48600152 0.19839317 2.1409259
-0.51577473 0.15914568 2.1607802
-0.54363894 0.11596407 2.1765261
-0.40083462 0.23400116 2.0889578
-0.43063444 0.19277208 2.1077762
-0.45650595 0.15260085 2.122539
-0.48140815 0.10944465 2.1362293
-0.35035038 0.22928926 2.0619183
-0.37534228 0.18722333 2.0706282
-0.40017647 0.14701232 2.0873713
-0.42213541 0.10389961 2.0980065
-0.30105317 0.2247619 2.0249009
-0.32497036 0.18261999 2.0375905
-0.34682387 0.1424163 2.053278
-0.36397484 0.098466717 2.0538042
-0.26057675 0.22816543 2.0492129
-0.2780765 0.1815419 2.0316911
-0.29451242 0.13686024 2.0171857
-0.31147227 0.093729585 2.0277267
-0.22155604 0.2360688 2.1016428
-0.23718029 0.18654716 2.0780315
-0.25254542 0.14078972 2.0674882
-0.2650274 0.094130181 2.0508721
-0.17935954 0.24579825 2.1630497
-0.19687501 0.19517544 2.1454561
-0.21051836 0.14566472 2.1208076
-0.22204971 0.096038312 2.1021192
-0.13710293 0.25647324 2.2274735
-0.15265322 0.20186204 2.2087708
-0.16711307 0.1511742 2.1941195
-0.17761505 0.099508375 2.1773756
-0.1416975 0.51643741 4.0088658
-0.19178857 0.49207664 4.5945616
-0.25490609 0.47000366 5.4446321
-0.34375766 0.4360581 6.7371197
-0.056035444 0.51543641 3.9902377
-0.08888232 0.49177933 4.5886278
-0.1316852 0.46932709 5.4553161
-0.18454303 0.43629688 6.8001647
0.028761767 0.51531225 3.9786439
0.012926586 0.49057624 4.5776954
-0.004618749 0.46778104 5.4579105
-0.023056105 0.43321294 6.8250937
0.11315403 0.51256847 3.946003
0.11227474 0.48681492 4.5427561
0.11975567 0.46795595 5.4765911
0.13884471 0.42258 6.7138329
0.19815026 0.5152629 3.9444599
0.21527855 0.48742697 4.5418386
0.24638757 0.46582615 5.4561753
0.28927034 0.40437737 6.5256224
0.281389 0.51166761 3.9038224
0.31497937 0.48733944 4.5249643
0.37219208 0.46453691 5.4447923
0.42938349 0.38751793 6.3206253
0.36415309 0.51258665 3.8902853
0.41342527 0.48449114 4.4950595
0.49688047 0.46235994 5.4274125
0.56363273 0.37155327 6.122756
0.44453126 0.51087505 3.8567379
0.51539576 0.48614281 4.4921789
0.63467741 0.47115156 5.5200229
0.68476403 0.35374418 5.9190969
-0.02611593 -0.059798401 0.050936799
0.61067361 0.48346812 4.4533339
0.76936537 0.47500053 5.5545826
0.80443972 0.34043479 5.7435555
0.16613117 0.11377399 1.1998667
-0.02611593 -0.059798401 0.050936799
-0.02611593 -0.059798401 0.050936799
-0.02611593 -0.059798401 0.050936799
-0.02611593 -0.059798401 0.050936799
-0.02611593 -0.059798401 0.050936799
1.0079377 0.46539855 5.4248986
1.0212563 0.3164641 5.4169521
0.26648724 0.15035245 1.4237252
0.26725897 0.11142785 1.419005
0.26688114 0.072651558 1.4063064
0.27055871 0.033806637 1.3965316
-0.02611593 -0.059798401 0.050936799
-0.02611593 -0.059798401 0.050936799
1.2004703 0.4408302 5.1367517
1.2205975 0.29606891 5.1177497
-0.02611593 -0.059798401 0.050936799
-0.02611593 -0.059798401 0.050936799
1.2865306 0.42828098 4.9818606
1.3086652 0.28551218 4.9628572
0.99294698 0.50724131 3.6613381
1.1950989 0.48474902 4.3103662
1.3752614 0.41909069 4.8619928
1.3992498 0.27745929 4.8349724
1.0683713 0.5075112 3.6299205
1.2990954 0.48837507 4.3084841
1.4621464 0.41076276 4.7501774
1.4848955 0.27036995 4.7101984
1.1458743 0.5087015 3.6024816
1.3966695 0.48942116 4.2846684
1.540688 0.40078962 4.6204824
1.5644634 0.2623747 4.5815206
1.2202948 0.5079751 3.5710642
1.4910343 0.48967716 4.2498941
1.6154441 0.39263129 4.5018954
-0.02611593 -0.059798401 0.050936799
-0.02611593 -0.059798401 0.050936799
-0.02611593 -0.059798401 0.050936799
-0.02611593 -0.059798401 0.050936799
0.48285627 0.030631119 1.3044682
0.38781992 0.10914178 1.0755901
0.4890413 0.1067052 1.2997268
0.49979642 0.068762623 1.2938371
1.7907923 0.24385564 4.227828
0.51123971 0.14858291 1.3020694
1.7845248 0.49604645 4.1654863
1.8353655 0.37155887 4.1802878
1.862752 0.2395266 4.1193657
-0.02611593 -0.059798401 0.050936799
1.8589708 0.49123991 4.0829773
1.8971277 0.36444715 4.0619621
1.9297311 0.23519745 4.0119967
1.5818688 0.50790346 3.3852303
1.9262644 0.48560339 3.9925849
1.9632571 0.35997683 3.9626095
1.9947106 0.2308754 3.9046657
1.6603942 0.51007175 3.3587904
1.9895173 0.47901762 3.90025
2.0274014 0.35449579 3.8642762
2.0588403 0.22641227 3.8053505
1.7286326 0.51054776 3.3175075
2.0518343 0.47438076 3.8109694
2.0855279 0.3490544 3.7650557
2.1240897 0.22383672 3.7120509
1.7968297 0.51006001 3.2742071
2.1111104 0.46879101 3.7197273
2.148849 0.3454138 3.6757743
2.1863022 0.22130808 3.6168079
1.8629336 0.50966996 3.2259459
2.1684248 0.46317238 3.6305223
2.207077 0.3418816 3.581588
2.2486086 0.21868899 3.5265636
1.9404256 0.51287794 3.1975434
2.2288399 0.45945203 3.5462954
2.2663989 0.33825538 3.4923818
2.3068445 0.21715645 3.4324136
2.0189176 0.51608223 3.1691222
2.2883112 0.45568106 3.4650862
2.3248179 0.33554214 3.4082103
2.3641517 0.21455531 3.3422627
2.1014724 0.52121764 3.1436608
2.3406489 0.45106202 3.3769929
2.38326 0.3338106 3.3250566
2.425616 0.21379477 3.2600708
2.1645019 0.52091068 3.0914576
2.3900058 0.44643566 3.2899556
2.4346204 0.33017686 3.2379997
2.4789689 0.21317145 3.1720304
2.2295873 0.52054226 3.0422156
2.4537504 0.44539663 3.2227206
2.4910817 0.32843444 3.1558833
2.5343745 0.21148689 3.0869341
2.299773 0.5220651 2.9979141
2.4990931 0.4418025 3.1347768
2.5445659 0.32768452 3.0748408
2.5857317 0.21187061 2.9989493
2.362788 0.52277607 2.9447291
2.5516262 0.43900234 3.0567162
2.5980835 0.32589859 2.9957798
2.642257 0.21207353 2.919868
2.4145269 0.51978034 2.8776836
2.6072409 0.43811852 2.9826338
2.6495683 0.32515582 2.9147749
2.6967638 0.21230178 2.8398244
2.4734445 0.51959634 2.8195572
2.6537189 0.43539411 2.9016869
2.7020905 0.3243733 2.8357508
2.7502704 0.21253359 2.7598
2.5334039 0.52037227 2.7634299
2.702275 0.43358994 2.824719
2.7556906 0.32451472 2.7607241
2.802819 0.21373266 2.6818111
2.5892994 0.51921731 2.7043424
2.7559464 0.43265912 2.7536731
2.7991207 0.32385492 2.6768708
2.8461778 0.21414506 2.5939772
2.6472216 0.52003658 2.6462531
2.8014657 0.43090194 2.6747627
2.846662 0.32307225 2.5989404
2.9038417 0.21621747 2.5219107
2.7020655 0.51993912 2.5842032
2.8521042 0.43101788 2.6017919
2.9013038 0.32417369 2.5259123
2.9990947 0.22159566 2.4802103
2.7671022 0.52162468 2.5319986
2.9027762 0.43009782 2.5308025
2.9935801 0.33054438 2.485286
3.0475733 0.22388124 2.3983161
2.8402808 0.52615434 2.4866951
3.0195024 0.44196531 2.5128255
3.0380514 0.33084467 2.4034312
3.1021667 0.22703661 2.3223252
2.8635824 0.52067572 2.3971293
3.2305663 0.46824813 2.562366
3.0886602 0.33299649 2.3284972
3.1517007 0.22926435 2.2434115
2.9062707 0.51876646 2.3272717
3.2353952 0.46128672 2.4481108
3.1413064 0.33510488 2.2555249
3.2052944 0.23242329 2.1674395
2.9641593 0.52062184 2.2672012
3.2697442 0.45873189 2.3603921
3.1858191 0.33636886 2.1756871
3.2578692 0.23560393 2.0904868
3.0271256 0.52338666 2.2110534
3.3385634 0.46261978 2.2961521
3.2414868 0.33944827 2.1036761
4.6893563 0.36280018 2.8232346
3.0748396 0.52344102 2.1421378
3.260499 0.44478682 2.1372373
4.3637762 0.47189006 2.668251
4.736053 0.36684895 2.6993918
3.1296723 0.52536142 2.0791245
3.7342305 0.51066905 2.3186207
4.3965158 0.47193542 2.5475981
4.8291903 0.37531573 2.5977664
3.1804271 0.52636868 2.0121696
3.7926922 0.5139367 2.2355571
4.5223184 0.4836536 2.480432
4.6294742 0.35752362 2.3521008
3.2291636 0.52740121 1.9442527
3.8309357 0.51347572 2.1418011
4.5762901 0.48640606 2.3714342
4.7045879 0.36407346 2.249778
3.3082178 0.53403556 1.8918749
3.857084 0.51214856 2.0432539
4.6454387 0.49194139 2.2712057
5.0379157 0.39461964 2.2580926
3.3245621 0.52954572 1.804458
3.9014091 0.51359344 1.95342
4.734746 0.5002597 2.1786528
4.9152308 0.38457647 2.0651426
3.3833458 0.5335058 1.7384068
3.9699893 0.51871622 1.8762026
4.8693681 0.51412612 2.101357
5.546483 0.44426408 2.167438
3.4280078 0.53462499 1.6665665
4.0062184 0.51928037 1.7815022
4.9162326 0.51801211 1.9865109
5.7450418 0.46397209 2.0850492
3.4625335 0.533907 1.5878804
4.014235 0.5171445 1.6762779
4.8119493 0.50550663 1.8151791
5.7733521 0.4694652 1.9405695
3.5031216 0.53511292 1.5121167
4.0676079 0.52152038 1.588328
4.8397532 0.50751543 1.697655
5.7754903 0.47321469 1.7875456
3.558831 0.53915608 1.4421231
4.0988421 0.52310234 1.4937396
4.8283052 0.50589997 1.5677961
5.773705 0.47690612 1.6385952
3.5953598 0.5394308 1.3634174
4.1300721 0.52368444 1.3991333
4.8571544 0.50986862 1.4522886
5.7648787 0.47965914 1.4877591
3.6419544 0.54261488 1.2875769
4.1613097 0.52626622 1.3045632
4.8659053 0.51199985 1.3321226
5.692801 0.47787425 1.3250211
3.6875308 0.54582053 1.2107556
4.1965284 0.52885169 1.2089181
4.8857155 0.51503706 1.2147667
5.7413516 0.48807761 1.1922517
3.7260296 0.54812396 1.1300491
4.21065 0.52960336 1.1086334
4.9045286 0.51907778 1.0974479
5.8169651 0.50112927 1.0620279
3.7504632 0.54753238 1.0465525
4.2589335 0.53508741 1.0157971
4.927341 0.52310419 0.9800539
5.8714814 0.51234716 0.92716449
3.80199 0.55277061 0.96665549
4.2770948 0.53678834 0.91745448
4.9552164 0.52905804 0.86560088
5.9199276 0.52465862 0.78843313
3.8233867 0.55222595 0.88121611
4.2902012 0.53856152 0.81620687
4.930944 0.52832615 0.74500126
5.9142962 0.52921975 0.64757335
3.8488047 0.5526486 0.79671919
4.3214207 0.54116142 0.72063702
4.9277201 0.53148222 0.62607831
5.9968085 0.54535431 0.5112741
3.8982759 0.55794823 0.71386081
4.3325272 0.54294175 0.61942697
4.9255333 0.53459847 0.50913602
5.933044 0.54725051 0.36445254
3.9196241 0.55945754 0.62545848
4.3657017 0.5485881 0.52087462
4.9403887 0.53961718 0.3939096
3.5537975 0.31035349 0.15364172
3.9580331 0.56285125 0.53977162
4.3798113 0.55135751 0.41962618
3.5801725 0.3791846 0.21341324
3.5311954 0.31298435 0.06808348
3.9662867 0.56349784 0.44659722
4.390903 0.55415571 0.31743449
-0.02611593 -0.059798401 0.050936799
3.02053 0.26432133 -0.0062609683
3.9956369 0.56597817 0.35806257
-0.02611593 -0.059798401 0.050936799
-0.02611593 -0.059798401 0.050936799
3.0531883 0.27351844 -0.079730958
4.0049233 0.56558514 0.26685068
3.5242641 0.43643117 0.10145759
2.9723942 0.31381088 -0.022470014
3.0598402 0.27980939 -0.15276645
-0.02611593 -0.059798401 0.050936799
3.0054579 0.36585492 0.023868078
2.8641124 0.30340889 -0.087652944
2.6619239 0.24003723 -0.19004846
3.5400314 0.49279833 0.078174107
2.9971633 0.36612833 -0.044995021
2.7259364 0.29000655 -0.14632824
2.7156463 0.25210422 -0.26086003
2.9692392 0.40433946 0.0052360147
2.8648996 0.34977737 -0.10783577
2.6518176 0.28433698 -0.20406267
2.7313936 0.25927225 -0.32904831
2.9989576 0.40947565 -0.064251035
2.7427316 0.33429986 -0.16584809
2.7025554 0.29539683 -0.2738362
2.3361328 0.21885981 -0.33137974
2.8027442 0.37926626 -0.12114315
2.6106741 0.31774989 -0.21769255
1.9309219 0.19758749 -0.22814293
2.3510299 0.22588669 -0.39155197
2.7705469 0.37451819 -0.18364739
2.498718 0.30403715 -0.26486051
2.317101 0.25308505 -0.33940706
2.3808572 0.23493178 -0.45596865
2.6005542 0.34901565 -0.22994167
1.9308033 0.22479998 -0.23965238
2.3429961 0.26007247 -0.39978597
2.4614596 0.25102782 -0.53421313
2.4796028 0.33131784 -0.2760129
2.3139534 0.2823441 -0.35282341
2.3758047 0.26912487 -0.46525869
2.6754153 0.28530917 -0.65163863
2.3627484 0.31451502 -0.31714296
2.3388488 0.2893351 -0.41318354
2.4713559 0.28722095 -0.54674792
2.5487437 0.27639619 -0.68443936
2.3098238 0.30657145 -0.36431172
2.3676724 0.29738396 -0.47759944
2.6404686 0.31650189 -0.65442103
2.4420764 0.26941109 -0.71757984
2.3426614 0.31358805 -0.42782116
2.480135 0.31750917 -0.56437039
2.5138373 0.30353531 -0.68429482
2.4548321 0.27858955 -0.7856757
2.3725002 0.32061535 -0.49127421
2.5924888 0.33874273 -0.6571213
2.4320612 0.29856867 -0.723867
2.3592417 0.27249244 -0.81500626
2.5148265 0.34577677 -0.58651608
2.4738524 0.32474765 -0.68716347
2.4468126 0.30674008 -0.79201841
-0.02611593 -0.059798401 0.050936799
2.5584643 0.35495248 -0.66119242
2.4885814 0.33193731 -0.75633264
-0.02611593 -0.059798401 0.050936799
0.17942484 -0.030062936 -0.034402519
2.4547503 0.34097591 -0.6955151
2.4366722 0.32798949 -0.80344808
0.1904346 -0.027102923 -0.03455516
-0.02611593 -0.059798401 0.050936799
2.4814205 0.34817678 -0.76790869
-0.02611593 -0.059798401 0.050936799
-0.02611593 -0.059798401 0.050936799
0.1484749 -0.033005435 -0.030875079
2.4235611 0.34219655 -0.81194854
0.18844284 -0.025096083 -0.03448154
0.17137405 -0.028980128 -0.037233163
-0.02611593 -0.059798401 0.050936799
-0.02611593 -0.059798401 0.050936799
-0.02611593 -0.059798401 0.050936799
-0.02611593 -0.059798401 0.050936799
0.12945181 -0.034918822 -0.03155376
0.18842804 -0.024078168 -0.035463173
0.17334411 -0.026951468 -0.039234024
0.14736666 -0.031893484 -0.03683624
-0.02611593 -0.059798401 0.050936799
-0.02611593 -0.059798401 0.050936799
-0.02611593 -0.059798401 0.050936799
-0.02611593 -0.059798401 0.050936799
0.11443189 -0.035846729 -0.03228958
0.16141725 -0.027980585 -0.035027903
0.14735579 -0.029875737 -0.037799865
0.13034715 -0.032814212 -0.037534483
-0.02611593 -0.059798401 0.050936799
-0.02611593 -0.059798401 0.050936799
-0.02611593 -0.059798401 0.050936799
-0.02611593 -0.059798401 0.050936799
0.099426776 -0.037792552 -0.032043755
0.14139043 -0.030890206 -0.035705816
0.12734769 -0.032803446 -0.037478108
0.10939535 -0.035792604 -0.034194946
-0.02611593 -0.059798401 0.050936799
-0.02611593 -0.059798401 0.050936799
-0.02611593 -0.059798401 0.050936799
-0.02611593 -0.059798401 0.050936799
0.086443946 -0.038763814 -0.030817837
0.12336712 -0.032807179 -0.036403287
0.11628959 -0.03370953 -0.040288419
0.098355994 -0.036716778 -0.036005598
-0.02611593 -0.059798401 0.050936799
-0.02611593 -0.059798401 0.050936799
-0.02611593 -0.059798401 0.050936799
-0.02611593 -0.059798401 0.050936799
0.076441854 -0.039727755 -0.030647952
0.10836203 -0.034753006 -0.03615747
0.09735617 -0.03671319 -0.035986807
0.087354079 -0.037677128 -0.035816923
-0.02611593 -0.059798401 0.050936799
-0.02611593 -0.059798401 0.050936799
-0.02611593 -0.059798401 0.050936799
-0.02611593 -0.059798401 0.050936799
0.06349647 -0.040735196 -0.027422708
0.096337646 -0.036691513 -0.036967676
0.08633554 -0.03765545 -0.036797792
0.079318099 -0.037612237 -0.037665915
-0.02611593 -0.059798401 0.050936799
-0.02611593 -0.059798401 0.050936799
-0.02611593 -0.059798401 0.050936799
-0.02611593 -0.059798401 0.050936799
0.056479029 -0.040691983 -0.028290842
0.085317008 -0.037633769 -0.037778657
0.078295633 -0.038590394 -0.038664803
0.067349881 -0.03960501 -0.03547715
-0.02611593 -0.059798401 0.050936799
-0.02611593 -0.059798401 0.050936799
-0.02611593 -0.059798401 0.050936799
-0.02611593 -0.059798401 0.050936799
0.050442681 -0.040634274 -0.030177418
0.072367691 -0.039641045 -0.034571435
0.068312258 -0.039572421 -0.037495259
0.057385232 -0.040605124 -0.033307929
-0.02611593 -0.059798401 0.050936799
-0.02611593 -0.059798401 0.050936799
-0.02611593 -0.059798401 0.050936799
-0.02611593 -0.059798401 0.050936799
0.045420945 -0.04159807 -0.031101137
0.0623804 -0.041622899 -0.033419896
0.056366693 -0.040583447 -0.034288805
0.051348891 -0.040547416 -0.03519452
-0.02611593 -0.059798401 0.050936799
-0.02611593 -0.059798401 0.050936799
-0.02611593 -0.059798401 0.050936799
-0.02611593 -0.059798401 0.050936799
0.037441134 -0.041587442 -0.029951155
0.055344228 -0.041561604 -0.035287697
0.051311444 -0.040511236 -0.037193839
0.047274731 -0.040460702 -0.039118003
-0.02611593 -0.059798401 0.050936799
-0.02611593 -0.059798401 0.050936799
-0.02611593 -0.059798401 0.050936799
-0.02611593 -0.059798401 0.050936799
0.033385698 -0.041518822 -0.032874972
0.049322676 -0.042521808 -0.036192633
0.045289889 -0.041471448 -0.038098767
0.039313633 -0.040468168 -0.03696835
-0.02611593 -0.059798401 0.050936799
-0.02611593 -0.059798401 0.050936799
-0.02611593 -0.059798401 0.050936799
-0.02611593 -0.059798401 0.050936799
0.02836789 -0.041482791 -0.033780687
0.041324135 -0.042493097 -0.036042307
0.038291171 -0.041446324 -0.037967235
0.032329712 -0.041460969 -0.035855174
-0.02611593 -0.059798401 0.050936799
-0.02611593 -0.059798401 0.050936799
-0.02611593 -0.059798401 0.050936799
-0.02611593 -0.059798401 0.050936799
0.023387525 -0.041482933 -0.032687064
0.03532131 -0.043471396 -0.035947584
0.032269619 -0.042406533 -0.038872179
0.026330812 -0.041439433 -0.035742432
-0.02611593 -0.059798401 0.050936799
-0.02611593 -0.059798401 0.050936799
-0.02611593 -0.059798401 0.050936799
-0.02611593 -0.059798401 0.050936799
-0.02611593 -0.059798401 0.050936799
0.027356289 -0.044478692 -0.033815954
0.026270717 -0.042384997 -0.038759436
0.024222769 -0.040323891 -0.041684799
-0.02611593 -0.059798401 0.050936799
-0.02611593 -0.059798401 0.050936799
-0.02611593 -0.059798401 0.050936799
-0.02611593 -0.059798401 0.050936799
-0.02611593 -0.059798401 0.050936799
0.024281951 -0.04439557 -0.037758224
-0.02611593 -0.059798401 0.050936799
0.018238658 -0.041320276 -0.040590409
-0.02611593 -0.059798401 0.050936799
-0.02611593 -0.059798401 0.050936799
-0.02611593 -0.059798401 0.050936799
-0.02611593 -0.059798401 0.050936799
-0.02611593 -0.059798401 0.050936799
0.019264137 -0.044359535 -0.038663939
-0.02611593 -0.059798401 0.050936799
0.012277202 -0.041334923 -0.038478348
-0.02611593 -0.059798401 0.050936799
-0.02611593 -0.059798401 0.050936799
-0.02611593 -0.059798401 0.050936799
-0.02611593 -0.059798401 0.050936799
-0.02611593 -0.059798401 0.050936799
-0.02611593 -0.059798401 0.050936799
-0.02611593 -0.059798401 0.050936799
-0.02611593 -0.059798401 0.050936799
-0.02611593 -0.059798401 0.050936799
-0.02611593 -0.059798401 0.050936799
-0.02611593 -0.059798401 0.050936799
-0.02611593 -0.059798401 0.050936799
-0.02611593 -0.059798401 0.050936799
-0.02611593 -0.059798401 0.050936799
-0.02611593 -0.059798401 0.050936799
-0.02611593 -0.059798401 0.050936799
-0.02611593 -0.059798401 0.050936799
-0.02611593 -0.059798401 0.050936799
-0.02611593 -0.059798401 0.050936799
-0.02611593 -0.059798401 0.050936799
-0.02611593 -0.059798401 0.050936799
-0.02611593 -0.059798401 0.050936799
-0.02611593 -0.059798401 0.050936799
-0.02611593 -0.059798401 0.050936799
-0.02611593 -0.059798401 0.050936799
-0.02611593 -0.059798401 0.050936799
-0.02611593 -0.059798401 0.050936799
-0.02611593 -0.059798401 0.050936799
-0.02611593 -0.059798401 0.050936799
-0.02611593 -0.059798401 0.050936799
-0.02611593 -0.059798401 0.050936799
-0.02611593 -0.059798401 0.050936799
-0.02611593 -0.059798401 0.050936799
-0.02611593 -0.059798401 0.050936799
-0.02611593 -0.059798401 0.050936799
-0.02611593 -0.059798401 0.050936799
-0.02611593 -0.059798401 0.050936799
-0.02611593 -0.059798401 0.050936799
-0.02611593 -0.059798401 0.050936799
-0.02611593 -0.059798401 0.050936799
-0.02611593 -0.059798401 0.050936799
-0.02611593 -0.059798401 0.050936799
-0.02611593 -0.059798401 0.050936799
-0.02611593 -0.059798401 0.050936799
-0.02611593 -0.059798401 0.050936799
-0.02611593 -0.059798401 0.050936799
-0.02611593 -0.059798401 0.050936799
-0.02611593 -0.059798401 0.050936799
-0.02611593 -0.059798401 0.050936799
-0.02611593 -0.059798401 0.050936799
-0.02611593 -0.059798401 0.050936799
-0.02611593 -0.059798401 0.050936799
-0.02611593 -0.059798401 0.050936799
-0.02611593 -0.059798401 0.050936799
-0.02611593 -0.059798401 0.050936799
-0.02611593 -0.059798401 0.050936799
-0.02611593 -0.059798401 0.050936799
-0.02611593 -0.059798401 0.050936799
-0.02611593 -0.059798401 0.050936799
-0.02611593 -0.059798401 0.050936799
-0.02611593 -0.059798401 0.050936799
-0.02611593 -0.059798401 0.050936799
-0.02611593 -0.059798401 0.050936799
-0.02611593 -0.059798401 0.050936799
-0.02611593 -0.059798401 0.050936799
-0.02611593 -0.059798401 0.050936799
-0.02611593 -0.059798401 0.050936799
-0.02611593 -0.059798401 0.050936799
-0.02611593 -0.059798401 0.050936799
-0.02611593 -0.059798401 0.050936799
-0.02611593 -0.059798401 0.050936799
-0.02611593 -0.059798401 0.050936799
-0.02611593 -0.059798401 0.050936799
-0.02611593 -0.059798401 0.050936799
-0.02611593 -0.059798401 0.050936799
-0.02611593 -0.059798401 0.050936799
-0.02611593 -0.059798401 0.050936799
-0.02611593 -0.059798401 0.050936799
-0.02611593 -0.059798401 0.050936799
-0.02611593 -0.059798401 0.050936799
-0.02611593 -0.059798401 0.050936799
-0.02611593 -0.059798401 0.050936799
-0.02611593 -0.059798401 0.050936799
-0.02611593 -0.059798401 0.050936799
-0.02611593 -0.059798401 0.050936799
-0.02611593 -0.059798401 0.050936799
-0.02611593 -0.059798401 0.050936799
-0.02611593 -0.059798401 0.050936799
-0.02611593 -0.059798401 0.050936799
-0.02611593 -0.059798401 0.050936799
-0.02611593 -0.059798401 0.050936799
-0.02611593 -0.059798401 0.050936799
-0.02611593 -0.059798401 0.050936799
-0.02611593 -0.059798401 0.050936799
-0.02611593 -0.059798401 0.050936799
-0.02611593 -0.059798401 0.050936799
-0.02611593 -0.059798401 0.050936799
-0.02611593 -0.059798401 0.050936799
-0.02611593 -0.059798401 0.050936799
-0.02611593 -0.059798401 0.050936799
-0.02611593 -0.059798401 0.050936799
-0.02611593 -0.059798401 0.050936799
-0.02611593 -0.059798401 0.050936799
-0.02611593 -0.059798401 0.050936799
-0.02611593 -0.059798401 0.050936799
-0.02611593 -0.059798401 0.050936799
-0.02611593 -0.059798401 0.050936799
-0.02611593 -0.059798401 0.050936799
-0.02611593 -0.059798401 0.050936799
-0.02611593 -0.059798401 0.050936799
-0.02611593 -0.059798401 0.050936799
-0.02611593 -0.059798401 0.050936799
-0.02611593 -0.059798401 0.050936799
-0.02611593 -0.059798401 0.050936799
-0.02611593 -0.059798401 0.050936799
-0.02611593 -0.059798401 0.050936799
-0.02611593 -0.059798401 0.050936799
-0.02611593 -0.059798401 0.050936799
-0.02611593 -0.059798401 0.050936799
-0.02611593 -0.059798401 0.050936799
-0.02611593 -0.059798401 0.050936799
-0.02611593 -0.059798401 0.050936799
-0.02611593 -0.059798401 0.050936799
-0.02611593 -0.059798401 0.050936799
-0.02611593 -0.059798401 0.050936799
-0.02611593 -0.059798401 0.050936799
-0.02611593 -0.059798401 0.050936799
-0.02611593 -0.059798401 0.050936799
-0.02611593 -0.059798401 0.050936799
-0.02611593 -0.059798401 0.050936799
-0.02611593 -0.059798401 0.050936799
-0.02611593 -0.059798401 0.050936799
-0.02611593 -0.059798401 0.050936799
-0.02611593 -0.059798401 0.050936799
-0.02611593 -0.059798401 0.050936799
-0.02611593 -0.059798401 0.050936799
-0.02611593 -0.059798401 0.050936799
-0.02611593 -0.059798401 0.050936799
-0.02611593 -0.059798401 0.050936799
-0.02611593 -0.059798401 0.050936799
-0.02611593 -0.059798401 0.050936799
-0.02611593 -0.059798401 0.050936799
-0.02611593 -0.059798401 0.050936799
-0.02611593 -0.059798401 0.050936799
-0.02611593 -0.059798401 0.050936799
-0.02611593 -0.059798401 0.050936799
-0.02611593 -0.059798401 0.050936799
-0.02611593 -0.059798401 0.050936799
-0.02611593 -0.059798401 0.050936799
-0.02611593 -0.059798401 0.050936799
-0.070755921 -0.038983118 -0.039881676
-0.02611593 -0.059798401 0.050936799
-0.02611593 -0.059798401 0.050936799
-0.02611593 -0.059798401 0.050936799
-0.02611593 -0.059798401 0.050936799
-0.02611593 -0.059798401 0.050936799
-0.02611593 -0.059798401 0.050936799
-0.02611593 -0.059798401 0.050936799
-0.02611593 -0.059798401 0.050936799
-0.074687235 -0.036023542 -0.036753479
-0.02611593 -0.059798401 0.050936799
-0.02611593 -0.059798401 0.050936799
-0.02611593 -0.059798401 0.050936799
-0.02611593 -0.059798401 0.050936799
-0.02611593 -0.059798401 0.050936799
-0.078691348 -0.042026252 -0.035786763
-0.080731444 -0.037965484 -0.038676091
-0.079686321 -0.036005598 -0.036659524
-0.02611593 -0.059798401 0.050936799
-0.02611593 -0.059798401 0.050936799
-0.02611593 -0.059798401 0.050936799
-0.02611593 -0.059798401 0.050936799
-0.078566313 -0.034118056 -0.030644305
-0.084667601 -0.041022975 -0.034656338
-0.084674537 -0.0380054 -0.035601944
-0.084662758 -0.035005912 -0.03554789
-0.02611593 -0.059798401 0.050936799
-0.02611593 -0.059798401 0.050936799
-0.02611593 -0.059798401 0.050936799
-0.02611593 -0.059798401 0.050936799
-0.082528137 -0.034139879 -0.028569821
-0.089666687 -0.04100503 -0.034562387
-0.089636177 -0.038023632 -0.033508673
-0.088605866 -0.035045821 -0.03247375
-0.02611593 -0.059798401 0.050936799
-0.02611593 -0.059798401 0.050936799
-0.02611593 -0.059798401 0.050936799
-0.02611593 -0.059798401 0.050936799
-0.087504573 -0.03314019 -0.027458191
-0.09459088 -0.041059442 -0.030469783
-0.097683035 -0.035940997 -0.036321297
-0.093601018 -0.034028046 -0.032361779
-0.02611593 -0.059798401 0.050936799
-0.02611593 -0.059798401 0.050936799
-0.02611593 -0.059798401 0.050936799
-0.02611593 -0.059798401 0.050936799
-0.098621838 -0.0299746 -0.034195073
-0.10056713 -0.040056165 -0.029339373
-0.10467782 -0.034916043 -0.036171746
-0.10262896 -0.031959906 -0.034155942
-0.02611593 -0.059798401 0.050936799
-0.02611593 -0.059798401 0.050936799
-0.02611593 -0.059798401 0.050936799
-0.02611593 -0.059798401 0.050936799
-0.10052786 -0.030057866 -0.029159188
-0.11265069 -0.037922997 -0.034076151
-0.10960202 -0.034970455 -0.032079149
-0.10962375 -0.030934954 -0.034006391
-0.02611593 -0.059798401 0.050936799
-0.02611593 -0.059798401 0.050936799
-0.02611593 -0.059798401 0.050936799
-0.02611593 -0.059798401 0.050936799
-0.10550429 -0.029058184 -0.028047547
-0.11657114 -0.036981165 -0.029984318
-0.12166292 -0.031855538 -0.035798252
-0.11863296 -0.028884906 -0.034800902
-0.02611593 -0.059798401 0.050936799
-0.02611593 -0.059798401 0.050936799
-0.02611593 -0.059798401 0.050936799
-0.02611593 -0.059798401 0.050936799
-0.11655059 -0.026964778 -0.0308038
-0.12861726 -0.034884173 -0.032721788
-0.1255873 -0.031913541 -0.031724442
-0.12864201 -0.026831267 -0.035576623
-0.02611593 -0.059798401 0.050936799
-0.02611593 -0.059798401 0.050936799
-0.02611593 -0.059798401 0.050936799
-0.02611593 -0.059798401 0.050936799
-0.12555981 -0.024914727 -0.031598315
-0.14062594 -0.032823358 -0.033459924
-0.13659616 -0.029856309 -0.032481372
-0.1366179 -0.025820814 -0.034408614
-0.02611593 -0.059798401 0.050936799
-0.02611593 -0.059798401 0.050936799
-0.02611593 -0.059798401 0.050936799
-0.02611593 -0.059798401 0.050936799
-0.13149862 -0.02394763 -0.028468568
-0.1455314 -0.032895859 -0.028367665
-0.14860091 -0.026795667 -0.033201486
-0.14355259 -0.023850296 -0.031242065
-0.02611593 -0.059798401 0.050936799
-0.02611593 -0.059798401 0.050936799
-0.02611593 -0.059798401 0.050936799
-0.02611593 -0.059798401 0.050936799
-0.13947058 -0.021937352 -0.02728254
-0.15346593 -0.030921753 -0.025182318
-0.15552473 -0.0268429 -0.029071301
-0.14949532 -0.02388303 -0.028130338
-0.02611593 -0.059798401 0.050936799
-0.02611593 -0.059798401 0.050936799
-0.02611593 -0.059798401 0.050936799
-0.02611593 -0.059798401 0.050936799
-0.14842363 -0.01994157 -0.025078069
-0.17855404 -0.025724348 -0.030620433
-0.17252462 -0.02276448 -0.029679455
-0.1654954 -0.019808203 -0.028757267
-0.02611593 -0.059798401 0.050936799
-0.02611593 -0.059798401 0.050936799
-0.02611593 -0.059798401 0.050936799
-0.02611593 -0.059798401 0.050936799
-0.1523293 -0.020017661 -0.020004604
-0.19955714 -0.022631401 -0.031171437
-0.18749139 -0.019729249 -0.028343875
-0.18249531 -0.015729779 -0.02936542
-0.02611593 -0.059798401 0.050936799
-0.02611593 -0.059798401 0.050936799
-0.02611593 -0.059798401 0.050936799
-0.02611593 -0.059798401 0.050936799
-0.17238088 -0.014874373 -0.023537345
-0.22656608 -0.016499342 -0.032555297
-0.21755201 -0.01253232 -0.032652341
-0.20552763 -0.010593819 -0.031842127
-0.02611593 -0.059798401 0.050936799
-0.02611593 -0.059798401 0.050936799
-0.02611593 -0.059798401 0.050936799
-0.02611593 -0.059798401 0.050936799
-0.1974237 -0.0077134827 -0.026940096
-0.25352278 -0.011421381 -0.030958202
-0.23951356 -0.0084721381 -0.031167217
-0.22949968 -0.0045087039 -0.031283047
-0.02611593 -0.059798401 0.050936799
-0.02611593 -0.059798401 0.050936799
-0.02611593 -0.059798401 0.050936799
-0.02611593 -0.059798401 0.050936799
-0.22443263 -0.0015814239 -0.02832396
-0.95998502 0.13909291 -0.23707853
-0.26946187 -0.0013837446 -0.029477708
-0.257471 0.0015907655 -0.030648801
-0.02611593 -0.059798401 0.050936799
-0.97861403 0.14181688 -0.2176739
-0.02611593 -0.059798401 0.050936799
-0.02611593 -0.059798401 0.050936799
-0.24638633 0.0044784197 -0.026802786
-0.98619276 0.14344731 -0.19549501
-0.97250211 0.16577318 -0.21635455
-0.9627772 0.18707742 -0.23515761
-0.02611593 -0.059798401 0.050936799
-0.9947713 0.1450813 -0.17329732
-0.98711318 0.16846474 -0.19602542
-0.97740698 0.18978706 -0.21582815
-0.9636867 0.21007711 -0.2347244
-1.0093824 0.14777286 -0.15296817
-0.99972844 0.17014928 -0.17575188
-0.98802263 0.19146441 -0.19559219
-0.97330648 0.21075104 -0.21452525
-1.0159427 0.14938159 -0.1298084
-1.0143394 0.17284079 -0.15542275
-0.99061412 0.19007738 -0.17356129
-0.97993076 0.21041438 -0.19440052
-1.0215069 0.14998688 -0.10668544
-1.0249177 0.17448199 -0.13318747
-0.99921143 0.19172949 -0.15236327
-1.0025886 0.21518853 -0.176884
-1.0350767 0.15363851 -0.084357753
-1.0224687 0.17404066 -0.10923319
-1.0248687 0.19651443 -0.13479039
-1.0011848 0.21278733 -0.1549463
-1.0546455 0.15731163 -0.061917335
-1.0350612 0.17670695 -0.08794196
-1.0384613 0.19918428 -0.11348037
-1.0147998 0.21447545 -0.13465397
-1.0792243 0.16302048 -0.040346563
-1.0466356 0.17935154 -0.065669887
-1.0360162 0.19774315 -0.089544117
-1.0213828 0.21510248 -0.11251187
-1.080748 0.16457509 -0.015281424
-1.0712142 0.18506037 -0.04409913
-1.0456133 0.1993988 -0.0683273
-1.0360126 0.21781211 -0.093182385
-1.0922847 0.16718352 0.0089899898
-1.0847691 0.18769406 -0.020789795
-1.049178 0.19999698 -0.045241892
-1.0465908 0.21945328 -0.070947103
-1.1017989 0.17076647 0.034241498
-1.1023155 0.19234174 0.002630733
-1.0767522 0.2067164 -0.023596756
-1.0581875 0.22111614 -0.049692705
-1.1163124 0.17436741 0.059586957
-1.1058429 0.19290373 0.027715433
-1.1043075 0.21341774 -0.00095194578
-1.0627521 0.22171785 -0.026588522
-1.1368358 0.18000764 0.084081538
-1.1273659 0.19854754 0.052228808
-1.1198585 0.21705845 0.022412986
-1.0863348 0.22642328 -0.0050545782
-0.02611593 -0.059798401 0.050936799
-1.1388987 0.20215577 0.07651823
-1.128381 0.21863815 0.047609664
-1.1028854 0.23006755 0.018329147
-1.1767474 0.19215766 0.14006755
-1.1473986 0.20471726 0.10273259
-1.1418945 0.2222355 0.072936326
-1.125427 0.23573306 0.041861635
-0.02611593 -0.059798401 0.050936799
-1.1648701 0.20929259 0.13015176
-1.1504358 0.22383331 0.097133353
-1.134968 0.23733445 0.066077448
-1.1856923 0.19719763 0.19534492
-1.1843374 0.21487497 0.15762654
-1.1649305 0.22741616 0.12347846
-1.1534954 0.24196766 0.090516426
-0.02611593 -0.059798401 0.050936799
-1.1888192 0.21740399 0.1847654
-1.1833979 0.23299491 0.15093444
-0.02611593 -0.059798401 0.050936799
-0.02611593 -0.059798401 0.050936799
-1.215221 0.22495684 0.21540672
-1.1998509 0.23754857 0.17933449
-1.1864843 0.24914768 0.14328182
-1.2697544 0.22274706 0.29441452
-0.02611593 -0.059798401 0.050936799
-0.02611593 -0.059798401 0.050936799
-0.02611593 -0.059798401 0.050936799
-0.02611593 -0.059798401 0.050936799
-1.2559789 0.23796557 0.27942681
-1.2287389 0.2466235 0.23705907
-1.2263625 0.26026171 0.20124915
-0.02611593 -0.059798401 0.050936799
-1.2823021 0.24644594 0.31408483
-1.2481314 0.25213346 0.26853248
-0.02611593 -0.059798401 0.050936799
-1.3048234 0.23908597 0.39440057
-1.294681 0.2509129 0.34640834
-1.2864257 0.26263848 0.30445167
-0.02611593 -0.059798401 0.050936799
-1.3608662 0.25543746 0.44276202
-1.3040416 0.25535104 0.37967515
-1.2968049 0.26709822 0.33673763
-0.02611593 -0.059798401 0.050936799
-2.9953225 0.64992505 0.9976874
-1.3233324 0.26277021 0.41618291
-1.3151187 0.27353209 0.37220889
-1.2581226 0.26926547 0.31904656
-2.9551687 0.64866352 1.0589335
-2.879612 0.65675229 0.92662042
-1.3115536 0.2739785 0.40216041
-0.02611593 -0.059798401 0.050936799
-2.899127 0.64343584 1.1148087
-2.8305919 0.65056789 0.9816094
-2.7508204 0.6514082 0.86209053
-0.02611593 -0.059798401 0.050936799
-2.845119 0.63925117 1.1687402
-2.7994554 0.64935678 1.042025
-2.7356353 0.65221804 0.92484212
-1.3488985 0.29556847 0.43326065
-2.7911479 0.63510275 1.2206721
-2.7445378 0.64124161 1.0918669
-2.699609 0.64708018 0.98009342
-2.6585414 0.64978886 0.87633836
-2.7391918 0.63197941 1.2716602
-2.6985469 0.6371038 1.144949
-2.6586437 0.64097869 1.0322338
-2.6305134 0.64467961 0.93173993
-2.6862583 0.62787074 1.3216118
-2.6684434 0.63693231 1.203402
-2.6295667 0.63882923 1.0896699
-2.5985053 0.63957411 0.9860667
-2.653125 0.63066989 1.3810622
-2.6294434 0.63481927 1.2566518
-2.6005125 0.63569808 1.1460885
-2.5913188 0.64041269 1.0489687
-2.6042013 0.62859333 1.4301252
-2.5854895 0.63072485 1.307772
-2.5744312 0.63455909 1.203599
-2.5632684 0.63628525 1.1053879
-2.545404 0.62358999 1.4729484
-2.5564008 0.63157487 1.3652623
-2.5483458 0.63442004 1.2611276
-2.5451481 0.63513887 1.1650481
-2.5044298 0.62450546 1.5242152
-2.5134616 0.62850189 1.4154197
-2.5153301 0.63131064 1.3154716
-2.5319629 0.63595581 1.2278373
-2.4525633 0.62247241 1.5702229
-2.4665604 0.62545079 1.4635028
-2.484287 0.63019001 1.3708889
-2.5019274 0.63283908 1.2832375
-2.4017527 0.62049723 1.6132505
-2.4295897 0.62538087 1.5148267
-2.4453657 0.62714952 1.4201219
-2.4808078 0.63168198 1.3428414
-2.3381059 0.61562055 1.6479825
-2.3837256 0.62236947 1.5609291
-2.4162993 0.6270178 1.4765946
-2.4527497 0.62955415 1.3992966
-2.2962065 0.6166048 1.6952317
-2.3368995 0.61939079 1.6050135
-2.3832757 0.62590802 1.5309745
-2.4276683 0.62841886 1.4568261
-2.2414944 0.61370587 1.7331679
-2.2969663 0.61934614 1.6542816
-2.3473125 0.623842 1.5822814
-2.3995686 0.62725466 1.5152986
-2.1868191 0.61084312 1.7691045
-2.248178 0.61639637 1.6963291
-2.2985132 0.61887449 1.6252923
-2.3606362 0.62219644 1.5654953
-2.1380565 0.61092901 1.8092067
-2.2063055 0.615399 1.7425427
-2.2714205 0.62073147 1.6828382
-2.3286123 0.62109035 1.6198941
-2.0794797 0.60714257 1.840052
-2.156532 0.61346358 1.7835898
-2.2187006 0.61482209 1.7217574
-2.3024895 0.62091511 1.679422
-1.898169 0.56292248 1.7568293
-2.1078 0.61056817 1.8226383
-2.1768131 0.61280686 1.7689526
-2.2674887 0.61881644 1.7327467
-1.8436625 0.56022251 1.7837691
-1.9706396 0.57974738 1.7824991
-2.1447814 0.61370039 1.8233876
-2.2265716 0.61476892 1.7819242
-1.8274425 0.57002711 1.8466641
-1.8670032 0.558631 1.7661713
-2.0989921 0.6107614 1.8654914
-2.1856503 0.61172122 1.8311195
-1.8709377 0.60290706 1.9741164
-1.8223411 0.556822 1.8013144
-1.8872063 0.55388457 1.7564604
-2.1526082 0.61059344 1.8864993
-1.8125108 0.59926528 1.9969642
-1.8992105 0.59926152 1.9605751
-1.8395715 0.55008322 1.7905114
-1.9082981 0.54401577 1.7536758
-1.7579777 0.59854686 2.0249398
-1.8603069 0.60125637 2.0078988
-1.8929416 0.58087277 1.9251132
-1.8498346 0.53532064 1.7794327
-1.7074063 0.59780669 2.0549898
-1.8087209 0.59949464 2.0389118
-1.9167415 0.60393584 2.0380142
-1.8424336 0.54297709 1.8524574
-1.6500129 0.59520459 2.0758753
-1.7571204 0.59671497 2.0709062
-1.8738881 0.60295296 2.0832095
-1.9809326 0.60139161 2.082185
-1.5936152 0.59360582 2.0967972
-1.7054931 0.59591699 2.1039364
-1.8231938 0.60008651 2.1202209
-1.939985 0.60032547 2.132416
-1.5440772 0.59390521 2.1248848
-1.6519865 0.59322059 2.1308947
-1.7715555 0.59727073 2.1542149
-1.8960379 0.59924859 2.182591
-1.4887017 0.59132826 2.1448081
-1.5974985 0.59053868 2.1568348
-1.7120767 0.59257126 2.1800249
-1.8394126 0.59341538 2.2164366
-1.4352996 0.59074008 2.1658049
-1.5498066 0.59170043 2.1929753
-1.676996 0.59641725 2.2364566
-1.7964429 0.59332389 2.2676477
-1.3838183 0.59108663 2.1908557
-1.4982543 0.59097475 2.222007
-1.6253352 0.59458321 2.2714682
-1.7505298 0.59327579 2.3158035
-1.3294764 0.58954918 2.2088168
-1.4437999 0.58932889 2.2459655
-1.5746517 0.5937345 2.3075161
-1.6987793 0.59035152 2.3557954
-1.2732096 0.58807701 2.2227414
-1.3923038 0.58865738 2.2719984
-1.5200664 0.59196192 2.3384726
-1.6508852 0.59031433 2.402914
-1.2160447 0.58469212 2.2316127
-1.3378721 0.58602977 2.2949395
-1.4616619 0.58733845 2.3603029
-1.5952144 0.58644825 2.4388137
-1.1627774 0.58323073 2.2455938
-1.2805535 0.58349997 2.311826
-1.4158159 0.58936238 2.4044962
-1.5434 0.58546925 2.4818408
-1.1104687 0.58273661 2.261611
-1.2290947 0.58286476 2.3358595
-1.3467063 0.58197135 2.4110708
-1.4886609 0.58455187 2.5208125
-1.0581145 0.58420599 2.2796636
-1.170795 0.58034939 2.3517275
-1.2979355 0.58405685 2.4512091
-1.4320049 0.58169997 2.555712
-1.0039223 0.58281338 2.2896268
-1.1154907 0.57884467 2.3676703
-1.2491276 0.58610624 2.4933465
-1.3743639 0.57986253 2.5896108
-0.95168865 0.58239162 2.3016455
-1.0620885 0.57825643 2.3886671
-1.1821111 0.57881272 2.4949603
-1.3166856 0.57798886 2.6255093
-0.90133816 0.58286828 2.3197176
-1.0067803 0.57775158 2.4046278
-1.1304199 0.57996005 2.5310256
-1.2600031 0.57711858 2.6614447
-0.84916031 0.58250076 2.328737
-0.95435524 0.57814878 2.426661
-1.0672225 0.57551754 2.5417659
-1.1994603 0.57436091 2.6902709
-0.79222 0.57933289 2.3256123
-0.90193009 0.57854587 2.448694
-0.98979717 0.56172842 2.5130568
-1.1340719 0.57073021 2.710988
-0.74382389 0.58178025 2.3457577
-0.82681203 0.56305367 2.4039924
-0.90204585 0.53951633 2.4499907
-0.97919762 0.51289618 2.5009711
-0.6795007 0.57014591 2.3113313
-0.75085557 0.54470313 2.3512204
-0.82307124 0.52113694 2.3981624
-0.89142364 0.4916659 2.4389226
-0.61065537 0.55192894 2.2526927
-0.6798529 0.52833396 2.3005779
-0.74421299 0.50186622 2.3403175
-0.80954713 0.47236633 2.3820212
-0.54953063 0.53748685 2.208272
-0.61287218 0.51099741 2.2489927
-0.67131215 0.48358059 2.2846029
-0.73447424 0.45491061 2.335284
-0.49130017 0.5259645 2.1689601
-0.54790592 0.49468604 2.1964633
-0.60519224 0.46812072 2.2400701
-0.65778804 0.43481007 2.2684619
-0.43515182 0.51252204 2.1256509
-0.48960039 0.48309129 2.1611502
-0.54014719 0.45273685 2.1915576
-0.58872491 0.41939369 2.2208741
-0.38288271 0.50098515 2.0884511
-0.43242967 0.47062701 2.1188397
-0.47907868 0.43834886 2.1441379
-0.52366102 0.40399164 2.1733611
-0.33160943 0.49045157 2.0512879
-0.37810078 0.4600285 2.0846193
-0.42175034 0.42773959 2.1098611
-0.46057028 0.39057833 2.1269214
-0.28317404 0.48278365 2.0222325
-0.32582772 0.44949135 2.0474374
-0.36550066 0.41620633 2.0715864
-0.40230224 0.37901983 2.0896087
-0.24520841 0.49576208 2.0707731
-0.27817833 0.44362757 2.029433
-0.31325021 0.40468749 2.0333867
-0.34695479 0.36839959 2.0563693
-0.20700242 0.51252282 2.1313813
