# .PCD v0.7 - Point Cloud Data file format
VERSION 0.7
FIELDS x y z
SIZE 4 4 4
TYPE F F F
COUNT 1 1 1
WIDTH 1362
HEIGHT 1
VIEWPOINT 0 0 0 1 0 0 0
POINTS 1362
DATA ascii
0.57838959 0.40006849 -0.069103323
0.59505874 0.43143633 -0.092856057
0.80537403 0.62500298 -0.16831788
0.57045436 0.37795627 -0.061352119
0.59111202 0.41132748 -0.086143635
0.80942577 0.60486537 -0.1617558
0.80403811 0.6303494 -0.18720254
0.59414619 0.39622885 -0.081471972
0.83942419 0.60575753 -0.16230148
0.83302498 0.62824559 -0.18778351
0.7957173 0.62968576 -0.20406449
0.8504265 0.58764875 -0.15883386
0.86498165 0.62816697 -0.19038415
0.82765532 0.6296252 -0.20766476
0.21016192 0.13972813 -0.027904447
0.90292245 0.62908471 -0.19407913
0.86159688 0.63055724 -0.21128459
0.82431191 0.63297915 -0.22654788
0.204099 0.13780427 -0.030826718
0.8945002 0.62651187 -0.21597542
0.85421973 0.62994438 -0.23116432
0.21006349 0.1338015 -0.032011203
-0.02611593 -0.059798401 0.050936799
0.88808554 0.62593156 -0.23787323
0.21006951 0.12576669 -0.030156024
0.19203442 0.12085024 -0.030907549
0.17602164 0.11690833 -0.030678973
0.21104576 0.11976412 -0.03028293
0.19202566 0.11383333 -0.030034021
-0.02611593 -0.059798401 0.050936799
-0.02611593 -0.059798401 0.050936799
0.19299798 0.10683093 -0.030178934
-0.02611593 -0.059798401 0.050936799
0.16894227 0.10597151 -0.032744959
0.14798173 0.095976211 -0.028531905
-0.02611593 -0.059798401 0.050936799
0.16296721 0.092922881 -0.028867818
-0.02611593 -0.059798401 0.050936799
-0.02611593 -0.059798401 0.050936799
0.16193597 0.084927835 -0.028993178
-0.02611593 -0.059798401 0.050936799
0.14390968 0.08702828 -0.030618228
0.13192274 0.085053593 -0.029429123
-0.02611593 -0.059798401 0.050936799
0.14290109 0.080014974 -0.029725909
-0.02611593 -0.059798401 0.050936799
-0.02611593 -0.059798401 0.050936799
0.13988501 0.071009167 -0.028832044
-0.02611593 -0.059798401 0.050936799
0.12686957 0.076091163 -0.030496992
0.12086374 0.07913027 -0.031329863
-0.02611593 -0.059798401 0.050936799
0.12584226 0.069095947 -0.030604333
-0.02611593 -0.059798401 0.050936799
-0.02611593 -0.059798401 0.050936799
0.11885259 0.057068832 -0.027690042
-0.02611593 -0.059798401 0.050936799
0.11181432 0.066164792 -0.031394988
0.10682702 0.069182225 -0.031246979
-0.02611593 -0.059798401 0.050936799
0.11377561 0.061176546 -0.032522313
-0.02611593 -0.059798401 0.050936799
-0.02611593 -0.059798401 0.050936799
0.10678984 0.050149269 -0.029590003
-0.02611593 -0.059798401 0.050936799
0.095807575 0.054188073 -0.029311236
0.092827752 0.059197992 -0.029164772
-0.02611593 -0.059798401 0.050936799
0.097757973 0.051217578 -0.031402197
-0.02611593 -0.059798401 0.050936799
-0.02611593 -0.059798401 0.050936799
0.092757054 0.041201055 -0.029489104
-0.02611593 -0.059798401 0.050936799
0.082815968 0.046199903 -0.027211785
0.080802463 0.052242249 -0.029065412
-0.02611593 -0.059798401 0.050936799
0.081788659 0.039204683 -0.027319126
-0.02611593 -0.059798401 0.050936799
-0.02611593 -0.059798401 0.050936799
0.080731772 0.034245305 -0.029389746
-0.02611593 -0.059798401 0.050936799
0.075764097 0.042261899 -0.029151645
0.070810311 0.044243317 -0.027022339
-0.02611593 -0.059798401 0.050936799
0.070767105 0.033245187 -0.02722054
-0.02611593 -0.059798401 0.050936799
-0.02611593 -0.059798401 0.050936799
0.06974373 0.027249798 -0.027309861
-0.02611593 -0.059798401 0.050936799
0.065761089 0.036280714 -0.02807219
0.063781083 0.041287042 -0.027944516
-0.02611593 -0.059798401 0.050936799
0.063719161 0.030307002 -0.02914238
-0.02611593 -0.059798401 0.050936799
-0.02611593 -0.059798401 0.050936799
0.059725914 0.022286534 -0.027212046
-0.02611593 -0.059798401 0.050936799
0.05675789 0.030295946 -0.027011529
0.056747936 0.037330933 -0.028884716
-0.02611593 -0.059798401 0.050936799
0.057671025 0.027365221 -0.031083018
-0.02611593 -0.059798401 0.050936799
-0.02611593 -0.059798401 0.050936799
0.051707752 0.017316092 -0.027151816
-0.02611593 -0.059798401 0.050936799
0.052683726 0.030382657 -0.030935012
0.049752228 0.033338644 -0.027825598
-0.02611593 -0.059798401 0.050936799
0.047720261 0.020329947 -0.0270226
-0.02611593 -0.059798401 0.050936799
-0.02611593 -0.059798401 0.050936799
0.045663539 0.01537415 -0.02907443
-0.02611593 -0.059798401 0.050936799
0.04371798 0.024361707 -0.027875021
0.041767567 0.0273322 -0.025784057
-0.02611593 -0.059798401 0.050936799
0.041694775 0.018369909 -0.027945548
-0.02611593 -0.059798401 0.050936799
-0.02611593 -0.059798401 0.050936799
0.037682816 0.010367529 -0.027014878
-0.02611593 -0.059798401 0.050936799
0.03966254 0.024430329 -0.030798845
0.037712134 0.027400821 -0.028707881
-0.02611593 -0.059798401 0.050936799
0.033714056 0.013363288 -0.025885992
-0.02611593 -0.059798401 0.050936799
-0.02611593 -0.059798401 0.050936799
0.032642353 0.0094218291 -0.028938264
-0.02611593 -0.059798401 0.050936799
0.032681629 0.019420128 -0.028758079
0.030746019 0.021372695 -0.025685474
-0.02611593 -0.059798401 0.050936799
0.030643634 0.014446242 -0.02981025
-0.02611593 -0.059798401 0.050936799
-0.02611593 -0.059798401 0.050936799
0.026650397 0.0064257742 -0.027879916
-0.02611593 -0.059798401 0.050936799
0.024734423 0.013377499 -0.024717219
0.023769034 0.017362315 -0.023626693
-0.02611593 -0.059798401 0.050936799
0.023681445 0.0094179511 -0.026769828
-0.02611593 -0.059798401 0.050936799
-0.02611593 -0.059798401 0.050936799
0.02065843 0.0034297341 -0.026821565
-0.02611593 -0.059798401 0.050936799
0.021697521 0.013424444 -0.02666017
0.020732138 0.017409259 -0.02556964
-0.02611593 -0.059798401 0.050936799
0.019640803 0.008468654 -0.028712001
-0.02611593 -0.059798401 0.050936799
-0.02611593 -0.059798401 0.050936799
0.015651491 0.0014480173 -0.026763652
-0.02611593 -0.059798401 0.050936799
0.01864583 0.014489309 -0.029584762
0.017699175 0.018456044 -0.027494576
-0.02611593 -0.059798401 0.050936799
0.014637792 0.0074867681 -0.028636068
-0.02611593 -0.059798401 0.050936799
-0.02611593 -0.059798401 0.050936799
0.010663269 -0.0005517886 -0.025706071
-0.02611593 -0.059798401 0.050936799
0.012653869 0.011493261 -0.028526414
0.012721818 0.014438486 -0.025473375
-0.02611593 -0.059798401 0.050936799
0.008679349 0.0034547118 -0.025596414
-0.02611593 -0.059798401 0.050936799
-0.02611593 -0.059798401 0.050936799
0.0076115825 0.00051307969 -0.028630666
-0.02611593 -0.059798401 0.050936799
0.009635699 0.011522117 -0.029469702
0.010673871 0.016499592 -0.028398741
-0.02611593 -0.059798401 0.050936799
0.004642637 0.0035052458 -0.027520578
-0.02611593 -0.059798401 0.050936799
-0.02611593 -0.059798401 0.050936799
0.0026233639 -0.001486726 -0.027573086
-0.02611593 -0.059798401 0.050936799
0.0046622748 0.0085043991 -0.027430486
0.0057004513 0.013481867 -0.026359525
-0.02611593 -0.059798401 0.050936799
0.0016244616 0.0035341014 -0.028463863
-0.02611593 -0.059798401 0.050936799
-0.02611593 -0.059798401 0.050936799
-0.0014094217 -0.00043636537 -0.029479228
-0.02611593 -0.059798401 0.050936799
0.0015957863 0.010587176 -0.031336714
0.0016637373 0.013532401 -0.028283678
-0.02611593 -0.059798401 0.050936799
-0.0023935279 0.0035665461 -0.029388361
-0.02611593 -0.059798401 0.050936799
-0.02611593 -0.059798401 0.050936799
-0.02611593 -0.059798401 0.050936799
-0.02611593 -0.059798401 0.050936799
-0.0033441172 0.0065334416 -0.027316198
-0.0013692308 0.014579176 -0.030208617
-0.02611593 -0.059798401 0.050936799
-0.0064115194 0.0035989909 -0.030312866
-0.02611593 -0.059798401 0.050936799
-0.02611593 -0.059798401 0.050936799
-0.02611593 -0.059798401 0.050936799
-0.02611593 -0.059798401 0.050936799
-0.006377087 0.0075802244 -0.029241126
-0.0053428351 0.011557862 -0.028188184
-0.02611593 -0.059798401 0.050936799
-0.010414714 0.0026135161 -0.030255724
-0.02611593 -0.059798401 0.050936799
-0.02611593 -0.059798401 0.050936799
-0.02611593 -0.059798401 0.050936799
-0.02611593 -0.059798401 0.050936799
-0.010395076 0.0076126694 -0.030165631
-0.0083758067 0.012604637 -0.03011312
-0.02611593 -0.059798401 0.050936799
-0.014384393 0.00059203582 -0.028217275
-0.02611593 -0.059798401 0.050936799
-0.02611593 -0.059798401 0.050936799
-0.02611593 -0.059798401 0.050936799
-0.02611593 -0.059798401 0.050936799
-0.013446768 0.0086775338 -0.033090226
-0.012345484 0.010583153 -0.028074671
-0.02611593 -0.059798401 0.050936799
-0.02611593 -0.059798401 0.050936799
-0.02611593 -0.059798401 0.050936799
-0.02611593 -0.059798401 0.050936799
-0.02611593 -0.059798401 0.050936799
-0.02611593 -0.059798401 0.050936799
-0.017412519 0.0076558809 -0.031033747
-0.015378451 0.011629929 -0.029999606
-0.02611593 -0.059798401 0.050936799
-0.021416631 0.0016531635 -0.030067045
-0.02611593 -0.059798401 0.050936799
-0.02611593 -0.059798401 0.050936799
-0.02611593 -0.059798401 0.050936799
-0.02611593 -0.059798401 0.050936799
-0.021464027 0.0087243337 -0.033939559
-0.019366853 0.0096265413 -0.028960813
-0.02611593 -0.059798401 0.050936799
-0.02611593 -0.059798401 0.050936799
-0.02611593 -0.059798401 0.050936799
-0.02611593 -0.059798401 0.050936799
-0.02611593 -0.059798401 0.050936799
-0.02611593 -0.059798401 0.050936799
-0.025400188 0.0056668418 -0.029919811
-0.022366304 0.0096373083 -0.028904442
-0.02611593 -0.059798401 0.050936799
-0.028430145 0.0026962054 -0.030917145
-0.02611593 -0.059798401 0.050936799
-0.02611593 -0.059798401 0.050936799
-0.02611593 -0.059798401 0.050936799
-0.02611593 -0.059798401 0.050936799
-0.02611593 -0.059798401 0.050936799
-0.026365571 0.0096516637 -0.02882928
-0.02611593 -0.059798401 0.050936799
-0.031414803 0.0016890526 -0.029879142
-0.02611593 -0.059798401 0.050936799
-0.02611593 -0.059798401 0.050936799
-0.02611593 -0.059798401 0.050936799
-0.02611593 -0.059798401 0.050936799
-0.031432606 0.0067243767 -0.031788368
-0.028394796 0.011694674 -0.03075498
-0.02611593 -0.059798401 0.050936799
-0.035428863 0.0027213278 -0.030785613
-0.02611593 -0.059798401 0.050936799
-0.02611593 -0.059798401 0.050936799
-0.02611593 -0.059798401 0.050936799
-0.02611593 -0.059798401 0.050936799
-0.02611593 -0.059798401 0.050936799
-0.03134986 0.0086516887 -0.027753685
-0.02611593 -0.059798401 0.050936799
-0.02611593 -0.059798401 0.050936799
-0.02611593 -0.059798401 0.050936799
-0.02611593 -0.059798401 0.050936799
-0.02611593 -0.059798401 0.050936799
-0.02611593 -0.059798401 0.050936799
-0.038379088 0.0056954082 -0.028675865
-0.035363927 0.0096839648 -0.028660167
-0.02611593 -0.059798401 0.050936799
-0.043408677 0.0027319503 -0.029635634
-0.02611593 -0.059798401 0.050936799
-0.02611593 -0.059798401 0.050936799
-0.02611593 -0.059798401 0.050936799
-0.02611593 -0.059798401 0.050936799
-0.042393148 0.0067276764 -0.029582351
-0.039407577 0.012752072 -0.031529929
-0.02611593 -0.059798401 0.050936799
-0.046389405 0.0027246277 -0.028579596
-0.02611593 -0.059798401 0.050936799
-0.02611593 -0.059798401 0.050936799
-0.051415071 0.00076100393 -0.02952135
-0.02611593 -0.059798401 0.050936799
-0.046422005 0.0087778792 -0.03147047
-0.042392232 0.011744919 -0.030491911
-0.02611593 -0.059798401 0.050936799
-0.050336432 0.0016848857 -0.025523476
-0.02611593 -0.059798401 0.050936799
-0.02611593 -0.059798401 0.050936799
-0.055395614 0.00075727038 -0.028446522
-0.02611593 -0.059798401 0.050936799
-0.049373146 0.0067347097 -0.028451152
-0.046372779 0.011741186 -0.029417098
-0.02611593 -0.059798401 0.050936799
-0.054380089 0.0047530001 -0.028393239
-0.02611593 -0.059798401 0.050936799
-0.02611593 -0.059798401 0.050936799
-0.06039077 0.0017750419 -0.028334547
-0.02611593 -0.059798401 0.050936799
-0.05335369 0.0067309765 -0.027376331
-0.050386842 0.012773461 -0.030323569
-0.02611593 -0.059798401 0.050936799
-0.058360633 0.0047492669 -0.027318418
-0.02611593 -0.059798401 0.050936799
-0.02611593 -0.059798401 0.050936799
-0.064400911 0.003807148 -0.029223014
-0.02611593 -0.059798401 0.050936799
-0.057363827 0.0087630898 -0.028264791
-0.053367574 0.012766139 -0.029267546
-0.02611593 -0.059798401 0.050936799
-0.061326563 0.0037240251 -0.02528074
-0.02611593 -0.059798401 0.050936799
-0.02611593 -0.059798401 0.050936799
-0.068362728 0.0037853254 -0.027148526
-0.02611593 -0.059798401 0.050936799
-0.063403189 0.012838205 -0.031078957
-0.05836273 0.013783914 -0.029155575
-0.02611593 -0.059798401 0.050936799
-0.067347199 0.007781059 -0.027095243
-0.02611593 -0.059798401 0.050936799
-0.02611593 -0.059798401 0.050936799
-0.072335422 0.0057812533 -0.026037671
-0.02611593 -0.059798401 0.050936799
-0.067383736 0.012834473 -0.030004129
-0.061343461 0.013776591 -0.028099533
-0.02611593 -0.059798401 0.050936799
-0.071342543 0.0087952456 -0.027002063
-0.02611593 -0.059798401 0.050936799
-0.02611593 -0.059798401 0.050936799
-0.076297238 0.005759431 -0.023963183
-0.02611593 -0.059798401 0.050936799
-0.07136035 0.01383057 -0.028911296
-0.065305278 0.013754769 -0.026025053
-0.02611593 -0.059798401 0.050936799
-0.076318979 0.0097949319 -0.025890436
-0.02611593 -0.059798401 0.050936799
-0.02611593 -0.059798401 0.050936799
-0.082303084 0.0087985452 -0.024796046
-0.02611593 -0.059798401 0.050936799
-0.075322174 0.013808747 -0.026836809
-0.068289936 0.012747616 -0.024987042
-0.02611593 -0.059798401 0.050936799
-0.083354227 0.014873467 -0.028667793
-0.02611593 -0.059798401 0.050936799
-0.02611593 -0.059798401 0.050936799
-0.08830893 0.011837653 -0.025628909
-0.02611593 -0.059798401 0.050936799
-0.078284174 0.013783336 -0.024781119
-0.07533998 0.018844079 -0.028746042
-0.02611593 -0.059798401 0.050936799
-0.086297512 0.014829967 -0.025612436
-0.02611593 -0.059798401 0.050936799
-0.02611593 -0.059798401 0.050936799
-0.099383906 0.020984139 -0.031258021
-0.02611593 -0.059798401 0.050936799
-0.082245998 0.013761513 -0.022706628
-0.079301804 0.018822256 -0.026671551
-0.02611593 -0.059798401 0.050936799
-0.094332576 0.019912099 -0.028371006
-0.02611593 -0.059798401 0.050936799
-0.02611593 -0.059798401 0.050936799
-0.1022976 0.018904801 -0.026239369
-0.02611593 -0.059798401 0.050936799
-0.09029194 0.020861395 -0.026428822
-0.087351665 0.0249223 -0.030411765
-0.02611593 -0.059798401 0.050936799
-0.099286355 0.021893518 -0.02624169
-0.02611593 -0.059798401 0.050936799
-0.02611593 -0.059798401 0.050936799
-0.10828079 0.022925651 -0.026054554
-0.02611593 -0.059798401 0.050936799
-0.098312207 0.024925601 -0.028205752
-0.091313489 0.024900477 -0.028337285
-0.02611593 -0.059798401 0.050936799
-0.1042628 0.022893205 -0.025130056
-0.02611593 -0.059798401 0.050936799
-0.02611593 -0.059798401 0.050936799
-0.11321978 0.023889158 -0.022943597
-0.02611593 -0.059798401 0.050936799
-0.10326599 0.026907029 -0.026076432
-0.097285815 0.026903585 -0.027188838
-0.02611593 -0.059798401 0.050936799
-0.11427484 0.028964248 -0.026833359
-0.02611593 -0.059798401 0.050936799
-0.02611593 -0.059798401 0.050936799
-0.12525712 0.033003047 -0.026554588
-0.02611593 -0.059798401 0.050936799
-0.11228215 0.031974662 -0.027816553
-0.10428754 0.030946117 -0.027984895
-0.02611593 -0.059798401 0.050936799
-0.1212352 0.033970438 -0.025612071
-0.02611593 -0.059798401 0.050936799
-0.02611593 -0.059798401 0.050936799
-0.13523173 0.039037921 -0.026258573
-0.02611593 -0.059798401 0.050936799
-0.11825055 0.034977589 -0.02665009
-0.11227036 0.034974143 -0.027762499
-0.02611593 -0.059798401 0.050936799
-0.12719274 0.034955621 -0.023481995
-0.02611593 -0.059798401 0.050936799
-0.02611593 -0.059798401 0.050936799
-0.14419171 0.044051282 -0.024999704
-0.02611593 -0.059798401 0.050936799
-0.12520003 0.037966024 -0.024465177
-0.11722808 0.035955742 -0.025651202
-0.02611593 -0.059798401 0.050936799
-0.14220296 0.046061851 -0.02600091
-0.02611593 -0.059798401 0.050936799
-0.02611593 -0.059798401 0.050936799
-0.15616202 0.051093154 -0.024648093
-0.02611593 -0.059798401 0.050936799
-0.13619317 0.044022568 -0.025150031
-0.1252109 0.039983764 -0.025428802
-0.02611593 -0.059798401 0.050936799
-0.15217756 0.052096717 -0.025704894
-0.02611593 -0.059798401 0.050936799
-0.02611593 -0.059798401 0.050936799
-0.17414905 0.063191898 -0.026092965
-0.02611593 -0.059798401 0.050936799
-0.14817829 0.05208236 -0.025780056
-0.13618532 0.046022229 -0.025113996
-0.02611593 -0.059798401 0.050936799
-0.16815408 0.062170528 -0.026223727
-0.02611593 -0.059798401 0.050936799
-0.02611593 -0.059798401 0.050936799
-0.18506339 0.070175916 -0.022761155
-0.02611593 -0.059798401 0.050936799
-0.16114448 0.060127664 -0.025391635
-0.14715582 0.053060524 -0.024781168
-0.02611593 -0.059798401 0.050936799
-0.18209745 0.071201153 -0.024798829
-0.02611593 -0.059798401 0.050936799
-0.02611593 -0.059798401 0.050936799
-0.20602328 0.08426699 -0.023113951
-0.02611593 -0.059798401 0.050936799
-0.17510659 0.069176383 -0.024966396
-0.16416568 0.064173922 -0.027262501
-0.02611593 -0.059798401 0.050936799
-0.20106162 0.084285222 -0.025207233
-0.02611593 -0.059798401 0.050936799
-0.02611593 -0.059798401 0.050936799
-0.23096672 0.10237174 -0.023319516
-0.02611593 -0.059798401 0.050936799
-0.19306009 0.080239102 -0.024429966
-0.1801274 0.073229805 -0.02679969
-0.02611593 -0.059798401 0.050936799
-0.22198407 0.098340131 -0.023560707
-0.02611593 -0.059798401 0.050936799
-0.02611593 -0.059798401 0.050936799
-0.25886431 0.12245075 -0.021433353
-0.02611593 -0.059798401 0.050936799
-0.2170303 0.096358694 -0.025690015
-0.1960704 0.08226762 -0.025337223
-0.02611593 -0.059798401 0.050936799
-0.24791256 0.11543054 -0.022765838
-0.02611593 -0.059798401 0.050936799
-0.02611593 -0.059798401 0.050936799
-0.94232541 0.64931905 -0.19316481
-0.02611593 -0.059798401 0.050936799
-0.23893385 0.1103991 -0.023025047
-0.21701157 0.096340612 -0.024690364
-0.9489606 0.65100008 -0.17400369
-0.93758059 0.65155399 -0.20721799
-0.02611593 -0.059798401 0.050936799
-0.02611593 -0.059798401 0.050936799
-0.95157081 0.6496312 -0.15297246
-0.94320512 0.65121377 -0.18711203
-0.93583131 0.65479952 -0.22119677
-0.24593164 0.11544145 -0.023803085
-0.95818716 0.65129417 -0.13281167
-0.94482332 0.64784157 -0.16613561
-0.93845332 0.65043116 -0.20021957
-0.02611593 -0.059798401 0.050936799
-0.95381832 0.64490104 -0.11200205
-0.95744556 0.65254366 -0.14680769
-0.95008355 0.65312999 -0.1809465
-0.94072592 0.65270925 -0.21514091
-0.96443307 0.65159559 -0.092675671
-0.95905989 0.65017134 -0.12581328
-0.95969558 0.65580362 -0.16071132
-0.95134544 0.65338689 -0.19492294
-0.96205199 0.64820904 -0.071774423
-0.96667212 0.65283775 -0.10561568
-0.96331334 0.65243858 -0.13969733
-0.95995069 0.65303928 -0.17376095
-0.96467704 0.64785802 -0.051724836
-0.96928239 0.65146881 -0.084584408
-0.97091484 0.65308726 -0.11853609
-0.97157013 0.65372038 -0.15352422
-0.96627957 0.64848512 -0.030676343
-0.97089672 0.64909643 -0.06358999
-0.97953093 0.65475744 -0.098337725
-0.98318172 0.65640116 -0.13325147
-0.96690488 0.64812702 -0.010664329
-0.96851963 0.64471012 -0.042706765
-0.98312223 0.65337402 -0.076288037
-0.9897725 0.65502846 -0.11114541
-0.97052187 0.64977926 0.0094400942
-0.97812366 0.64938331 -0.022435553
-0.98272604 0.64897674 -0.054367572
-0.99636322 0.65365589 -0.089039363
-0.97013265 0.64839953 0.030414954
-0.97673851 0.64700025 -0.0014974922
-0.99032342 0.65062529 -0.033188321
-1.0029312 0.65326494 -0.065915614
-0.96078342 0.64200652 0.050130956
-0.9823364 0.64864153 0.019644167
-0.99391085 0.65024161 -0.011120617
-1.0095181 0.65289211 -0.043791533
-0.96040499 0.64264452 0.070142187
-0.98094738 0.64725828 0.04060024
-0.99749821 0.649858 0.010947093
-1.0150864 0.65249759 -0.020686589
-0.96303695 0.64531106 0.089246169
-0.98454952 0.64789259 0.0616863
-1.0030774 0.65148133 0.03308842
-1.0176631 0.65009266 0.0023259595
-0.9596709 0.64293885 0.10914699
-0.98118347 0.64552039 0.081587113
-1.0056649 0.65109408 0.055137333
-1.0202397 0.64768767 0.025338497
-0.96128827 0.64458394 0.12921382
-0.982786 0.64614755 0.1026356
-1.0082525 0.65070689 0.077186249
-1.0247856 0.64827126 0.049442329
-0.96090591 0.64622176 0.14924309
-0.97940123 0.64375722 0.12353607
-1.0078485 0.64830929 0.09914276
-1.0263625 0.64586282 0.072436079
-0.95156759 0.64184648 0.16799545
-0.97998524 0.64436269 0.14556542
-1.0144156 0.6529355 0.12135693
-1.0349184 0.64847857 0.095651455
-0.95118529 0.64348435 0.18802471
-0.98257971 0.6469931 0.16666874
-1.0060328 0.64551008 0.14307302
-1.0374686 0.64805514 0.11969969
-0.94881117 0.64311546 0.20798036
-0.97620332 0.64259231 0.1874768
-1.0046061 0.64409059 0.16602841
-1.0340316 0.64461076 0.14358112
-0.94046873 0.63974351 0.22676954
-0.97480643 0.64320874 0.20846891
-1.0101588 0.64769542 0.18920544
-1.0365815 0.64418739 0.16762936
-0.93808675 0.64137423 0.2467612
-0.97340947 0.64382505 0.22946103
-1.0067554 0.64528704 0.21110556
-1.0401051 0.64574915 0.1927321
-0.9317587 0.63902742 0.26460633
-0.96605206 0.63943893 0.24925064
-1.0082977 0.64685971 0.23517105
-1.0436283 0.64731097 0.21783483
-0.93037266 0.64166152 0.28463483
-0.96363264 0.64103335 0.27124164
-1.0068673 0.64644009 0.25814447
-1.0421643 0.64585537 0.24278954
-0.92202628 0.63928944 0.30344203
-0.95726717 0.63865042 0.29108608
-0.99449992 0.64001822 0.27880377
-1.0367277 0.64240378 0.26663339
-0.9166714 0.63892782 0.32234162
-0.95586628 0.6402666 0.31209621
-0.99902993 0.64460117 0.30297968
-1.031291 0.6389522 0.29047725
-0.91530406 0.64158005 0.34137046
-0.94948208 0.63786554 0.33294031
-1.0005684 0.64717364 0.32706317
-1.0298232 0.63849634 0.31544998
-0.90498072 0.63821906 0.3591224
-0.94608158 0.63947457 0.35391283
-0.99414289 0.64573628 0.34992462
-1.0253783 0.63704807 0.33934867
-0.8986221 0.63885367 0.37802124
-0.9416852 0.64008021 0.3748486
-0.98674399 0.64231366 0.37173155
-1.022892 0.63657057 0.36530229
-0.89328212 0.63950998 0.3959392
-0.93531185 0.6396969 0.39472908
-0.97241443 0.63592076 0.39035392
-1.0194244 0.63610756 0.39023742
-0.88790071 0.64112985 0.41587448
-0.92991567 0.6402989 0.41564602
-0.97093475 0.63846439 0.41538075
-1.0119804 0.63464844 0.41407973
-0.87661499 0.63780147 0.43160832
-0.92452335 0.63990104 0.43654498
-0.95957804 0.6340639 0.43509519
-1.00949 0.63517088 0.44005141
-0.86531049 0.63445503 0.44834182
-0.91615039 0.63951057 0.45638782
-0.96206319 0.64060313 0.4612689
-1.0020459 0.6337117 0.46389371
-0.8599478 0.63609302 0.46727747
-0.9058044 0.63713133 0.47515747
-0.94671893 0.63318866 0.48085409
-0.99657488 0.6342414 0.48880929
-0.85063118 0.63575321 0.48410258
-0.89545834 0.63475215 0.49392709
-0.93930835 0.63276565 0.50271511
-0.99208492 0.63475651 0.51474333
-0.84229565 0.63539886 0.50194621
-0.88708538 0.63436162 0.51376998
-0.92992079 0.63135362 0.52352083
-0.97966814 0.63129789 0.53745598
-0.83197916 0.63505548 0.51875246
-0.88265842 0.63794857 0.53575945
-0.92543775 0.63488632 0.5485093
-0.97615153 0.63379824 0.56444454
-0.82266253 0.63471568 0.5355776
-0.86933565 0.63457686 0.553455
-0.91900033 0.63644844 0.57142478
-0.9647119 0.63132501 0.58819366
-0.80841863 0.63041282 0.54923773
-0.86588585 0.63914919 0.57648093
-0.90071285 0.62907749 0.58795476
-0.9542644 0.6308549 0.61199766
-0.79910201 0.63007301 0.56606287
-0.84962767 0.63382125 0.59108514
-0.89032543 0.62766194 0.60874164
-0.9428398 0.62939954 0.63476515
-0.78385442 0.6267665 0.57972217
-0.83434653 0.62947863 0.60672575
-0.88091117 0.62823147 0.63058311
-0.93237358 0.62891144 0.65956873
-0.77553374 0.62743014 0.59658414
-0.8229928 0.62909549 0.6255126
-0.8675431 0.62682325 0.65031397
-0.91699493 0.62547833 0.68022573
-0.76619047 0.62907183 0.61444497
-0.81461197 0.63070476 0.64539152
-0.86106044 0.63034886 0.67526489
-0.910456 0.62894958 0.70817554
-0.74998438 0.624798 0.62606817
-0.79832715 0.62735838 0.66103142
-0.84769225 0.62894052 0.69499576
-0.89211929 0.624542 0.72675884
-0.7426182 0.62742871 0.64498425
-0.78403801 0.62501907 0.67672688
-0.83725166 0.63148808 0.7178542
-0.88260365 0.62702072 0.75363463
-0.7303583 0.62713236 0.65875405
-0.77563053 0.62860978 0.69764155
-0.82290637 0.62909454 0.73654866
-0.86328977 0.62162781 0.77118134
-0.71413356 0.62284052 0.67137694
-0.76134145 0.62627041 0.713337
-0.80167168 0.62276691 0.75004113
-0.85474741 0.62609172 0.79911166
-0.70382792 0.62451488 0.68721962
-0.74897993 0.62788332 0.73214114
-0.79121238 0.62529635 0.7738992
-0.83736521 0.62365121 0.81974906
-0.69055343 0.62319702 0.70195222
-0.73369098 0.62554038 0.74781781
-0.77781367 0.6268695 0.79468381
-0.81802076 0.62123966 0.83834958
-0.67729366 0.62289709 0.71570319
-0.72135228 0.62617159 0.7656042
-0.76246464 0.62547213 0.8133775
-0.80552435 0.62372577 0.86416936
-0.66108376 0.61962312 0.72734445
-0.70212811 0.62186891 0.7781707
-0.74808884 0.62605995 0.83312565
-0.78130901 0.61740547 0.87660587
-0.65077418 0.62229735 0.74320513
-0.68978542 0.62349993 0.79597521
-0.72977781 0.62468797 0.84976369
-0.77367961 0.62480015 0.9086076
-0.63651854 0.62099403 0.75691926
-0.6744886 0.62315667 0.81168789
-0.71344763 0.62330508 0.86743891
-0.74846447 0.61847633 0.92102528
-0.62323225 0.62267572 0.77170604
-0.66016895 0.62379873 0.82843709
-0.69611377 0.62291849 0.88511336
-0.7310704 0.61903518 0.94171679
-0.6109497 0.62336105 0.78649348
-0.64096355 0.61951417 0.84000391
-0.67877591 0.6235317 0.90280586
-0.71070361 0.61760187 0.96131617
-0.59375471 0.62110144 0.79713422
-0.62564009 0.62115252 0.8567524
-0.65752941 0.62020367 0.91635245
-0.69037026 0.61720449 0.97893429
-0.57755953 0.61884534 0.80779386
-0.60838503 0.61983836 0.87041014
-0.64019555 0.61981702 0.93402696
-0.66904104 0.61580366 0.99651551
-0.5652504 0.62151241 0.82361698
-0.59212583 0.6195277 0.88410473
-0.6218766 0.62044472 0.95070088
-0.64675331 0.61343563 1.0120606
-0.54709691 0.61828548 0.83222163
-0.5738709 0.61821002 0.89774376
-0.60451216 0.62303954 0.96942908
-0.62929136 0.61693978 1.0358052
-0.5318563 0.61799645 0.84493536
-0.55758512 0.61988097 0.91247404
-0.58326179 0.62071121 0.98299366
-0.60410571 0.61265182 1.0462596
-0.51758885 0.61969268 0.85870361
-0.53739464 0.61661065 0.92304051
-0.55815887 0.61449593 0.9894135
-0.5817728 0.61224723 1.0638402
-0.49943152 0.61746556 0.86732632
-0.52109015 0.61826348 0.93877041
-0.53981733 0.61610538 1.0071052
-0.56043172 0.61384588 1.0814755
-0.4842096 0.61719465 0.8790403
-0.50378191 0.62091249 0.95449966
-0.51664603 0.61284244 1.0166155
-0.53518212 0.6115033 1.0949649
-0.46700677 0.61693466 0.88971722
-0.48362884 0.61767846 0.9630667
-0.49636492 0.61349916 1.0312526
-0.51190543 0.61114943 1.1095276
-0.4517583 0.61864537 0.90246695
-0.46438503 0.61837494 0.97572327
-0.47604245 0.61511958 1.0479071
-0.48858744 0.61175919 1.1261077
-0.43361965 0.61643636 0.91008997
-0.44418666 0.61710435 0.98632574
-0.45095438 0.60992217 1.0533452
-0.46243545 0.60850358 1.134562
-0.41734868 0.61912525 0.92383862
-0.4259426 0.61780447 0.99900109
-0.42969215 0.61059332 1.0669639
-0.43906817 0.61207658 1.1531956
-0.40014583 0.61886525 0.93451548
-0.40476316 0.61654836 1.0085852
-0.40557724 0.60738117 1.0734565
-0.41385204 0.61076999 1.1647037
-0.37818125 0.61078769 0.93395793
-0.38360244 0.61531037 1.0171695
-0.38333395 0.6080668 1.0860568
-0.38669634 0.60851061 1.1731572
-0.36288357 0.61546159 0.94876111
-0.36435467 0.61700666 1.029844
-0.36295834 0.61365032 1.1047825
-0.36049515 0.60821837 1.1836649
-0.34469959 0.61521614 0.95841944
-0.34225816 0.6138196 1.0353746
-0.3369492 0.60752189 1.1061852
-0.33429396 0.60792601 1.1941727
-0.3255986 0.61303979 0.96402436
-0.32205194 0.61454874 1.0460131
-0.31657356 0.61310536 1.1249112
-0.30809274 0.60763377 1.2046804
-0.30834261 0.61674291 0.97677261
-0.29990616 0.61432511 1.053597
-0.28962475 0.60602778 1.123278
-0.28094792 0.60739213 1.2121705
-0.28920022 0.61553019 0.98439491
-0.2777831 0.61311966 1.0601631
-0.26730955 0.61065853 1.1389493
-0.25282982 0.60516542 1.2186059
-0.27103108 0.61630255 0.99307156
-0.25474682 0.60898352 1.0626578
-0.24222834 0.60847867 1.1434418
-0.22664343 0.60589105 1.2281319
-0.25186214 0.61707145 1.0017295
-0.23446873 0.61365771 1.0763674
-0.21886809 0.61506939 1.1611296
-0.19851749 0.60566396 1.2346033
-0.23080286 0.61392421 1.0052795
-0.21232297 0.61343402 1.0839514
-0.19378297 0.61388934 1.1656401
-0.17036892 0.60641855 1.2420926
-0.211694 0.61374748 1.0109204
-0.19023731 0.61226469 1.0885181
-0.16689029 0.606866 1.1610081
-0.14324281 0.60619497 1.2485828
-0.18971768 0.6086694 1.010417
-0.16710652 0.61305547 1.0951018
-0.14267695 0.6095804 1.1716074
-0.1142786 0.6031096 1.2469842
-0.17143922 0.61335063 1.0241641
-0.14406636 0.60991919 1.0976144
-0.1166935 0.60648757 1.1710647
-0.086103439 0.60584575 1.255509
-0.1503908 0.61222124 1.0267506
-0.12095429 0.61072791 1.1031983
-0.09145768 0.61018008 1.1826631
-0.057180636 0.60179663 1.251893
-0.13030478 0.61105919 1.0313549
-0.098800689 0.61250389 1.1108181
-0.065364905 0.61099613 1.1871908
-0.029046834 0.60356921 1.2584007
-0.10919631 0.61087531 1.0369583
-0.074775487 0.6103819 1.1123306
-0.039313488 0.61084861 1.1897013
-0.0010598153 0.60146904 1.2578385
-0.089102417 0.61171287 1.0415988
-0.051723529 0.61024505 1.1148973
-0.01328473 0.60971922 1.1911939
0.026999084 0.60331392 1.2603472
-0.067944705 0.61449224 1.0492556
-0.027653031 0.61008656 1.1184449
0.011661471 0.60666621 1.1886709
0.056008574 0.60219198 1.260784
-0.046964251 0.6104176 1.0487889
-0.0036652777 0.60800076 1.1179579
0.037547387 0.60266405 1.1831119
0.08375521 0.59630948 1.2481538
-0.024953479 0.6093207 1.0493572
0.018409515 0.60884929 1.1215612
0.064734519 0.60840333 1.1917095
0.11170872 0.59524536 1.2456104
-0.0047955774 0.6121037 1.0570327
0.042401195 0.60776329 1.1210922
0.089473851 0.600532 1.1790998
0.14083146 0.5990321 1.2511355
0.017215194 0.6110068 1.0576009
0.066374153 0.60669547 1.1196235
0.11672108 0.60721689 1.1907144
0.16875143 0.59900391 1.2466106
0.0382035 0.60893178 1.0571703
0.090343177 0.60462779 1.118137
0.14372006 0.60811979 1.1902251
0.19879518 0.60185969 1.2481004
0.060218193 0.60883474 1.0577565
0.1143841 0.6065051 1.1197213
0.16850863 0.60321188 1.1796687
0.22671123 0.60083163 1.2435575
0.082228951 0.6077379 1.0583248
0.13833833 0.60545534 1.1172531
0.19448514 0.6031366 1.1781805
0.25354865 0.59887975 1.2350169
0.10424365 0.60764086 1.0589111
0.16227385 0.6044237 1.1137849
0.22146934 0.60505748 1.1767095
0.28036737 0.59694606 1.2254765
0.1261756 0.60561651 1.0554626
0.1862468 0.60335577 1.1123163
0.24630319 0.60211295 1.1681883
0.30926841 0.59693241 1.2199334
0.14923543 0.60747933 1.0580655
0.21016359 0.60234213 1.1078488
0.27326474 0.60305208 1.1656998
0.33715492 0.59794027 1.2134273
0.17116739 0.60545504 1.054617
0.23516686 0.6042521 1.1074151
0.30025285 0.60597271 1.1642468
0.36293635 0.59604627 1.2019064
0.19422719 0.60731786 1.05722
0.26019278 0.60714376 1.1079988
0.32294422 0.60016251 1.1487116
0.39080018 0.59607244 1.1943827
0.21720427 0.60725337 1.055788
0.28406823 0.60516655 1.101514
0.34989098 0.60211957 1.1452413
0.41867185 0.59809822 1.1868949
0.23905739 0.60430157 1.048323
0.30690634 0.60322905 1.0930485
0.372605 0.59729111 1.1307238
0.44445327 0.59620416 1.175374
0.26312095 0.60716063 1.050925
0.33082709 0.60321528 1.0885987
0.40059689 0.60120797 1.1292701
0.41465479 0.52373779 1.0405754
0.28606451 0.60813218 1.0475119
0.35468772 0.60225588 1.0811322
0.42021 0.59448111 1.1097746
0.49811423 0.59833568 1.1564015
0.30791762 0.60518044 1.0400468
0.37858969 0.60226017 1.0756829
0.41563746 0.55285597 1.0340816
0.52182114 0.5965212 1.1409197
0.32979736 0.60421014 1.0336175
0.40456322 0.60620236 1.0732672
0.47511902 0.60239089 1.1028873
0.54759562 0.59764481 1.128453
0.35169578 0.60322177 1.0281878
0.4095495 0.57805407 1.0246482
0.50094581 0.60246044 1.0934017
0.57338887 0.59875035 1.1169863
0.37459797 0.60322964 1.0227573
0.45018336 0.60238165 1.0533372
0.52577662 0.60353339 1.083953
0.5981409 0.59889573 1.103521
0.39645505 0.60127771 1.0153102
0.47402918 0.60244018 1.0448889
0.54437518 0.59782797 1.0634948
0.62081057 0.597121 1.0860584
0.42248863 0.60616547 1.0159115
0.49581525 0.60156047 1.0334612
0.57020968 0.59989709 1.0540452
0.64658898 0.59924448 1.0736101
0.44428951 0.60426778 1.0054654
0.51964235 0.60163713 1.0240133
0.59189826 0.59810787 1.0376012
0.668244 0.59849131 1.0551847
0.47028175 0.60819179 1.0040492
0.54242826 0.60075372 1.0125668
0.61260575 0.59630418 1.0221757
0.69198143 0.59965819 1.0407565
0.49001899 0.60435593 0.99060571
0.56523681 0.60085207 1.002138
0.63948542 0.60033321 1.0147427
0.71570015 0.60084325 1.0253286
0.51080137 0.60247982 0.97917885
0.58907181 0.6029284 0.99272609
0.65706933 0.59564936 0.99332154
0.73633265 0.59911197 1.0059044
0.53569227 0.60449833 0.97274721
0.61082047 0.60208476 0.97929907
0.6900838 0.60554731 0.99188197
0.75799167 0.59935862 0.98749715
0.55543339 0.60166222 0.95932174
0.63463277 0.60317934 0.96886951
0.70769429 0.60284501 0.97149652
0.7837593 0.60349977 0.97408509
0.58032441 0.60368067 0.95289004
0.6553629 0.60235739 0.95446169
0.73145044 0.60399389 0.95806789
0.80133617 0.6018334 0.95171827
0.60211438 0.60380065 0.94148028
0.67813796 0.60349172 0.94205159
0.74904215 0.60130966 0.93668282
0.81790942 0.59917086 0.92935222
0.62800914 0.6068154 0.93504792
0.69987184 0.60366601 0.92764294
0.76769775 0.60056728 0.9183138
0.83955353 0.60043544 0.90996325
0.64669424 0.60403711 0.91864222
0.71545607 0.59898937 0.9062593
0.79246163 0.60371208 0.90490252
0.85919803 0.60170722 0.89061189
0.66950679 0.60513532 0.90823138
0.74028003 0.6030798 0.89586502
0.81109852 0.60298777 0.88553393
0.87884265 0.60297894 0.87126058
0.69023687 0.60431337 0.89382356
0.76097262 0.60229409 0.87945777
0.83075774 0.60324162 0.86716419
0.89542371 0.60231602 0.84893054
0.71301198 0.60544771 0.88141346
0.78166926 0.60250819 0.86306864
0.85042107 0.60449529 0.84881252
0.91403091 0.60362756 0.82759869
0.73271954 0.60364765 0.86600673
0.79934371 0.60175127 0.84571815
0.86701691 0.6028145 0.82746416
0.93063468 0.60394645 0.80628633
0.7534349 0.60384357 0.85061717
0.81899917 0.60100514 0.82733041
0.88463914 0.60311168 0.80713272
0.94111145 0.60039604 0.77901673
0.77619123 0.60499603 0.83720744
0.83563644 0.60028809 0.80799937
0.89921665 0.60145611 0.78482229
0.96176362 0.60366386 0.75968266
0.7948429 0.60325384 0.81882048
0.85734057 0.60249817 0.79162747
0.92295116 0.60664052 0.76946646
0.97733402 0.60502231 0.73640776
0.81351715 0.60249335 0.80145121
0.87293279 0.59982115 0.77027982
0.93853235 0.60598117 0.74715525
0.99190062 0.60538447 0.71313375
0.83932614 0.60759813 0.79005641
0.8966859 0.60498738 0.75592375
0.95615852 0.60727823 0.72684181
1.0054674 0.60575026 0.68987852
0.85593671 0.60489935 0.76968974
0.91328567 0.60430646 0.73459339
0.96969873 0.60566247 0.70255089
1.0190195 0.60713398 0.66564149
0.87152892 0.60222232 0.74834216
0.92584085 0.60167634 0.71130288
0.99037361 0.60991204 0.68423444
1.0315639 0.60652173 0.6413874
0.89221066 0.60345435 0.73097134
0.95057511 0.60685706 0.69592828
0.99887341 0.60735053 0.65802014
1.0430937 0.60693085 0.61617041
0.91084754 0.60273004 0.71160275
0.96717876 0.60717589 0.67461598
1.0144399 0.60770911 0.63472724
1.0556645 0.60830003 0.59295195
0.93355948 0.60693616 0.69524801
0.9817602 0.60652024 0.65232348
1.0270069 0.60807854 0.61149073
1.0661945 0.60871279 0.56775367
0.94813305 0.60428083 0.67291963
0.99634552 0.60686433 0.63004917
1.0415773 0.60944057 0.58823472
1.074702 0.60815096 0.54157537
0.96373308 0.60360342 0.65160805
1.0169977 0.61013228 0.61071497
1.0490774 0.60688275 0.56203914
1.0811875 0.60661471 0.51441693
0.99147451 0.61077309 0.63621312
1.0285199 0.60854167 0.58546197
1.0586035 0.60629928 0.53684163
1.0927626 0.60898727 0.49123529
1.004011 0.60816103 0.61192292
1.0420866 0.60890746 0.56220669
1.0711558 0.60768658 0.51262355
1.1022779 0.61042148 0.46507424
1.0216184 0.60947621 0.59060985
1.0596977 0.61122245 0.54091161
1.0897748 0.6119976 0.49134573
1.111812 0.61183769 0.4399128
1.040207 0.61080587 0.56827825
1.070224 0.61063534 0.51569539
1.0982863 0.61243558 0.46518543
1.1122756 0.60934114 0.41184944
1.0557736 0.61116445 0.54498541
1.0837759 0.61201912 0.49145848
1.1047906 0.61088103 0.43902665
1.123836 0.6127317 0.38768613
1.068314 0.6095522 0.52071321
1.0943019 0.61143202 0.46624219
1.1143206 0.61129737 0.41384724
1.1283443 0.61218417 0.36158299
1.0858878 0.61190343 0.49741888
1.1038095 0.61086655 0.44004512
1.1228361 0.61273527 0.38770491
1.1308304 0.61066216 0.33449975
1.0923467 0.60838538 0.46922472
1.115339 0.61127567 0.41482809
1.1243144 0.60921723 0.36060444
1.1373689 0.61308891 0.30941272
1.1078984 0.60976195 0.44495022
1.1218433 0.6097213 0.38866934
1.1288041 0.60868782 0.33350161
1.1418812 0.61354131 0.28332758
1.1254761 0.61311293 0.42167386
1.1333581 0.61114836 0.36247069
1.1393418 0.61110026 0.30833942
1.1463974 0.61499351 0.25726044
1.1349648 0.61256558 0.39447707
1.1428922 0.6125645 0.33730927
1.1448541 0.61154896 0.2822355
1.1489102 0.61545306 0.23121288
1.1494981 0.61396384 0.36922172
1.1503813 0.61202437 0.31015009
1.1493664 0.61200136 0.25615036
1.1544337 0.61890137 0.20516302
1.161994 0.61540538 0.3420046
1.1588781 0.61348027 0.28300813
1.1518564 0.61147922 0.22908512
0.93699712 0.49263901 0.15493304
1.1694791 0.61386538 0.31482738
1.1613601 0.61095852 0.25590685
1.1563686 0.61193156 0.20299998
0.72075915 0.36919159 0.11473492
1.1739236 0.61137253 0.28568923
1.1748867 0.6153779 0.22972466
0.82245833 0.42233151 0.14080092
0.72246313 0.37047368 0.098720774
1.1894494 0.61578482 0.25946945
1.1472216 0.59805667 0.19791853
0.71969438 0.36223254 0.11262826
0.68905753 0.35192093 0.081004612
1.1928942 0.6132955 0.23035008
0.80329347 0.4034934 0.13581729
0.72237951 0.36352915 0.095595658
0.63160139 0.31945673 0.063487165
1.0386324 0.52476436 0.1816203
0.72061449 0.35628423 0.10950236
0.72306103 0.36383304 0.07858263
0.62632835 0.31672841 0.049531806
0.74394816 0.36089337 0.12615451
0.72129208 0.35558835 0.092471316
0.70370299 0.35321063 0.061747216
0.61606717 0.31200033 0.036634024
0.71450436 0.3423624 0.10636387
0.73199141 0.36085552 0.075360477
0.65931332 0.32866222 0.046128958
0.62180096 0.31624943 0.021598438
0.71917039 0.34366992 0.088294044
0.72663957 0.35719973 0.057388458
0.64700717 0.32197782 0.031233396
0.62053907 0.31650627 0.0076219738
0.72185159 0.34396669 0.071243428
0.72833973 0.35748199 0.041356303
0.65574825 0.32821581 0.016177477
0.63028389 0.32374051 -0.0074347146
0.72151065 0.34329242 0.053231508
0.73101002 0.35979646 0.023342066
0.67847687 0.34143859 -0.0010147057
0.64702827 0.33596694 -0.023532506
0.7231881 0.34259295 0.03618167
0.73770225 0.36307839 0.006270349
0.7232002 0.36863425 -0.021367002
0.72573817 0.38512728 -0.049125582
0.72785801 0.34490028 0.018129857
0.73836899 0.36440021 -0.011724323
0.73787707 0.37792259 -0.04048026
0.74741477 0.39940771 -0.069279939
0.73451281 0.34821835 -0.00094118714
0.74402386 0.36772189 -0.030776571
0.74255478 0.38222957 -0.058496036
0.74810803 0.40271112 -0.086238921
0.73317206 0.34754768 -0.018934309
0.74369079 0.36904731 -0.048752457
0.74623281 0.38654011 -0.076493025
0.7467978 0.40502191 -0.10317833
0.7408306 0.35186195 -0.038006127
0.74636114 0.37136179 -0.066766687
0.74489993 0.38786921 -0.094450116
0.75545311 0.41335002 -0.12319651
0.73947495 0.35220924 -0.0569809
0.75200516 0.37670121 -0.08678256
0.75156641 0.39418671 -0.1134671
0.75813526 0.41866401 -0.1411567
0.74312633 0.35453826 -0.076013573
0.74766499 0.37604129 -0.10471931
0.75522965 0.39951518 -0.13244572
0.76080251 0.42499587 -0.16009851
0.74475944 0.35689256 -0.096008345
0.75132424 0.38036999 -0.12371596
0.76087767 0.40585443 -0.15244357
0.76545066 0.43133873 -0.18007758
0.75338429 0.36223924 -0.11708025
0.7569496 0.38572747 -0.14473149
0.76751065 0.41320798 -0.17344186
0.77010286 0.43868136 -0.20003864
0.74902534 0.36159748 -0.13601667
0.75958639 0.38907799 -0.16472705
0.7711404 0.41957247 -0.1944018
0.20697695 0.08772964 -0.027785368
0.75964284 0.36995459 -0.15807177
0.76820427 0.39744228 -0.18674454
0.76780784 0.42090869 -0.2123213
0.20387998 0.086831033 -0.032745328
0.77322626 0.37933695 -0.18216452
0.7738148 0.40381771 -0.20874172
0.20886728 0.083813608 -0.032893337
-0.02611593 -0.059798401 0.050936799
0.74692184 0.36768553 -0.19588743
0.21385066 0.079796337 -0.033059366
0.19482362 0.076883122 -0.033756051
0.17582618 0.071934074 -0.032489471
0.22182259 0.077786051 -0.034245376
0.20079201 0.073880181 -0.034922518
-0.02611593 -0.059798401 0.050936799
-0.02611593 -0.059798401 0.050936799
0.19482875 0.063831069 -0.030991316
-0.02611593 -0.059798401 0.050936799
0.16578482 0.06097183 -0.032499768
0.15875651 0.063032791 -0.034331515
-0.02611593 -0.059798401 0.050936799
0.16577996 0.054954764 -0.031608213
-0.02611593 -0.059798401 0.050936799
-0.02611593 -0.059798401 0.050936799
0.17074855 0.051955424 -0.032755889
-0.02611593 -0.059798401 0.050936799
0.14374171 0.049052835 -0.032302599
0.13673212 0.051095702 -0.03313468
-0.02611593 -0.059798401 0.050936799
0.14572562 0.045046333 -0.032412253
-0.02611593 -0.059798401 0.050936799
-0.02611593 -0.059798401 0.050936799
0.14470226 0.03905094 -0.032501575
-0.02611593 -0.059798401 0.050936799
0.12572837 0.040100869 -0.031126868
0.11773375 0.041129418 -0.030958526
-0.02611593 -0.059798401 0.050936799
0.12669376 0.036116056 -0.032217398
-0.02611593 -0.059798401 0.050936799
-0.02611593 -0.059798401 0.050936799
0.1217007 0.028099176 -0.030268267
-0.02611593 -0.059798401 0.050936799
0.11366956 0.03418114 -0.033008814
0.10866354 0.037216663 -0.033860471
-0.02611593 -0.059798401 0.050936799
0.1126501 0.029185575 -0.033080116
-0.02611593 -0.059798401 0.050936799
-0.02611593 -0.059798401 0.050936799
0.10866079 0.022164945 -0.031131763
-0.02611593 -0.059798401 0.050936799
0.09569367 0.025193004 -0.029833771
0.097627178 0.032275077 -0.034743533
-0.02611593 -0.059798401 0.050936799
0.094674215 0.020197446 -0.029905073
-0.02611593 -0.059798401 0.050936799
-0.02611593 -0.059798401 0.050936799
0.091651194 0.014209229 -0.029956814
-0.02611593 -0.059798401 0.050936799
0.086642154 0.02126216 -0.031736054
0.083639696 0.025290336 -0.032607261
-0.02611593 -0.059798401 0.050936799
0.082656763 0.01524136 -0.029769678
-0.02611593 -0.059798401 0.050936799
-0.02611593 -0.059798401 0.050936799
0.083603434 0.011274626 -0.031859867
-0.02611593 -0.059798401 0.050936799
0.074658237 0.015270071 -0.029619355
0.072655588 0.019294661 -0.03050936
-0.02611593 -0.059798401 0.050936799
0.075590096 0.012321257 -0.032691177
-0.02611593 -0.059798401 0.050936799
-0.02611593 -0.059798401 0.050936799
0.073589548 0.0073112003 -0.031744037
-0.02611593 -0.059798401 0.050936799
0.066629186 0.01231738 -0.030522741
0.064641342 0.01532405 -0.030431107
-0.02611593 -0.059798401 0.050936799
0.065594949 0.0083397422 -0.031575691
-0.02611593 -0.059798401 0.050936799
-0.02611593 -0.059798401 0.050936799
0.062590659 0.0023334362 -0.030627765
-0.02611593 -0.059798401 0.050936799
0.057615127 0.0083503649 -0.030425701
0.05761604 0.0133676 -0.031335276
-0.02611593 -0.059798401 0.050936799
0.056599602 0.0043546306 -0.030478988
-0.02611593 -0.059798401 0.050936799
-0.02611593 -0.059798401 0.050936799
0.056546446 0.00039149006 -0.03255038
-0.02611593 -0.059798401 0.050936799
0.054559514 0.0084153991 -0.033368316
0.051590573 0.011407561 -0.032258224
-0.02611593 -0.059798401 0.050936799
0.050555401 0.0024126812 -0.032401599
-0.02611593 -0.059798401 0.050936799
-0.02611593 -0.059798401 0.050936799
0.046570014 -0.0036081215 -0.030435231
-0.02611593 -0.059798401 0.050936799
0.045582891 0.004412198 -0.031271957
0.042628743 0.0063864402 -0.029180221
-0.02611593 -0.059798401 0.050936799
0.0415975 -0.0016086048 -0.029305577
-0.02611593 -0.059798401 0.050936799
-0.02611593 -0.059798401 0.050936799
0.037593395 -0.0076113185 -0.028338868
-0.02611593 -0.059798401 0.050936799
0.036621071 -0.0006089221 -0.028193951
0.037607007 0.0054226508 -0.030103948
-0.02611593 -0.059798401 0.050936799
0.037542071 -0.0015399819 -0.032229394
-0.02611593 -0.059798401 0.050936799
-0.02611593 -0.059798401 0.050936799
0.032571658 -0.0085751116 -0.029262595
-0.02611593 -0.059798401 0.050936799
0.031599335 -0.0015727156 -0.029117674
0.029645 0.00039794552 -0.02704474
-0.02611593 -0.059798401 0.050936799
0.029583989 -0.0055648568 -0.02915217
-0.02611593 -0.059798401 0.050936799
-0.02611593 -0.059798401 0.050936799
0.027549922 -0.0095389122 -0.030186322
-0.02611593 -0.059798401 0.050936799
0.026592396 -0.0035544322 -0.02905976
0.026608108 0.00044489035 -0.028987687
-0.02611593 -0.059798401 0.050936799
0.025528554 -0.0054962337 -0.032075986
-0.02611593 -0.059798401 0.050936799
-0.02611593 -0.059798401 0.050936799
0.019595768 -0.012563957 -0.027091071
-0.02611593 -0.059798401 0.050936799
0.023540702 -0.002489564 -0.031984344
0.022571392 0.00049542426 -0.030911848
-0.02611593 -0.059798401 0.050936799
0.017603995 -0.010557118 -0.027017456
-0.02611593 -0.059798401 0.050936799
-0.02611593 -0.059798401 0.050936799
0.016558876 -0.012517012 -0.029034019
-0.02611593 -0.059798401 0.050936799
0.018533761 -0.0044712806 -0.031926431
0.01854947 -0.00047196541 -0.031854358
-0.02611593 -0.059798401 0.050936799
0.01356728 -0.010506583 -0.028941613
-0.02611593 -0.059798401 0.050936799
-0.02611593 -0.059798401 0.050936799
-0.02611593 -0.059798401 0.050936799
-0.02611593 -0.059798401 0.050936799
0.011579428 -0.0074999174 -0.028849974
0.013565185 -0.0014719368 -0.030778769
-0.02611593 -0.059798401 0.050936799
0.0085829906 -0.011506558 -0.027866017
-0.02611593 -0.059798401 0.050936799
-0.02611593 -0.059798401 0.050936799
-0.02611593 -0.059798401 0.050936799
-0.02611593 -0.059798401 0.050936799
-0.02611593 -0.059798401 0.050936799
0.0095432661 -0.0024393192 -0.031721279
-0.02611593 -0.059798401 0.050936799
-0.02611593 -0.059798401 0.050936799
-0.02611593 -0.059798401 0.050936799
-0.02611593 -0.059798401 0.050936799
0.0034824358 -0.013397827 -0.032806404
-0.02611593 -0.059798401 0.050936799
0.0045058196 -0.0074024387 -0.032717086
0.0055548637 -0.0044427137 -0.030682504
-0.02611593 -0.059798401 0.050936799
0.0015093801 -0.01140908 -0.031733118
-0.02611593 -0.059798401 0.050936799
-0.02611593 -0.059798401 0.050936799
-0.02611593 -0.059798401 0.050936799
-0.02611593 -0.059798401 0.050936799
-0.02611593 -0.059798401 0.050936799
0.00151815 -0.0043921801 -0.032606658
-0.02611593 -0.059798401 0.050936799
-0.02611593 -0.059798401 0.050936799
-0.02611593 -0.059798401 0.050936799
-0.02611593 -0.059798401 0.050936799
-0.02611593 -0.059798401 0.050936799
-0.02611593 -0.059798401 0.050936799
-0.02611593 -0.059798401 0.050936799
-0.0024663224 -0.005395744 -0.031549849
-0.02611593 -0.059798401 0.050936799
-0.02611593 -0.059798401 0.050936799
-0.02611593 -0.059798401 0.050936799
-0.02611593 -0.059798401 0.050936799
-0.02611593 -0.059798401 0.050936799
-0.02611593 -0.059798401 0.050936799
-0.02611593 -0.059798401 0.050936799
-0.0064843139 -0.0053632995 -0.032474354
-0.02611593 -0.059798401 0.050936799
-0.02611593 -0.059798401 0.050936799
-0.02611593 -0.059798401 0.050936799
-0.02611593 -0.059798401 0.050936799
-0.02611593 -0.059798401 0.050936799
-0.02611593 -0.059798401 0.050936799
-0.02611593 -0.059798401 0.050936799
-0.009468969 -0.0063704522 -0.031436332
-0.02611593 -0.059798401 0.050936799
-0.02611593 -0.059798401 0.050936799
-0.02611593 -0.059798401 0.050936799
-0.02611593 -0.059798401 0.050936799
-0.02611593 -0.059798401 0.050936799
-0.02611593 -0.059798401 0.050936799
-0.02611593 -0.059798401 0.050936799
-0.02611593 -0.059798401 0.050936799
-0.02611593 -0.059798401 0.050936799
-0.02611593 -0.059798401 0.050936799
-0.02611593 -0.059798401 0.050936799
-0.02611593 -0.059798401 0.050936799
-0.02611593 -0.059798401 0.050936799
-0.02611593 -0.059798401 0.050936799
-0.02611593 -0.059798401 0.050936799
-0.02611593 -0.059798401 0.050936799
-0.02611593 -0.059798401 0.050936799
-0.02611593 -0.059798401 0.050936799
-0.02611593 -0.059798401 0.050936799
-0.02611593 -0.059798401 0.050936799
-0.02611593 -0.059798401 0.050936799
-0.02611593 -0.059798401 0.050936799
-0.02611593 -0.059798401 0.050936799
-0.02611593 -0.059798401 0.050936799
-0.02611593 -0.059798401 0.050936799
-0.02611593 -0.059798401 0.050936799
-0.02611593 -0.059798401 0.050936799
-0.02611593 -0.059798401 0.050936799
-0.02611593 -0.059798401 0.050936799
-0.02611593 -0.059798401 0.050936799
-0.02611593 -0.059798401 0.050936799
-0.02611593 -0.059798401 0.050936799
-0.02611593 -0.059798401 0.050936799
-0.02611593 -0.059798401 0.050936799
-0.02611593 -0.059798401 0.050936799
