# .PCD v0.7 - Point Cloud Data file format
VERSION 0.7
FIELDS x y z
SIZE 4 4 4
TYPE F F F
COUNT 1 1 1
WIDTH 1396
HEIGHT 1
VIEWPOINT 0 0 0 1 0 0 0
POINTS 1396
DATA ascii
-1.0719477 0.065334037 -0.0602566
-1.1176425 0.10945442 0.054435901
-1.1182779 0.096017547 0.023194149
-1.0978875 0.080469489 -0.0064789206
-1.0955313 0.065022215 -0.03781309
-1.1431915 0.11313099 0.077988736
-1.1338178 0.097640499 0.047522698
-1.1084361 0.080074832 0.017719645
-1.1010848 0.063609779 -0.013726495
-1.15769 0.11571401 0.10431584
-1.1533196 0.099241622 0.073925734
-1.1269794 0.08070872 0.042086542
-1.1146331 0.063225888 0.010528445
-1.1671937 0.11727922 0.13053095
-1.1588651 0.099828854 0.098048359
-1.1504991 0.082342274 0.067565084
-1.1301619 0.062831081 0.035820618
-1.1836731 0.11985133 0.15789531
-1.1663729 0.10038707 0.1242079
-1.1530306 0.081900813 0.092612982
-1.145691 0.062436279 0.061112799
-1.1911584 0.1213913 0.18507251
-1.1818566 0.10195574 0.15153542
-1.1665411 0.081480749 0.11886723
-1.1582245 0.061030876 0.086330585
-1.2026201 0.12392737 0.21334258
-1.1943262 0.10249574 0.17978823
-1.1900047 0.083060049 0.14734477
-1.1587412 0.059564315 0.11232254
-1.2230388 0.12745938 0.24379909
-1.2087724 0.10402465 0.20909631
-1.1944796 0.082571499 0.17542922
-1.1842084 0.06015097 0.14081962
-0.02611593 -0.059798401 0.050936799
-1.1992913 0.10252221 0.23490036
-1.2129292 0.083114944 0.20479444
-1.2036619 0.059698164 0.17018561
-0.02611593 -0.059798401 0.050936799
-1.2346473 0.10705362 0.26865572
-1.2223805 0.083626069 0.23399054
-0.02611593 -0.059798401 0.050936799
-0.02611593 -0.059798401 0.050936799
-0.02611593 -0.059798401 0.050936799
-1.2228599 0.082123347 0.26198182
-1.2175958 0.057721082 0.22743014
-1.2925704 0.14039983 0.37337887
-0.02611593 -0.059798401 0.050936799
-1.267158 0.086632781 0.29890528
-0.02611593 -0.059798401 0.050936799
-0.02611593 -0.059798401 0.050936799
-1.3007046 0.11546896 0.37107944
-0.02611593 -0.059798401 0.050936799
-0.02611593 -0.059798401 0.050936799
-3.1272588 0.43454054 0.99025899
-1.368754 0.12484664 0.42053989
-1.2929096 0.087535471 0.36542627
-0.02611593 -0.059798401 0.050936799
-3.0851173 0.43027234 1.0514135
-3.1236951 0.36670053 0.97996157
-0.02611593 -0.059798401 0.050936799
-1.2950833 0.057602022 0.36192432
-3.1452389 0.44173804 1.1497799
-3.0894625 0.3613708 1.0462468
-3.1220644 0.29679567 0.9736644
-0.02611593 -0.059798401 0.050936799
-3.222192 0.45711929 1.2565351
-3.147615 0.36984789 1.1435218
-3.080878 0.28947735 1.0377827
-3.1314399 0.21991342 0.96844745
-3.2821746 0.47045806 1.3619351
-3.2106502 0.37923422 1.2469069
-3.1459661 0.29490772 1.1391339
-3.0772974 0.21158479 1.0303041
-3.353941 0.48564047 1.478593
-3.2825487 0.38952607 1.3574766
-3.2199135 0.30224341 1.2476878
-3.1423826 0.21299773 1.1325829
-3.4395287 0.50270998 1.6045468
-3.3652129 0.40163994 1.480285
-3.2788756 0.30652583 1.3559059
-3.2232695 0.2162869 1.2451949
-3.5001886 0.51674455 1.7269779
-3.4487605 0.41464871 1.6091282
-3.3635361 0.3146295 1.4796795
-3.2901297 0.21748996 1.3595073
-4.3132305 0.65775537 2.2379241
-5.1519952 0.65286463 2.5256371
-3.447062 0.32360277 1.6104501
-3.3658488 0.22059835 1.4810224
-4.228817 0.64804786 2.314194
-4.991878 0.63312131 2.5873032
-4.8224893 0.47634089 2.3702223
-3.4513564 0.22454348 1.6137396
-3.47491 0.52662337 2.0057778
-4.7031884 0.59519893 2.5752079
-4.7129459 0.46239963 2.4539473
-4.8228822 0.33320239 2.3766425
-4.1184549 0.64239013 2.4930861
-3.4751382 0.42547786 2.012955
-4.5757937 0.44572023 2.5170994
-4.6756759 0.31643283 2.4426053
-4.5498295 0.7229867 2.887754
-4.6920428 0.59923762 2.8481648
-3.4624367 0.32134029 2.0168347
-4.5770712 0.30347663 2.5295541
-3.1629138 0.4884004 2.1162825
-4.5707641 0.58550656 2.9176695
-3.5424762 0.32983249 2.1735399
-3.4576263 0.2111059 2.0277543
-4.2908287 0.69298869 2.9973996
-3.1501856 0.38624445 2.1211979
-4.5639486 0.44314378 2.9349723
-4.6607103 0.30168486 2.8692031
-2.6137493 0.40170485 1.923367
-4.3550696 0.56303197 3.0632739
-3.2558601 0.29805145 2.2096112
-3.5197155 0.2096246 2.2899787
-4.1356831 0.68235117 3.1653593
-2.6167309 0.3153865 1.9408674
-4.3323622 0.41770276 3.0752239
-4.4249744 0.27608475 3.0173764
-4.0285954 0.67186886 3.2241848
-2.7746928 0.34120047 2.1523635
-2.6067975 0.22709423 1.9540887
-4.3076539 0.26333171 3.0889735
-3.926466 0.66236806 3.2851214
-2.747196 0.34065986 2.2318659
-2.7647161 0.24483719 2.1694393
-2.605736 0.13269058 1.9753684
-3.8312376 0.65380186 3.3512058
-2.6941123 0.33640647 2.2898147
-4.008543 0.38470611 3.2816343
-2.7409194 0.14156958 2.178129
-1.8953533 0.2950803 1.7449274
-2.3617325 0.29046479 2.1026971
-3.9082255 0.37503168 3.3526051
-3.9717987 0.23025583 3.2971578
-1.8477747 0.29133332 1.7759794
-1.876479 0.22086188 1.7522341
-1.9101412 0.15137212 1.7305999
-2.3984628 0.11266044 2.0981669
-1.8384646 0.2950556 1.8448958
-1.8249425 0.21613689 1.7811935
-1.8565861 0.14662182 1.7605214
-1.8951616 0.075059876 1.7439437
-2.0016818 0.33321956 2.0937264
-1.9176635 0.23340286 1.9533001
-1.8236597 0.1446027 1.8098851
-1.8346826 0.070356809 1.769735
-2.1919639 0.3786144 2.3912108
-2.0924528 0.26517683 2.2262399
-2.0006604 0.16554849 2.0736675
-1.9057809 0.073853739 1.9241818
-3.2871075 0.61177129 3.7333875
-3.3500283 0.47037974 3.7120008
-2.2007573 0.19072933 2.384975
-2.0884562 0.086478725 2.2069261
-3.1940391 0.60537469 3.7905486
-3.260772 0.46381658 3.7792337
-3.3079991 0.32165721 3.7415338
-3.3592041 0.17547667 3.7058358
-3.1049142 0.59893811 3.8507841
-3.1636899 0.45638776 3.8373013
-3.2147253 0.31506163 3.809691
-3.2638783 0.16781983 3.7769368
-3.0206494 0.59439272 3.9181471
-3.0686071 0.44896603 3.8954065
-3.11953 0.30753142 3.8737941
-3.1656649 0.16026074 3.8419831
-2.9305806 0.58800685 3.9753644
-2.9803843 0.44344249 3.9606771
-3.0214109 0.30006281 3.9338424
-3.0605469 0.152767 3.9018998
-2.845372 0.58351195 4.0397096
-2.8872228 0.43695548 4.0228367
-2.9243059 0.29361567 3.992928
-2.9691787 0.14608815 3.9750931
-2.7523413 0.5771516 4.0948715
-2.7911925 0.43058431 4.0779419
-2.8261676 0.28612897 4.0539756
-2.8680558 0.13960859 4.0351033
-2.6642458 0.5727545 4.1531625
-2.7039471 0.42604619 4.144249
-2.7329643 0.28060555 4.1181526
-2.7659371 0.13212565 4.0950761
-2.5760751 0.56828517 4.2154517
-2.6117437 0.42052636 4.2084446
-2.6358409 0.27414039 4.1782379
-2.6686823 0.12553379 4.1621585
-2.4860024 0.56289911 4.2726874
-2.5137699 0.41420227 4.2605133
-2.5435629 0.26854825 4.2464314
-2.5714612 0.11997798 4.2272601
-2.3939638 0.55854195 4.3279042
-2.4226036 0.40872228 4.3227286
-2.4474163 0.26306838 4.3075533
-2.4722779 0.11445116 4.2903247
-2.309691 0.55599612 4.3953032
-2.3294904 0.40428913 4.3819246
-2.3493261 0.25763559 4.3656378
-2.373076 0.10890624 4.3543887
-2.2166378 0.5506174 4.4514828
-2.2353582 0.39983433 4.4421024
-2.2579839 0.25399244 4.4368858
-2.2738364 0.10332515 4.4204516
-2.1236367 0.5462929 4.5046811
-2.1421328 0.3952927 4.507297
-2.1607816 0.24845469 4.500988
-2.1707287 0.097856343 4.4794426
-2.0344248 0.5427835 4.5689688
-2.0479968 0.39183775 4.5674925
-2.0597296 0.2430473 4.5570168
-2.0733538 0.093155622 4.5525594
-1.9403487 0.53838295 4.6261473
-1.9499067 0.38640505 4.625577
-1.9633694 0.23936811 4.6291709
-1.9721109 0.088567197 4.6186028
-0.98625112 0.25399804 2.4944174
-0.9885689 0.17301896 2.4929955
-0.99379969 0.094977811 2.495683
-1.866056 0.084141694 4.6745563
-0.9043324 0.24067934 2.4386239
-0.90657824 0.16364533 2.4402733
-0.90600801 0.08778128 2.4318874
-1.7637904 0.080531403 4.7415986
-0.8264277 0.2283929 2.3819239
-0.82380158 0.1524674 2.3764997
-0.82502806 0.080428988 2.3782201
-0.82524377 0.0063692033 2.3808851
-0.75440162 0.21801917 2.3313706
-0.74878693 0.14410064 2.3249264
-0.74421656 0.073239498 2.3155556
-0.83777201 0.010141756 2.6182685
-0.68343943 0.20570359 2.2778013
-0.67590696 0.13486783 2.2663748
-0.67117494 0.066861458 2.2650554
-0.74352086 0.0044445135 2.5253696
-0.61925828 0.19621366 2.2354133
-0.6087411 0.12638506 2.2229493
-0.60211396 0.060479697 2.2156303
-0.64860678 -0.00093071535 2.4144573
-0.55524951 0.18588671 2.1840107
-0.54652911 0.11988372 2.181653
-0.53885674 0.055938233 2.1763506
-0.53205723 -0.0091300942 2.1780467
-0.49694696 0.17830944 2.1477699
-0.4863393 0.1124078 2.1393764
-0.47669697 0.05049099 2.1320732
-0.46888575 -0.01158144 2.1338048
-0.44268513 0.16978286 2.109587
-0.43004727 0.10685547 2.1022093
-0.42032611 0.045866121 2.0989232
-0.41420323 -0.013489066 2.1167407
-0.3893443 0.16218738 2.0754392
-0.37392774 0.10046609 2.0560274
-0.36589485 0.042193994 2.0688274
-0.35409135 -0.016875209 2.0695379
-0.33892408 0.15553011 2.0453644
-0.32254118 0.094841242 2.0239527
-0.31330955 0.039384168 2.0467844
-0.29793733 -0.019283351 2.0244279
-0.29052222 0.14889811 2.0143278
-0.27748635 0.091607898 2.0270517
-0.26885343 0.037774194 2.0709312
-0.9810971 0.10890824 8.4907293
-0.25165612 0.15092914 2.0596523
-0.23660584 0.092613816 2.0733204
-0.22667357 0.038487099 2.1331754
-0.74216288 0.095739663 8.1148901
-0.21254666 0.15272498 2.1179721
-0.19534302 0.09525761 2.1396179
-0.18173762 0.039424393 2.1823678
-0.52237463 0.083828464 7.7844477
-0.17041117 0.15649167 2.1772716
-0.15125319 0.097053617 2.1968446
-0.40134549 0.28494954 7.5867524
-0.32360819 0.075028315 7.4524541
-0.2928707 0.51757163 5.8103275
-0.2851364 0.46274972 7.2966948
-0.2147921 0.26540184 7.2988086
-0.1397903 0.065272614 7.1767426
-0.02611593 -0.059798401 0.050936799
-0.1191745 0.44296885 7.1371756
-0.044890761 0.24758917 7.0292139
0.031430982 0.057183377 6.9223046
-0.02611593 -0.059798401 0.050936799
0.040607907 0.41932827 6.9156814
0.11366113 0.23220411 6.7938871
0.18878981 0.05001758 6.6751451
0.088533431 0.50478905 5.9369984
0.1882841 0.39683911 6.6884327
0.26236859 0.21770997 6.5667639
0.33860731 0.044446006 6.4521632
0.21928689 0.49550128 5.9243779
0.32924634 0.37510359 6.4763284
0.40247473 0.20386815 6.3608203
0.47676399 0.038591906 6.2474017
0.37354952 0.52305776 6.3041167
0.4604843 0.35615018 6.2784615
0.53368407 0.19196784 6.1600804
0.60583264 0.033860371 6.0378284
0.49629763 0.49963087 6.1343374
0.58393365 0.33802637 6.0917592
0.65382046 0.18017936 5.9555488
0.72707129 0.028994739 5.8374028
0.61794579 0.48036009 6.0116696
0.70038819 0.32092747 5.9052062
0.76945245 0.16993816 5.7771382
0.84506732 0.025419578 5.6770744
0.72968113 0.45799053 5.8411155
0.81009126 0.30461839 5.7317982
-0.02611593 -0.059798401 0.050936799
-0.02611593 -0.059798401 0.050936799
-0.02611593 -0.059798401 0.050936799
-0.02611593 -0.059798401 0.050936799
0.18752688 -0.015192575 1.1921306
1.0609884 0.018413387 5.3527951
-0.02611593 -0.059798401 0.050936799
1.0183244 0.27626461 5.4282837
1.0886464 0.14308771 5.3105183
0.27894425 -0.040905405 1.3780168
1.0351491 0.39981574 5.3951926
0.26868829 0.023652704 1.405386
0.29138994 -0.0082615912 1.3953801
1.2543559 0.014073163 5.0519943
0.2716184 0.05381773 1.3958735
1.2058393 0.25173226 5.1392312
1.2742385 0.12852466 5.0236831
1.3416238 0.01135584 4.9062619
1.215888 0.36505711 5.1200867
1.2899934 0.2390998 4.9893765
1.3585097 0.12180071 4.8789344
1.4333668 0.010171592 4.7854819
1.2993114 0.34915733 4.9851913
1.3724743 0.2281666 4.8565893
1.4452943 0.11658078 4.7611752
1.5159243 0.0092005283 4.6548743
1.381945 0.33406198 4.8613291
1.4573743 0.2188279 4.7457933
1.525926 0.11052733 4.6355133
-0.02611593 -0.059798401 0.050936799
1.4617703 0.31979638 4.7475381
1.537159 0.2086159 4.6290751
-0.02611593 -0.059798401 0.050936799
0.38799053 -0.043574017 1.1138375
1.5375212 0.30561748 4.6298237
-0.02611593 -0.059798401 0.050936799
0.38587132 -0.021371597 1.1032751
1.7450868 0.0058852285 4.2894001
-0.02611593 -0.059798401 0.050936799
0.37957656 -0.00099168159 1.083755
0.49029967 -0.015027991 1.2834958
1.819043 0.0055664182 4.1799722
0.37551001 0.020163815 1.0762113
0.49137896 0.0099822599 1.2829278
1.8234737 0.091446996 4.1864452
1.8859818 0.0052908286 4.0696769
0.49057096 0.034891158 1.2883953
1.8259156 0.175317 4.1939192
1.8873224 0.087255202 4.072135
1.9540514 0.0048850328 3.9663601
1.8141799 0.25640056 4.1926055
1.8835623 0.16732833 4.069653
1.9523808 0.083860695 3.9688208
2.0170472 0.0045695379 3.8591387
1.8782631 0.2449567 4.092164
1.9497547 0.15978619 3.9742451
2.014421 0.080495015 3.864563
2.0791593 0.0051489174 3.7579517
1.9393134 0.23455968 3.9897985
2.0088024 0.15341368 3.8709893
2.0797081 0.077883251 3.7732623
2.1506255 0.0053523183 3.6755896
2.0004573 0.22407216 3.892431
2.0731342 0.14775175 3.7826526
2.1440139 0.075257003 3.6829803
2.2118914 0.006790407 3.582437
2.0627923 0.21439999 3.8050592
2.1365032 0.14205724 3.6963336
2.2002089 0.072767988 3.5868506
2.2690604 0.0073334649 3.4843431
2.1200948 0.2057818 3.7158003
2.1947985 0.13645302 3.6061103
2.2636874 0.070982344 3.5056021
2.3233051 0.0078149401 3.3903043
2.1784117 0.19614206 3.6275043
2.2511127 0.13083789 3.5169241
2.3138235 0.067569293 3.4065683
2.3837774 0.0090576448 3.3081667
2.2357888 0.18745151 3.542244
2.3054461 0.12521186 3.4287753
2.3712282 0.065877542 3.321434
2.4421749 0.010379877 3.2220681
2.2901518 0.17978962 3.4560583
2.3608017 0.12056395 3.3416255
2.4297304 0.06509158 3.2412972
2.496592 0.011698376 3.1370442
2.3435297 0.17111342 3.370873
2.4193482 0.11672424 3.2644336
2.4831319 0.062414348 3.1562202
2.5499907 0.013038561 3.0510397
2.4041765 0.16415849 3.2995877
2.4697053 0.11209431 3.1773772
2.5365787 0.061700605 3.0731783
2.6075568 0.014201581 2.9739568
2.4494245 0.15563762 3.2075551
2.5232298 0.10729079 3.099262
2.5921562 0.060853045 2.997097
2.6610899 0.016414959 2.8949676
2.5019646 0.14981978 3.13044
2.5757587 0.1034907 3.0211833
2.6415811 0.059171904 2.9131124
2.7104936 0.018769335 2.8090563
2.5545003 0.14300208 3.0533068
2.627269 0.099712297 2.9421237
2.689029 0.058479704 2.8301833
2.7630458 0.02096821 2.7310855
2.6050365 0.13619159 2.9762113
2.6777835 0.096937284 2.863101
2.7426069 0.057639331 2.7541397
2.8044276 0.022369552 2.6443069
2.6535168 0.12944254 2.8961544
2.7293687 0.093086511 2.7880402
2.7890739 0.056932613 2.6722288
2.8529248 0.02463707 2.5634122
2.7071311 0.12354875 2.8230193
2.7788792 0.08931528 2.709018
2.8366189 0.057149783 2.5943165
2.9370222 0.028199762 2.5138857
2.7567236 0.1166876 2.7489417
2.8162611 0.085713729 2.623224
2.8881974 0.056316603 2.5183098
3.0089123 0.031004693 2.4535699
2.7991714 0.11099609 2.667016
2.8658733 0.08385171 2.5492365
2.9865694 0.058557883 2.4834967
3.0584877 0.034196083 2.3766732
2.8478057 0.10510215 2.5949748
2.9683301 0.083988555 2.5193102
3.0331149 0.058778647 2.4056029
3.1029851 0.036477953 2.2958541
2.8923471 0.099313006 2.5180097
3.0158641 0.08120621 2.4413438
3.0857155 0.058923617 2.3305953
3.1525235 0.039705519 2.2169583
2.9806073 0.096681505 2.4782963
3.0664909 0.078322694 2.3683188
3.1363389 0.060057487 2.2566431
3.2051361 0.042849965 2.1420045
3.0322223 0.090794891 2.4051986
3.1140654 0.076504022 2.2923694
3.1767883 0.059390396 2.1738455
3.2618079 0.046925634 2.069993
3.081841 0.08591529 2.3321564
3.1646547 0.073656678 2.2173455
3.2324488 0.060470149 2.1017983
4.6706104 0.09457624 2.7817194
3.1304605 0.081039272 2.2591333
3.2163038 0.071751297 2.1453195
3.2921457 0.061499372 2.0316756
4.7578163 0.1009925 2.68417
3.1800792 0.076159678 2.1860912
3.2588241 0.070004843 2.0664651
4.7157927 0.11325826 2.7341952
4.7964578 0.10512426 2.5574782
3.2226064 0.071395621 2.1081827
4.6828828 0.12136577 2.7909775
4.7959056 0.11477287 2.6326885
4.6291876 0.10183491 2.3324742
3.2732289 0.067512259 2.0351398
4.763021 0.11984473 2.691416
4.583077 0.10617064 2.379432
4.6972809 0.10742809 2.2292655
4.719264 0.1137951 2.7591486
4.8148422 0.11773182 2.5753679
4.6552324 0.10867761 2.2800925
5.0537729 0.12367707 2.2488916
4.7902946 0.10839748 2.6546857
4.6122246 0.10587714 2.3338654
4.912981 0.11798513 2.2624292
5.1146049 0.12954859 2.1318192
4.5724583 0.092796281 2.4023964
4.6884012 0.10433428 2.2363782
5.0827899 0.12351018 2.1963274
-0.02611593 -0.059798401 0.050936799
4.6355281 0.08739119 2.3000832
5.0378823 0.11259162 2.2569914
5.1456251 0.12535715 2.0801451
-0.02611593 -0.059798401 0.050936799
4.7379127 0.082538456 2.2140493
5.1037803 0.11135599 2.1446972
-0.02611593 -0.059798401 0.050936799
11.273478 0.38279206 3.7196276
5.0661492 0.085089251 2.2229531
5.1726766 0.11010957 2.0323465
-0.02611593 -0.059798401 0.050936799
11.235762 0.39044186 3.4143686
5.134068 0.079810932 2.1125486
12.645096 0.34553465 4.5445533
11.832459 0.36970583 3.7689419
11.258556 0.40138713 3.1350453
13.507382 0.28822786 5.0945587
12.886452 0.34608406 4.2949595
11.961458 0.37503645 3.5005322
11.251236 0.41054901 2.8502514
13.717072 0.27548787 4.8123064
14.004858 0.37359586 4.300519
12.07743 0.38244951 3.2304034
11.071205 0.41301692 2.5305583
13.907557 0.26301509 4.5194154
14.190262 0.37326562 4.0009403
12.071764 0.38491297 2.9284518
11.12438 0.42649233 2.2707183
14.100969 0.25060391 4.2224684
14.392588 0.37294674 3.6970439
12.116382 0.38992509 2.6406095
11.047006 0.43296018 1.9841871
14.303327 0.23921448 3.9223721
14.570651 0.37196738 3.3795848
12.530456 0.40820274 2.4241142
10.927668 0.43754297 1.7004082
14.502553 0.22796245 3.6153347
14.239566 0.35690889 2.9553673
12.361158 0.40586722 2.0911288
10.885695 0.4475047 1.434284
14.547922 0.21209265 3.2650795
13.504379 0.33138442 2.4785087
12.493005 0.41534922 1.8137378
10.80668 0.45463595 1.1668017
13.931792 0.18706852 2.7900014
12.838129 0.30771086 2.0504093
11.904945 0.39725852 1.4472963
6.1232572 0.2382993 0.53936189
13.254054 0.16290498 2.3360996
12.217592 0.28618798 1.6595055
11.380604 0.38225365 1.1177303
5.9783878 0.23859514 0.38802832
12.604065 0.13992056 1.9217128
11.687921 0.26850912 1.3129852
6.0578308 0.17869705 0.47548705
6.0178204 0.24693969 0.24939395
12.044882 0.11983471 1.5486925
6.1463757 0.11164124 0.56964821
6.041152 0.1803342 0.3327806
3.6518929 0.1311648 0.085540675
11.500305 0.1021192 1.2074522
5.9904141 0.10704977 0.41443256
6.0214787 0.18298194 0.19014844
3.0732329 0.10483254 0.0078720925
6.0981059 0.020711927 0.51989031
6.0508113 0.1073203 0.27525946
3.0738702 0.066079266 0.049173154
3.1078939 0.11000509 -0.06470789
5.9742093 0.01493343 0.36805394
6.0601387 0.10684639 0.13302806
3.103543 0.069251999 -0.022349255
3.1155376 0.11429278 -0.13779822
6.0105534 0.010327124 0.22724243
3.1131587 0.025467277 0.018692609
3.1391585 0.072457455 -0.096983388
2.7266312 0.096556954 -0.17885157
3.8791761 -0.017537851 0.073591396
3.1517847 0.026644221 -0.055034272
2.7441716 0.057833109 -0.14286825
2.7623856 0.10163543 -0.24645203
3.8364227 -0.020707568 -0.01869677
3.4231708 0.034200825 -0.14500916
2.7479391 0.060008865 -0.20892182
2.7931075 0.10776789 -0.31593987
3.6328223 -0.02542576 -0.10099806
3.4146662 0.033673409 -0.22488655
2.7956269 0.063098907 -0.2797828
2.3399947 0.083488539 -0.31289452
4.0627661 -0.02305907 -0.21504362
3.3043039 0.031385779 -0.29588574
1.9433454 0.027479332 -0.22645205
2.4017749 0.091455117 -0.37992987
4.9296679 -0.018324206 -0.38924775
3.2120125 0.0289612 -0.36322445
2.4081748 0.049897898 -0.35079151
2.4226258 0.096497007 -0.44225016
3.8205278 -0.030070044 -0.38369226
1.9218787 -0.0061139171 -0.24466395
2.4838505 0.055905022 -0.42312419
2.5161607 0.10558374 -0.52286434
-0.02611593 -0.059798401 0.050936799
3.0146768 0.023923533 -0.48466206
2.4916925 0.057994075 -0.48525429
2.8237081 0.13087294 -0.66121191
4.2906885 -0.031197567 -0.64560407
2.9505198 0.023271494 -0.5454933
2.8082254 0.075234242 -0.62291551
2.8433197 0.1371534 -0.73649096
-0.02611593 -0.059798401 0.050936799
2.8734546 0.021575836 -0.60109997
2.8497353 0.080526352 -0.70362431
2.5574739 0.12101992 -0.72242624
3.5136037 -0.039270919 -0.6942175
2.8422353 0.020859638 -0.66555023
2.70612 0.075637542 -0.73403412
2.4478977 0.11797255 -0.75143963
3.9152303 -0.038540583 -0.87778604
2.8985996 0.023225054 -0.75359261
2.5218644 0.06955234 -0.74469811
2.9993403 0.16343781 -1.0080287
3.4594774 -0.04308391 -0.85932904
2.5978293 0.016107699 -0.73708451
3.0276041 0.097841866 -0.98173547
-0.02611593 -0.059798401 0.050936799
2.6520026 -0.047491439 -0.71624219
2.4862201 0.014103515 -0.76804167
3.0469832 0.10233974 -1.0690466
0.18340656 -0.044111088 -0.032730613
2.5592027 -0.049382918 -0.75755292
3.13485 0.033890769 -1.0639281
-0.02611593 -0.059798401 0.050936799
-0.02611593 -0.059798401 0.050936799
2.3989246 -0.050518923 -0.77057707
-0.02611593 -0.059798401 0.050936799
0.18035004 -0.049063295 -0.03476366
0.16433123 -0.044970371 -0.036390256
3.3761387 -0.047709681 -1.1949662
0.18434839 -0.054094888 -0.033929247
-0.02611593 -0.059798401 0.050936799
-0.02611593 -0.059798401 0.050936799
-0.02611593 -0.059798401 0.050936799
-0.02611593 -0.059798401 0.050936799
0.15931252 -0.049951576 -0.036386397
0.14433096 -0.045898423 -0.036032464
0.18029204 -0.059043504 -0.035943497
0.16725786 -0.053943429 -0.038608119
-0.02611593 -0.059798401 0.050936799
-0.02611593 -0.059798401 0.050936799
-0.02611593 -0.059798401 0.050936799
-0.02611593 -0.059798401 0.050936799
0.13236967 -0.050908774 -0.032898087
0.12534922 -0.046848152 -0.034693792
0.15825862 -0.05892837 -0.037529439
0.14525798 -0.054864306 -0.038212746
-0.02611593 -0.059798401 0.050936799
-0.02611593 -0.059798401 0.050936799
-0.02611593 -0.059798401 0.050936799
-0.02611593 -0.059798401 0.050936799
0.11933461 -0.050825939 -0.034653127
0.10933343 -0.046772644 -0.035392813
0.13430046 -0.058878411 -0.035079133
0.12428053 -0.05480703 -0.036818486
-0.02611593 -0.059798401 0.050936799
-0.02611593 -0.059798401 0.050936799
-0.02611593 -0.059798401 0.050936799
-0.02611593 -0.059798401 0.050936799
0.10531452 -0.051757433 -0.035407741
0.097331695 -0.047729403 -0.035185345
0.11630373 -0.05881381 -0.034740902
0.10927936 -0.055753026 -0.036554649
-0.02611593 -0.059798401 0.050936799
-0.02611593 -0.059798401 0.050936799
-0.02611593 -0.059798401 0.050936799
-0.02611593 -0.059798401 0.050936799
0.090354711 -0.051739778 -0.033126567
0.087314807 -0.047675427 -0.035997108
0.10032539 -0.058774479 -0.033440601
0.096281737 -0.055706371 -0.036310371
-0.02611593 -0.059798401 0.050936799
-0.02611593 -0.059798401 0.050936799
-0.02611593 -0.059798401 0.050936799
-0.02611593 -0.059798401 0.050936799
0.080333896 -0.05268563 -0.03395633
0.0743507 -0.048664778 -0.033771515
0.090289772 -0.058702409 -0.035252016
0.086246125 -0.055634301 -0.038121782
-0.02611593 -0.059798401 0.050936799
-0.02611593 -0.059798401 0.050936799
-0.02611593 -0.059798401 0.050936799
-0.02611593 -0.059798401 0.050936799
0.069354631 -0.052664243 -0.032749984
0.06536714 -0.049650397 -0.032620765
0.077310868 -0.058673844 -0.034008071
0.073285945 -0.055623826 -0.035878189
-0.02611593 -0.059798401 0.050936799
-0.02611593 -0.059798401 0.050936799
-0.02611593 -0.059798401 0.050936799
-0.02611593 -0.059798401 0.050936799
0.062337194 -0.052621029 -0.0336181
0.055387694 -0.049632601 -0.031433195
0.065350518 -0.058666956 -0.031783264
0.06626457 -0.056580439 -0.036764331
-0.02611593 -0.059798401 0.050936799
-0.02611593 -0.059798401 0.050936799
-0.02611593 -0.059798401 0.050936799
-0.02611593 -0.059798401 0.050936799
0.055319745 -0.052577823 -0.034486234
0.049370069 -0.049592976 -0.032320119
0.061272431 -0.059580076 -0.035724774
0.056266405 -0.05654455 -0.036576424
-0.02611593 -0.059798401 0.050936799
-0.02611593 -0.059798401 0.050936799
-0.02611593 -0.059798401 0.050936799
-0.02611593 -0.059798401 0.050936799
0.049283396 -0.052520107 -0.036372818
0.045314632 -0.049524356 -0.035243943
0.050315816 -0.058576945 -0.033500727
0.051229879 -0.056490429 -0.038481791
-0.02611593 -0.059798401 0.050936799
-0.02611593 -0.059798401 0.050936799
-0.02611593 -0.059798401 0.050936799
-0.02611593 -0.059798401 0.050936799
0.043261845 -0.053480316 -0.037277751
0.038315915 -0.049499232 -0.035112407
0.044275541 -0.059519064 -0.035405334
0.042268969 -0.056494303 -0.036313355
-0.02611593 -0.059798401 0.050936799
-0.02611593 -0.059798401 0.050936799
-0.02611593 -0.059798401 0.050936799
-0.02611593 -0.059798401 0.050936799
0.035319481 -0.053505875 -0.034128442
0.032313086 -0.050477527 -0.035017684
0.039257731 -0.059483029 -0.036311042
0.036251344 -0.056454681 -0.037200272
-0.02611593 -0.059798401 0.050936799
-0.02611593 -0.059798401 0.050936799
-0.02611593 -0.059798401 0.050936799
-0.02611593 -0.059798401 0.050936799
0.031264041 -0.053437248 -0.037052266
-0.02611593 -0.059798401 0.050936799
0.029357105 -0.058537755 -0.031106807
0.027327878 -0.056494739 -0.033032507
-0.02611593 -0.059798401 0.050936799
-0.02611593 -0.059798401 0.050936799
-0.02611593 -0.059798401 0.050936799
-0.02611593 -0.059798401 0.050936799
-0.02611593 -0.059798401 0.050936799
-0.02611593 -0.059798401 0.050936799
0.026245322 -0.058418453 -0.037048407
0.023291167 -0.056444205 -0.034956675
-0.02611593 -0.059798401 0.050936799
-0.02611593 -0.059798401 0.050936799
-0.02611593 -0.059798401 0.050936799
-0.02611593 -0.059798401 0.050936799
-0.02611593 -0.059798401 0.050936799
0.019240571 -0.050358512 -0.03877205
0.021246232 -0.058400508 -0.036954451
0.019254452 -0.056393668 -0.036880832
-0.02611593 -0.059798401 0.050936799
-0.02611593 -0.059798401 0.050936799
-0.02611593 -0.059798401 0.050936799
-0.02611593 -0.059798401 0.050936799
-0.02611593 -0.059798401 0.050936799
-0.02611593 -0.059798401 0.050936799
-0.02611593 -0.059798401 0.050936799
0.01519902 -0.056325048 -0.039804656
-0.02611593 -0.059798401 0.050936799
-0.02611593 -0.059798401 0.050936799
-0.02611593 -0.059798401 0.050936799
-0.02611593 -0.059798401 0.050936799
-0.02611593 -0.059798401 0.050936799
-0.02611593 -0.059798401 0.050936799
-0.02611593 -0.059798401 0.050936799
0.011162304 -0.056274515 -0.041728813
-0.02611593 -0.059798401 0.050936799
-0.02611593 -0.059798401 0.050936799
-0.02611593 -0.059798401 0.050936799
-0.02611593 -0.059798401 0.050936799
-0.02611593 -0.059798401 0.050936799
-0.02611593 -0.059798401 0.050936799
-0.02611593 -0.059798401 0.050936799
-0.02611593 -0.059798401 0.050936799
-0.02611593 -0.059798401 0.050936799
-0.02611593 -0.059798401 0.050936799
-0.02611593 -0.059798401 0.050936799
-0.02611593 -0.059798401 0.050936799
-0.02611593 -0.059798401 0.050936799
-0.02611593 -0.059798401 0.050936799
-0.02611593 -0.059798401 0.050936799
-0.02611593 -0.059798401 0.050936799
-0.02611593 -0.059798401 0.050936799
-0.02611593 -0.059798401 0.050936799
-0.02611593 -0.059798401 0.050936799
-0.02611593 -0.059798401 0.050936799
-0.02611593 -0.059798401 0.050936799
-0.02611593 -0.059798401 0.050936799
-0.02611593 -0.059798401 0.050936799
-0.02611593 -0.059798401 0.050936799
-0.02611593 -0.059798401 0.050936799
-0.02611593 -0.059798401 0.050936799
-0.02611593 -0.059798401 0.050936799
-0.02611593 -0.059798401 0.050936799
-0.02611593 -0.059798401 0.050936799
-0.02611593 -0.059798401 0.050936799
-0.02611593 -0.059798401 0.050936799
-0.02611593 -0.059798401 0.050936799
-0.02611593 -0.059798401 0.050936799
-0.02611593 -0.059798401 0.050936799
-0.02611593 -0.059798401 0.050936799
-0.02611593 -0.059798401 0.050936799
-0.02611593 -0.059798401 0.050936799
-0.02611593 -0.059798401 0.050936799
-0.02611593 -0.059798401 0.050936799
-0.02611593 -0.059798401 0.050936799
-0.02611593 -0.059798401 0.050936799
-0.02611593 -0.059798401 0.050936799
-0.02611593 -0.059798401 0.050936799
-0.02611593 -0.059798401 0.050936799
-0.02611593 -0.059798401 0.050936799
-0.02611593 -0.059798401 0.050936799
-0.02611593 -0.059798401 0.050936799
-0.02611593 -0.059798401 0.050936799
-0.02611593 -0.059798401 0.050936799
-0.02611593 -0.059798401 0.050936799
-0.02611593 -0.059798401 0.050936799
-0.02611593 -0.059798401 0.050936799
-0.02611593 -0.059798401 0.050936799
-0.02611593 -0.059798401 0.050936799
-0.02611593 -0.059798401 0.050936799
-0.02611593 -0.059798401 0.050936799
-0.02611593 -0.059798401 0.050936799
-0.02611593 -0.059798401 0.050936799
-0.02611593 -0.059798401 0.050936799
-0.02611593 -0.059798401 0.050936799
-0.02611593 -0.059798401 0.050936799
-0.02611593 -0.059798401 0.050936799
-0.02611593 -0.059798401 0.050936799
-0.02611593 -0.059798401 0.050936799
-0.02611593 -0.059798401 0.050936799
-0.02611593 -0.059798401 0.050936799
-0.02611593 -0.059798401 0.050936799
-0.02611593 -0.059798401 0.050936799
-0.02611593 -0.059798401 0.050936799
-0.02611593 -0.059798401 0.050936799
-0.02611593 -0.059798401 0.050936799
-0.02611593 -0.059798401 0.050936799
-0.02611593 -0.059798401 0.050936799
-0.02611593 -0.059798401 0.050936799
-0.02611593 -0.059798401 0.050936799
-0.02611593 -0.059798401 0.050936799
-0.02611593 -0.059798401 0.050936799
-0.02611593 -0.059798401 0.050936799
-0.02611593 -0.059798401 0.050936799
-0.02611593 -0.059798401 0.050936799
-0.02611593 -0.059798401 0.050936799
-0.02611593 -0.059798401 0.050936799
-0.02611593 -0.059798401 0.050936799
-0.02611593 -0.059798401 0.050936799
-0.02611593 -0.059798401 0.050936799
-0.02611593 -0.059798401 0.050936799
-0.02611593 -0.059798401 0.050936799
-0.02611593 -0.059798401 0.050936799
-0.02611593 -0.059798401 0.050936799
-0.02611593 -0.059798401 0.050936799
-0.02611593 -0.059798401 0.050936799
-0.02611593 -0.059798401 0.050936799
-0.02611593 -0.059798401 0.050936799
-0.02611593 -0.059798401 0.050936799
-0.02611593 -0.059798401 0.050936799
-0.02611593 -0.059798401 0.050936799
-0.02611593 -0.059798401 0.050936799
-0.02611593 -0.059798401 0.050936799
-0.02611593 -0.059798401 0.050936799
-0.02611593 -0.059798401 0.050936799
-0.02611593 -0.059798401 0.050936799
-0.02611593 -0.059798401 0.050936799
-0.02611593 -0.059798401 0.050936799
-0.02611593 -0.059798401 0.050936799
-0.02611593 -0.059798401 0.050936799
-0.02611593 -0.059798401 0.050936799
-0.02611593 -0.059798401 0.050936799
-0.02611593 -0.059798401 0.050936799
-0.02611593 -0.059798401 0.050936799
-0.02611593 -0.059798401 0.050936799
-0.02611593 -0.059798401 0.050936799
-0.02611593 -0.059798401 0.050936799
-0.02611593 -0.059798401 0.050936799
-0.02611593 -0.059798401 0.050936799
-0.02611593 -0.059798401 0.050936799
-0.02611593 -0.059798401 0.050936799
-0.02611593 -0.059798401 0.050936799
-0.02611593 -0.059798401 0.050936799
-0.02611593 -0.059798401 0.050936799
-0.02611593 -0.059798401 0.050936799
-0.02611593 -0.059798401 0.050936799
-0.02611593 -0.059798401 0.050936799
-0.02611593 -0.059798401 0.050936799
-0.02611593 -0.059798401 0.050936799
-0.02611593 -0.059798401 0.050936799
-0.02611593 -0.059798401 0.050936799
-0.02611593 -0.059798401 0.050936799
-0.02611593 -0.059798401 0.050936799
-0.02611593 -0.059798401 0.050936799
-0.02611593 -0.059798401 0.050936799
-0.02611593 -0.059798401 0.050936799
-0.02611593 -0.059798401 0.050936799
-0.02611593 -0.059798401 0.050936799
-0.02611593 -0.059798401 0.050936799
-0.02611593 -0.059798401 0.050936799
-0.065838397 -0.054980252 -0.041263591
-0.02611593 -0.059798401 0.050936799
-0.02611593 -0.059798401 0.050936799
-0.02611593 -0.059798401 0.050936799
-0.02611593 -0.059798401 0.050936799
-0.02611593 -0.059798401 0.050936799
-0.02611593 -0.059798401 0.050936799
-0.02611593 -0.059798401 0.050936799
-0.02611593 -0.059798401 0.050936799
-0.02611593 -0.059798401 0.050936799
-0.02611593 -0.059798401 0.050936799
-0.02611593 -0.059798401 0.050936799
-0.02611593 -0.059798401 0.050936799
-0.02611593 -0.059798401 0.050936799
-0.02611593 -0.059798401 0.050936799
-0.02611593 -0.059798401 0.050936799
-0.02611593 -0.059798401 0.050936799
-0.02611593 -0.059798401 0.050936799
-0.02611593 -0.059798401 0.050936799
-0.02611593 -0.059798401 0.050936799
-0.02611593 -0.059798401 0.050936799
-0.074716561 -0.053056825 -0.035060469
-0.02611593 -0.059798401 0.050936799
-0.080731176 -0.057034608 -0.035019796
-0.080760762 -0.054998774 -0.036983088
-0.02611593 -0.059798401 0.050936799
-0.02611593 -0.059798401 0.050936799
-0.02611593 -0.059798401 0.050936799
-0.02611593 -0.059798401 0.050936799
-0.079715647 -0.05303888 -0.034966514
-0.02611593 -0.059798401 0.050936799
-0.084693 -0.057056434 -0.032945316
-0.083685331 -0.055060364 -0.032928072
-0.02611593 -0.059798401 0.050936799
-0.02611593 -0.059798401 0.050936799
-0.02611593 -0.059798401 0.050936799
-0.02611593 -0.059798401 0.050936799
-0.08469601 -0.053039026 -0.033872902
-0.084725596 -0.051003188 -0.035836183
-0.090673186 -0.057052985 -0.031832907
-0.089684233 -0.055038832 -0.03281533
-0.02611593 -0.059798401 0.050936799
-0.02611593 -0.059798401 0.050936799
-0.02611593 -0.059798401 0.050936799
-0.02611593 -0.059798401 0.050936799
-0.090676196 -0.05303558 -0.032760501
-0.088668704 -0.051043097 -0.032762043
-0.098705232 -0.055988267 -0.033663891
-0.099772081 -0.053912666 -0.037607711
-0.02611593 -0.059798401 0.050936799
-0.02611593 -0.059798401 0.050936799
-0.02611593 -0.059798401 0.050936799
-0.02611593 -0.059798401 0.050936799
-0.09667509 -0.053014047 -0.032647759
-0.095704868 -0.050981794 -0.034629829
-0.10468541 -0.055984825 -0.032551486
-0.10473372 -0.053930901 -0.035514429
-0.02611593 -0.059798401 0.050936799
-0.02611593 -0.059798401 0.050936799
-0.02611593 -0.059798401 0.050936799
-0.02611593 -0.059798401 0.050936799
-0.10163674 -0.053032279 -0.03055447
-0.098633356 -0.052043214 -0.030592825
-0.11268395 -0.055956114 -0.032401163
-0.1137508 -0.053880509 -0.036344983
-0.02611593 -0.059798401 0.050936799
-0.02611593 -0.059798401 0.050936799
-0.02611593 -0.059798401 0.050936799
-0.02611593 -0.059798401 0.050936799
-0.10965399 -0.052985482 -0.031403814
-0.10766523 -0.050974909 -0.032405023
-0.1166044 -0.055014286 -0.028309334
-0.11869371 -0.053916831 -0.033252046
-0.02611593 -0.059798401 0.050936799
-0.02611593 -0.059798401 0.050936799
-0.02611593 -0.059798401 0.050936799
-0.02611593 -0.059798401 0.050936799
-0.11663399 -0.052978445 -0.030272614
-0.11464522 -0.050967872 -0.031273823
-0.1276211 -0.054956719 -0.029102303
-0.12768814 -0.052884702 -0.033064909
-0.02611593 -0.059798401 0.050936799
-0.02611593 -0.059798401 0.050936799
-0.02611593 -0.059798401 0.050936799
-0.02611593 -0.059798401 0.050936799
-0.12259544 -0.052993093 -0.02816055
-0.1236623 -0.050917484 -0.032104373
-0.14067097 -0.053855967 -0.031838994
-0.13159381 -0.052960791 -0.027991436
-0.02611593 -0.059798401 0.050936799
-0.02611593 -0.059798401 0.050936799
-0.02611593 -0.059798401 0.050936799
-0.02611593 -0.059798401 0.050936799
-0.13562658 -0.051910426 -0.029897574
-0.12962376 -0.050932128 -0.029992297
-0.14761351 -0.05388511 -0.028708473
-0.14666595 -0.0528346 -0.031708229
-0.02611593 -0.059798401 0.050936799
-0.02611593 -0.059798401 0.050936799
-0.02611593 -0.059798401 0.050936799
-0.02611593 -0.059798401 0.050936799
-0.14562476 -0.051874537 -0.029709667
-0.14164028 -0.05087097 -0.03076648
-0.16464391 -0.052788086 -0.030370332
-0.16067818 -0.051766437 -0.032426804
-0.02611593 -0.059798401 0.050936799
-0.02611593 -0.059798401 0.050936799
-0.02611593 -0.059798401 0.050936799
-0.02611593 -0.059798401 0.050936799
-0.15458566 -0.051878415 -0.027541235
-0.15161973 -0.05085317 -0.029578906
-0.17660429 -0.052781202 -0.028145529
-0.17365707 -0.051737871 -0.031182867
-0.02611593 -0.059798401 0.050936799
-0.02611593 -0.059798401 0.050936799
-0.02611593 -0.059798401 0.050936799
-0.02611593 -0.059798401 0.050936799
-0.17059752 -0.050803073 -0.028222233
-0.16563587 -0.050784841 -0.030315503
-0.19257872 -0.051742036 -0.026827194
-0.19568656 -0.050622903 -0.032750774
-0.02611593 -0.059798401 0.050936799
-0.02611593 -0.059798401 0.050936799
-0.02611593 -0.059798401 0.050936799
-0.02611593 -0.059798401 0.050936799
-0.18659458 -0.050745651 -0.027921584
-0.17861478 -0.050756272 -0.029071562
-0.22062582 -0.050587445 -0.029282026
-0.208628 -0.050630517 -0.02950751
-0.02611593 -0.059798401 0.050936799
-0.02611593 -0.059798401 0.050936799
-0.02611593 -0.059798401 0.050936799
-0.02611593 -0.059798401 0.050936799
-0.20459129 -0.050681051 -0.027583353
-0.19055641 -0.050767474 -0.025847096
-0.25063121 -0.048462037 -0.02968194
-0.23563789 -0.049515694 -0.029981818
-0.02611593 -0.059798401 0.050936799
-0.02611593 -0.059798401 0.050936799
-0.02611593 -0.059798401 0.050936799
-0.02611593 -0.059798401 0.050936799
-0.23561916 -0.049533784 -0.028982151
-0.21860747 -0.050612714 -0.02831994
-1.0218735 -0.0083554853 -0.2555933
-0.26864272 -0.047379516 -0.030325353
-0.02611593 -0.059798401 0.050936799
-0.02611593 -0.059798401 0.050936799
-1.0224051 -0.008804122 -0.23058298
-0.02611593 -0.059798401 0.050936799
-0.25757378 -0.04849118 -0.026551422
-0.24861677 -0.049487129 -0.028737873
-1.0380012 -0.007126912 -0.20925343
-1.0304637 -0.0097209755 -0.23344965
-0.02611593 -0.059798401 0.050936799
-0.02611593 -0.059798401 0.050936799
-1.0606374 -0.0063882247 -0.18980967
-1.0450641 -0.0090471804 -0.21215689
-1.0304755 -0.012720468 -0.23350371
-1.0189281 -0.017346632 -0.2568115
-1.0551515 -0.006876485 -0.16391242
-1.0606679 -0.0093696285 -0.19086337
-1.0471019 -0.014021061 -0.21320906
-1.031559 -0.019661417 -0.23661005
-1.069729 -0.0052209534 -0.14160198
-1.0592 -0.009825442 -0.16589063
-1.0546886 -0.01439031 -0.19106621
-1.0451673 -0.020990873 -0.21537213
-1.0552261 -0.0057596019 -0.11487421
-1.0717858 -0.010176746 -0.14365381
-1.0632602 -0.015773889 -0.16792288
-1.0557573 -0.022349184 -0.19319089
-1.0637937 -0.0061433502 -0.091712885
-1.0683182 -0.01063974 -0.11871865
-1.07485 -0.017128613 -0.1457229
-1.0693507 -0.024696557 -0.1709713
-1.0783712 -0.0044878181 -0.069402441
-1.0839034 -0.010980276 -0.096425459
-1.0613321 -0.01868159 -0.11799467
-1.0668868 -0.026155792 -0.14603537
-1.0879161 -0.0038862319 -0.045204647
-1.0834353 -0.011432502 -0.071433946
-1.0789356 -0.018996859 -0.096663564
-1.0734628 -0.02854638 -0.12294769
-1.0994793 -0.0032593864 -0.021968931
-1.0990018 -0.011791129 -0.048141077
-1.0895069 -0.020373259 -0.073482677
-1.0840342 -0.029922783 -0.099766806
-1.1220367 -0.0015932281 0.001491487
-1.1265808 -0.011088767 -0.025604382
-1.0960603 -0.021782106 -0.0493773
-1.1026264 -0.032252207 -0.077453271
-1.1335626 -0.0010025568 0.026726522
-1.1331114 -0.011515872 -0.00048132241
-1.1116267 -0.02214073 -0.026084445
-1.10818 -0.033664644 -0.053366676
-1.1500874 -0.00039394479 0.0520555
-1.145637 -0.010921615 0.024772499
-1.1261746 -0.022521034 -0.0018107221
-1.1087197 -0.036112938 -0.028392404
-1.1546144 0.00017160745 0.077159002
-1.1531675 -0.01134513 0.049914349
-1.1407077 -0.023919258 0.023444649
-1.1182536 -0.037529103 -0.003230989
-1.1731163 0.0017691355 0.10354324
-1.166697 -0.011747112 0.075168937
-1.1462425 -0.025349781 0.048530892
-1.1448073 -0.039866004 0.021232188
-1.1766249 0.0023130097 0.12962762
-1.1662102 -0.012217427 0.10116013
-1.1557726 -0.025766117 0.073710322
-1.1453428 -0.041314472 0.04622449
-1.2010696 0.0038778079 0.1591236
-0.02611593 -0.059798401 0.050936799
-1.1852654 -0.027146686 0.10124688
-0.02611593 -0.059798401 0.050936799
-0.02611593 -0.059798401 0.050936799
-1.219144 -0.011036951 0.15819189
-0.02611593 -0.059798401 0.050936799
-1.2103691 -0.045017723 0.09939298
-1.2429453 0.005964369 0.21896563
-0.02611593 -0.059798401 0.050936799
-1.22321 -0.028019706 0.15796073
-0.02611593 -0.059798401 0.050936799
-0.02611593 -0.059798401 0.050936799
-1.2300745 -0.012024961 0.21539804
-0.02611593 -0.059798401 0.050936799
-1.2143542 -0.049993996 0.15439622
-0.02611593 -0.059798401 0.050936799
-0.02611593 -0.059798401 0.050936799
-1.2211882 -0.031017851 0.21288726
-1.2228136 -0.051486108 0.18353748
-0.02611593 -0.059798401 0.050936799
-0.02611593 -0.059798401 0.050936799
-1.2326283 -0.032517284 0.24308455
-1.2242967 -0.053985085 0.21152954
-1.267674 0.0088897292 0.33952242
-0.02611593 -0.059798401 0.050936799
-1.255029 -0.03401342 0.27548787
-1.2297604 -0.056487791 0.24059643
-0.02611593 -0.059798401 0.050936799
-1.3076141 -0.011089936 0.34691128
-0.02611593 -0.059798401 0.050936799
-0.02611593 -0.059798401 0.050936799
-0.02611593 -0.059798401 0.050936799
-0.02611593 -0.059798401 0.050936799
-0.02611593 -0.059798401 0.050936799
-0.02611593 -0.059798401 0.050936799
-3.102427 0.11441116 0.98900276
-6.2725658 0.17226484 1.7996776
-0.02611593 -0.059798401 0.050936799
-1.2839164 -0.063076779 0.34052506
-3.100996 0.11503604 1.0650131
-3.1056511 0.05241438 0.98894173
-1.5164567 -0.03546327 0.46842167
-0.02611593 -0.059798401 0.050936799
-3.1641071 0.1194775 1.1653091
-3.1002476 0.051043347 1.0638411
-3.1038697 -0.012617921 0.98973221
-6.2616038 -0.10076796 1.7965324
-3.2331009 0.12483177 1.2717338
-3.1663365 0.051460065 1.1661206
-3.1044164 -0.016021349 1.0677074
-3.0981758 -0.085608944 0.98730451
-3.3020046 0.12909576 1.3831387
-3.2462313 0.052745953 1.2786779
-3.1685212 -0.019611135 1.1698773
-3.1096203 -0.092080928 1.0714302
-3.3827116 0.1352216 1.5048018
-3.3002474 0.053047236 1.3847306
-3.2484131 -0.022342648 1.2833622
-3.1757219 -0.099680945 1.1745653
-3.4652681 0.1412099 1.6344998
-3.3878789 0.054108609 1.5114335
-3.3083692 -0.026091501 1.3934541
-3.2466915 -0.10738964 1.2847919
-4.8041759 0.22100849 2.3822649
-3.4714508 0.056101166 1.6410782
-3.3940203 -0.030036468 1.5200293
-3.3135679 -0.11520313 1.3999417
-4.6808615 0.21626875 2.4518938
-4.7866244 0.097928643 2.3817093
-3.4825404 -0.034097292 1.6536584
-3.3952396 -0.12416161 1.5263517
-4.5773764 0.21143802 2.5308955
-4.667243 0.09113124 2.4553761
-4.7729616 -0.030262621 2.3881369
-3.4926653 -0.13329782 1.6660578
-4.743073 0.22297554 2.759284
-4.5904899 0.08614412 2.5488808
-4.6495848 -0.038074214 2.4617107
-5.0992813 -0.18014993 2.5625944
-4.6741757 0.22088999 2.8599906
-4.7521858 0.088632658 2.779031
-4.6252637 -0.044413622 2.5861826
-4.9697556 -0.18812779 2.6440525
-4.5538988 0.21619719 2.9276767
-4.653553 0.082675286 2.866106
-4.749321 -0.050752439 2.7984629
-4.8570995 -0.19717106 2.7328098
-4.4495063 0.21145327 3.0016613
-3.4976487 0.044841435 2.271579
-3.2930763 -0.059055567 2.0537953
-4.7297044 -0.20501509 2.8073082
-4.3323226 0.20686163 3.0644054
-4.4179683 0.071271762 3.003536
-3.2200007 -0.064380541 2.1113503
-4.6132321 -0.21289201 2.8860114
-2.6153095 0.10116246 1.9509691
-3.2713358 0.034696706 2.3411815
-3.195313 -0.06910868 2.2018335
-4.4908924 -0.22066385 2.9576046
-2.7585392 0.11212412 2.1509168
-2.6172767 0.013822652 1.9694322
-3.2495809 -0.074544609 2.3488009
-4.3764954 -0.22846124 3.0323472
-4.0225158 0.19400232 3.2664411
-2.7338274 0.015960269 2.1537156
-2.5876164 -0.076287791 1.9682465
-3.3314495 -0.19676372 2.4331512
-3.9212911 0.18943197 3.331485
-3.9947903 0.048637036 3.2792969
-2.5040634 -0.080145925 1.9976224
-4.1518269 -0.2429152 3.1749277
-3.8250058 0.18582512 3.3996406
-2.4249423 0.0038265511 2.0936925
-2.4757504 -0.084526636 2.0680368
-2.7750106 -0.18940997 2.2367997
-1.8740331 0.060805984 1.7532933
-1.9048198 -0.011585521 1.7255509
-2.4277186 -0.087707967 2.1230989
-3.9431555 -0.25731173 3.3178089
-1.8234885 0.058084212 1.7823077
-1.8571771 -0.013387147 1.7596378
-1.8898659 -0.084862098 1.7369493
-1.9177252 -0.16120943 1.7060794
-1.9319571 0.067137659 1.9695657
-1.8331181 -0.015500601 1.8161684
-1.8441893 -0.087692551 1.7730551
-1.8778828 -0.16518098 1.751277
-2.1097643 0.079871327 2.2452185
-2.0101893 -0.012551766 2.0796261
-1.9182998 -0.092201583 1.9284137
-1.8331537 -0.16906196 1.7903825
-3.3520722 0.16629028 3.7145391
-2.2162588 -0.0094541423 2.3966479
-2.0981328 -0.10051145 2.2067249
-1.9847538 -0.18476906 2.0290177
-3.2608984 0.16280991 3.7767901
-3.3132308 0.012742192 3.7350411
-3.3675327 -0.13433695 3.6943839
-2.1938837 -0.20669259 2.3476443
-3.1677661 0.15835872 3.8369863
-3.2190804 0.0082693174 3.7962186
-3.2762356 -0.1399436 3.7635965
-3.3306327 -0.29696679 3.7197595
-3.0795915 0.15488914 3.8992939
-3.1269102 0.0037855357 3.8584328
-3.1790893 -0.14542706 3.8246989
-3.2304201 -0.30453303 3.7847686
-2.9845495 0.15152103 3.9544721
-3.0307825 -0.001676254 3.9185548
-3.0809805 -0.15087795 3.8837836
-3.1351273 -0.31115386 3.853888
-2.8944316 0.14809854 4.0137429
-2.934726 -0.0060658529 3.9746957
-2.9828386 -0.15736485 3.9448495
-3.0330384 -0.31660101 3.9118979
-2.8013558 0.14370158 4.0709405
-2.8445182 -0.01057864 4.0389471
-2.8905604 -0.16295697 4.0130439
-2.9337881 -0.32419983 3.978925
-2.7111816 0.14022483 4.1332102
-2.7513154 -0.016102009 4.1031237
-2.7954137 -0.16843325 4.0741839
-2.8405139 -0.33079538 4.0470824
-2.6171432 0.13586046 4.1883893
-2.6591828 -0.020549614 4.1633387
-2.6992152 -0.17496723 4.1382866
-2.7423344 -0.33731848 4.1101475
-2.5289872 0.13240898 4.2496972
-2.5650508 -0.025004394 4.2235165
-2.6070306 -0.18046895 4.2014828
-2.642226 -0.34277654 4.1691942
-2.4389069 0.12902266 4.3069692
-2.4738662 -0.030502506 4.2867308
-2.5069785 -0.18587273 4.2575307
-2.5440278 -0.34931767 4.2332592
-2.3467929 0.12459312 4.3661842
-2.3778465 -0.034855932 4.3408728
-2.4137378 -0.1914323 4.3237066
-2.4487727 -0.35590237 4.3003798
-2.2585585 0.12206911 4.431509
-2.2855835 -0.039430149 4.4080858
-2.3185163 -0.19698092 4.3888459
-2.348556 -0.36246875 4.365407
-2.1654265 0.11761791 4.4917049
-2.1943233 -0.04500062 4.4752984
-2.2184494 -0.20340264 4.4458752
-2.2503057 -0.37006399 4.4324522
-2.0713508 0.11321741 4.5488834
-2.0962672 -0.049397402 4.5314021
-2.1231344 -0.20904171 4.5160127
-2.1520321 -0.37667751 4.5005159
-1.9782147 0.10976604 4.609098
-2.0020604 -0.053924538 4.5955782
-2.0249879 -0.21452877 4.577096
-2.0489662 -0.38310999 4.5574894
-1.0158113 0.028832827 2.5079026
-1.9058763 -0.059440598 4.658699
-1.9258088 -0.22105545 4.6401429
-1.9515616 -0.3898465 4.6325693
-0.94419986 0.023918971 2.4874661
-1.8077638 -0.063891642 4.717802
-1.8275317 -0.22666912 4.7082243
-1.8435336 -0.39626074 4.687449
-0.85094851 0.018225331 2.3945856
-1.7085806 -0.069418468 4.7808666
-1.725405 -0.23215243 4.7682333
-1.7422234 -0.4029212 4.7574553
-0.78163624 0.013608076 2.358192
-1.608431 -0.073912866 4.8419309
-1.6222264 -0.23869342 4.8312044
-1.6350309 -0.41049448 4.8213329
-0.79994959 0.019202828 2.6067204
-1.5062857 -0.079414278 4.9029393
-1.5190063 -0.2442708 4.896193
-1.5306838 -0.41720188 4.8932824
-0.722036 0.013933301 2.5491467
-1.4032153 -0.084846921 4.9599304
-1.4146968 -0.25094202 4.9661431
-1.4234349 -0.42482942 4.9601593
-0.61369842 0.0050064921 2.3548908
-1.3045973 -0.089786366 5.0460238
-1.3075188 -0.25749737 5.0290394
-1.3150177 -0.43262336 5.0360141
-0.51716745 -0.0030583218 2.1708755
-1.1965654 -0.095200777 5.1009221
-1.2030034 -0.26436758 5.1099858
-1.204657 -0.4403702 5.1088324
-0.45896155 -0.0065277331 2.1287086
-1.0921021 -0.10101688 5.1788874
-1.0916578 -0.2711001 5.1818032
-1.0903907 -0.44804102 5.1765771
-0.41465527 -0.007992994 2.1448581
-0.98375195 -0.10673881 5.2507801
-0.97944319 -0.2777096 5.2466044
-0.97680986 -0.45701551 5.2613173
-0.35856527 -0.012346527 2.0967131
-1.5093123 -0.15126812 9.2791796
-1.4863789 -0.45145643 9.2263031
-1.4606609 -0.75847352 9.1632462
-0.3028084 -0.01537462 2.030592
-1.2350458 -0.155898 8.8658209
-1.2092936 -0.43986464 8.8001795
-1.1803784 -0.73002195 8.7443705
-1.023825 0.11988835 8.5567503
-0.98816746 -0.15900655 8.485014
-0.9554553 -0.42891032 8.4144955
-0.92549992 -0.70405567 8.3579378
-0.80239373 0.10329644 8.2081861
-0.76183581 -0.16247389 8.1285925
-0.7290498 -0.41839811 8.0593252
-0.69237393 -0.67824554 7.9849129
-0.59635258 0.088182762 7.8919473
-0.55476642 -0.1655751 7.8115516
-0.51706529 -0.40939265 7.7354093
-0.48033831 -0.65624231 7.6612315
-0.4078548 0.0736994 7.6000576
-0.36230105 -0.16900234 7.5157862
-0.32366922 -0.40171683 7.4338255
-0.28293329 -0.63654673 7.3577886
-0.23210734 0.060027361 7.3214259
-0.18551055 -0.17167984 7.2373333
-0.14563371 -0.3945986 7.1665306
-0.10398191 -0.61730748 7.0836935
-0.066867173 0.046924308 7.0690093
-0.020856455 -0.17514278 7.0051088
0.022534691 -0.3875711 6.9064207
0.066244133 -0.60030699 6.8247261
0.084814042 0.035455093 6.8398843
0.13348512 -0.1772625 6.7560968
0.17523026 -0.38099268 6.674602
0.22106437 -0.58582747 6.5980124
0.22778168 0.024746709 6.6259413
0.27530107 -0.17878795 6.5323377
0.32111043 -0.37556988 6.4528942
0.36398435 -0.57039565 6.3765411
0.35977399 0.015059516 6.4132223
0.40962395 -0.18077308 6.3357205
0.45440876 -0.36949849 6.2534404
0.50215948 -0.55719864 6.1691227
0.48636651 0.004815042 6.2326059
0.5370605 -0.18284163 6.1452327
0.58057737 -0.36327541 6.047121
0.62965494 -0.5442698 5.9789047
0.60577703 -0.0042236149 6.0421424
0.65542376 -0.18480554 5.9509149
0.70324433 -0.35952604 5.8678308
0.74903953 -0.53120363 5.7828393
0.71628278 -0.013320409 5.8568459
0.76703179 -0.18697947 5.7697253
-0.02611593 -0.059798401 0.050936799
