# .PCD v0.7 - Point Cloud Data file format
VERSION 0.7
FIELDS x y z
SIZE 4 4 4
TYPE F F F
COUNT 1 1 1
WIDTH 1379
HEIGHT 1
VIEWPOINT 0 0 0 1 0 0 0
POINTS 1379
DATA ascii
0.06851007 0.62031877 0.75170535
0.094425 0.61030805 0.80205613
-0.02611593 -0.059798401 0.050936799
-0.02611593 -0.059798401 0.050936799
0.083397992 0.61635602 0.74635309
0.11247094 0.61320668 0.8037712
-0.02611593 -0.059798401 0.050936799
-0.02611593 -0.059798401 0.050936799
0.099353693 0.61533499 0.74403507
0.12937027 0.61223638 0.79843545
-0.02611593 -0.059798401 0.050936799
-0.02611593 -0.059798401 0.050936799
0.11538128 0.61825895 0.74478817
0.14635237 0.61319321 0.79713434
-0.02611593 -0.059798401 0.050936799
-0.02611593 -0.059798401 0.050936799
0.13026921 0.6142962 0.73943591
0.16327044 0.61220473 0.79279828
-0.02611593 -0.059798401 0.050936799
-0.02611593 -0.059798401 0.050936799
0.14521028 0.61429667 0.73615503
0.18128286 0.61613947 0.79253209
-0.02611593 -0.059798401 0.050936799
-0.02611593 -0.059798401 0.050936799
0.16013265 0.61431521 0.73187459
0.19711445 0.61222744 0.78416216
-0.02611593 -0.059798401 0.050936799
-0.02611593 -0.059798401 0.050936799
0.17713737 0.61625385 0.73159117
0.21401772 0.61225694 0.77884442
-0.02611593 -0.059798401 0.050936799
-0.02611593 -0.059798401 0.050936799
0.19210507 0.61823589 0.72934604
0.22987588 0.61032647 0.77151006
-0.02611593 -0.059798401 0.050936799
-0.02611593 -0.059798401 0.050936799
0.20800459 0.61726904 0.72402906
0.24676043 0.61037403 0.76519269
-0.02611593 -0.059798401 0.050936799
-0.02611593 -0.059798401 0.050936799
0.22290823 0.61730564 0.71874893
0.26371294 0.61336666 0.76192826
-0.02611593 -0.059798401 0.050936799
0.19388662 0.61438364 0.66522121
0.23783059 0.61732411 0.71446842
0.27955237 0.61145437 0.75359434
-0.02611593 -0.059798401 0.050936799
0.20992208 0.61930728 0.66601038
0.25273424 0.61736077 0.70918822
0.29439592 0.6105454 0.74529719
-0.02611593 -0.059798401 0.050936799
0.2228182 0.61735141 0.66073173
0.26657405 0.61545563 0.70089185
0.31232953 0.61355263 0.74101436
-0.02611593 -0.059798401 0.050936799
0.23571829 0.61639535 0.65547109
0.28150037 0.61647397 0.69662935
0.32608658 0.60972017 0.72868323
-0.02611593 -0.059798401 0.050936799
0.24859965 0.61545742 0.64921093
0.29534408 0.61556864 0.68835092
0.34093404 0.60981101 0.72040409
-0.02611593 -0.059798401 0.050936799
0.26149973 0.61450136 0.64395028
0.31025165 0.61660504 0.68308884
0.35578549 0.61090171 0.712143
-0.02611593 -0.059798401 0.050936799
0.2764487 0.61650151 0.64070547
0.32412192 0.61768121 0.67584616
0.37163273 0.61098903 0.70384502
-0.02611593 -0.059798401 0.050936799
0.28830755 0.61458534 0.63344628
0.3390108 0.61873579 0.66958427
0.38546169 0.61110163 0.69458503
-0.02611593 -0.059798401 0.050936799
0.30119285 0.61464721 0.62720406
0.35180938 0.61587054 0.65928936
0.40027562 0.61222851 0.68432462
-0.02611593 -0.059798401 0.050936799
0.31405547 0.61372745 0.61994421
0.36463457 0.61498684 0.65003014
0.41410455 0.61234105 0.67506456
-0.02611593 -0.059798401 0.050936799
0.32593703 0.61279303 0.61370265
0.38055375 0.61901921 0.64480329
0.42582452 0.60855186 0.66077173
-0.02611593 -0.059798401 0.050936799
0.33466053 0.60499722 0.60039383
0.39235255 0.61615753 0.63452715
0.43863493 0.60868609 0.65053087
-0.02611593 -0.059798401 0.050936799
0.34650469 0.60409909 0.59215301
0.40518168 0.61627364 0.62528586
0.45038149 0.60687858 0.63727373
-0.02611593 -0.059798401 0.050936799
0.36454064 0.6140328 0.591995
0.41904113 0.6193676 0.61707956
0.465222 0.60998696 0.62804896
-0.02611593 -0.059798401 0.050936799
0.37638471 0.61313456 0.58375418
0.42982137 0.61652762 0.60582256
0.4780176 0.61113918 0.61682647
-0.02611593 -0.059798401 0.050936799
0.38203695 0.60140449 0.56743068
0.44367689 0.61862171 0.59759825
0.49080932 0.61129147 0.60558587
-0.02611593 -0.059798401 0.050936799
0.39491138 0.60348415 0.56022477
0.45441967 0.6158179 0.58434182
0.50256366 0.61148357 0.59236479
-0.02611593 -0.059798401 0.050936799
0.40780449 0.60554564 0.55401856
0.46316287 0.61302137 0.57112312
0.50617188 0.60281444 0.57313389
-0.02611593 -0.059798401 0.050936799
0.41656247 0.60173112 0.54178143
0.48009363 0.62004954 0.56593156
0.51690388 0.60202831 0.55891395
-0.02611593 -0.059798401 0.050936799
0.42944083 0.6048106 0.53459358
0.48167169 0.60840625 0.54568452
0.531771 0.60711837 0.55072492
-0.02611593 -0.059798401 0.050936799
0.44229257 0.60590845 0.52637005
0.49756131 0.61447436 0.53849435
0.54255205 0.60929567 0.5385583
-0.02611593 -0.059798401 0.050936799
0.45209962 0.6050536 0.51616752
0.5114246 0.61856812 0.53030604
0.55023932 0.60655689 0.52235937
-0.02611593 -0.059798401 0.050936799
0.46290642 0.60419524 0.50594616
0.52117157 0.6167677 0.51708651
0.56201643 0.60773069 0.51015598
-0.02611593 -0.059798401 0.050936799
0.47372115 0.60533643 0.49576092
0.52992654 0.6169706 0.50392181
0.56668144 0.60402101 0.49299571
-0.02611593 -0.059798401 0.050936799
0.48250565 0.60350341 0.48455948
0.53967738 0.61617005 0.49072027
0.57948887 0.6081726 0.48182723
-0.02611593 -0.059798401 0.050936799
0.4943428 0.60562289 0.47537309
0.54842448 0.61437327 0.47751954
0.58722526 0.60839713 0.46768165
0.45719588 0.6049006 0.46805301
0.50210494 0.60281175 0.46317273
0.55717945 0.61457622 0.46435484
0.59696519 0.60961431 0.45351651
0.46802929 0.60602367 0.4588674
0.52004725 0.61283582 0.4580164
0.56595314 0.61476094 0.45218977
0.59758186 0.60295564 0.43437803
0.47783238 0.60416901 0.44864684
0.52271569 0.60511595 0.44182131
0.57468939 0.61498189 0.43802541
0.60531819 0.60318011 0.42023245
0.49171445 0.60824472 0.44145823
0.53250802 0.60527903 0.43063712
0.58447075 0.6171627 0.42587763
0.62319356 0.61527634 0.4111135
0.50049907 0.60641176 0.43025681
0.54331183 0.60843796 0.41948822
0.59220713 0.61738724 0.41173205
0.62991148 0.61552256 0.39598703
0.50928754 0.6055786 0.4190734
0.55105907 0.60664481 0.40630627
0.58980858 0.60673994 0.39257783
0.63562953 0.61577237 0.38087937
0.51907969 0.60574168 0.40788919
0.55983281 0.60682952 0.39414126
0.60669887 0.61782181 0.38445932
0.64337385 0.61799651 0.36676985
0.53194338 0.60983908 0.39971972
0.56555772 0.60406172 0.37997919
0.60632652 0.60914898 0.36630327
0.64604712 0.61629361 0.3496832
0.54070914 0.60802418 0.38751864
0.57333165 0.60425013 0.3678329
0.62117189 0.61827445 0.35618699
0.64468676 0.61062378 0.33159995
0.54542649 0.6032604 0.37333935
0.58211321 0.60643458 0.35570389
0.61879992 0.60960877 0.33806846
0.65849489 0.61978906 0.31950313
0.55623025 0.60641932 0.36219043
0.58884192 0.60466301 0.34154105
0.62654412 0.61183298 0.3239589
0.66219062 0.61906439 0.30341536
0.56600374 0.60660052 0.35000658
0.59659708 0.60486948 0.32839516
0.63429236 0.61505699 0.30986741
0.66388285 0.61734694 0.2873472
0.57480007 0.60776699 0.3388592
0.6053825 0.60805374 0.31628415
0.63597673 0.61133987 0.29376316
0.66355276 0.61465496 0.27029887
0.58863389 0.61389661 0.32870767
0.61009288 0.60630745 0.30115926
0.63969123 0.61059707 0.27867508
0.66928262 0.61790431 0.25524527
0.59636241 0.61212158 0.31452602
0.61987817 0.60948813 0.28902948
0.64846188 0.6147992 0.26558244
0.6689713 0.6151942 0.23919664
0.59705389 0.60539043 0.29938617
0.62055874 0.60477483 0.27292603
0.64915043 0.61208558 0.24951503
0.66460747 0.60853535 0.22115178
0.60884279 0.60956377 0.28723684
0.62629563 0.60500652 0.25881803
0.65489501 0.61431694 0.23544306
0.67036003 0.61276639 0.20711586
0.61355317 0.60781753 0.27211195
0.63103253 0.60524184 0.24472882
0.66465855 0.6215331 0.22138603
0.67206395 0.61404848 0.19110171
0.62130827 0.60802394 0.25896603
0.63978457 0.60946208 0.23063652
0.66938072 0.62278634 0.20631517
0.5579707 0.50312418 0.15521917
0.62401509 0.60528505 0.24386068
0.64249527 0.60772294 0.2155492
0.66906941 0.6200763 0.19026655
0.54865617 0.49442947 0.14023122
0.63478541 0.60948002 0.23073047
0.64622843 0.60696208 0.20146075
0.55193835 0.50418174 0.15335062
0.54640144 0.49167231 0.12721914
0.64052224 0.60971177 0.21662246
0.66505927 0.6221084 0.18937808
0.55168319 0.5014174 0.14030097
0.5602479 0.50581861 0.11621206
0.65934509 0.62285841 0.20450374
0.56302875 0.51810378 0.15539551
0.55848074 0.50760835 0.12828162
0.56905299 0.51400203 0.10419116
0.65799952 0.6161707 0.18740217
0.55872107 0.51139063 0.14034963
0.56224841 0.51082867 0.11526491
0.57885098 0.52519935 0.091205865
0.56200629 0.51712555 0.15439662
0.55545872 0.50663739 0.1273203
0.57305712 0.52000475 0.10322445
0.58665621 0.53338647 0.079203755
0.55267602 0.50443143 0.13933659
0.56122988 0.51085031 0.11428405
0.58083975 0.52721 0.090204656
0.59342819 0.54261303 0.065239131
0.55139452 0.49968913 0.12527001
0.57504582 0.52201527 0.10222325
0.59266001 0.53938186 0.078199461
0.59921122 0.54982543 0.052256923
0.56823647 0.51282489 0.11418855
0.58784324 0.53320193 0.08918158
0.59540915 0.54262394 0.064201891
0.59497553 0.54705745 0.040282097
0.5750075 0.51703417 0.10113349
0.59562206 0.53940731 0.076143764
0.59213579 0.53988838 0.050208949
0.59271371 0.54731786 0.026324423
0.58677459 0.52524304 0.087056905
0.60238212 0.54563439 0.062125091
0.60496372 0.55405653 0.038221002
0.59248215 0.55055243 0.013382882
0.59956813 0.53542984 0.073997207
0.60414237 0.5468623 0.049109936
0.59165293 0.54135859 0.024235783
0.59222782 0.55280536 -0.00057633221
0.60532063 0.53966087 0.059961285
0.60387629 0.54611564 0.03509666
0.59742105 0.54958892 0.010271933
0.59099251 0.55504376 -0.013517104
0.60605443 0.53891069 0.045929223
0.60461795 0.54736525 0.021100635
0.59015936 0.54485011 -0.0026822202
0.58473837 0.55230093 -0.026454002
0.61680293 0.54714125 0.030871756
0.60333335 0.54664022 0.0061064884
0.59191257 0.54909545 -0.01664298
0.5825032 0.55454296 -0.039375983
0.61149943 0.54143149 0.015862677
0.59405631 0.53790927 -0.0068821572
0.59065461 0.5503521 -0.030601427
0.57026803 0.54678637 -0.050290924
0.60822618 0.53869605 0.0018697418
0.59580946 0.54215461 -0.020842921
0.58040029 0.54260647 -0.042553611
0.64104801 0.62300706 -0.077246495
0.60693765 0.53697127 -0.013142422
0.59452879 0.54242963 -0.03581905
0.57614982 0.54085624 -0.05551007
0.64579082 0.63427669 -0.09313681
0.59965318 0.53125072 -0.027114246
0.5842706 0.53368402 -0.047789235
0.64791095 0.61709148 -0.083484098
0.63753706 0.63154101 -0.10603614
0.59637982 0.52851522 -0.041107193
0.58401632 0.53593701 -0.061748456
0.65664202 0.63036442 -0.1004132
0.58431292 0.58177584 -0.10794048
0.59310651 0.52577978 -0.055100128
0.6497432 0.60319519 -0.089771904
0.65236187 0.6306501 -0.11533295
0.22155714 0.20253323 -0.018978689
0.58182973 0.51705593 -0.068051189
0.67543656 0.63149506 -0.11174848
0.65107429 0.63394266 -0.1312547
-0.02611593 -0.059798401 0.050936799
0.62052256 0.55534363 -0.092091188
0.67113769 0.63179886 -0.1276679
0.22149219 0.19557059 -0.021104138
0.20339312 0.18870874 -0.024890684
0.69616264 0.6296733 -0.12617438
0.66583115 0.63010657 -0.14360458
0.22139163 0.19867861 -0.027048055
-0.02611593 -0.059798401 0.050936799
0.69482976 0.63100231 -0.14413148
0.21940105 0.18663357 -0.024227709
-0.02611593 -0.059798401 0.050936799
0.18327382 0.17183769 -0.02782017
0.69151205 0.6313206 -0.16106933
-0.02611593 -0.059798401 0.050936799
0.19126843 0.17080913 -0.027988516
-0.02611593 -0.059798401 0.050936799
0.56048357 0.50839555 -0.13783184
0.19924432 0.16979869 -0.029156517
-0.02611593 -0.059798401 0.050936799
0.16019557 0.15092377 -0.027766377
0.20024621 0.16076045 -0.027338155
-0.02611593 -0.059798401 0.050936799
0.16616789 0.14892069 -0.028914817
-0.02611593 -0.059798401 0.050936799
-0.02611593 -0.059798401 0.050936799
0.16616605 0.1388862 -0.027095683
-0.02611593 -0.059798401 0.050936799
0.13315846 0.12597069 -0.02471051
0.17213836 0.13688309 -0.028244123
-0.02611593 -0.059798401 0.050936799
0.14011581 0.1249819 -0.026859388
-0.02611593 -0.059798401 0.050936799
-0.02611593 -0.059798401 0.050936799
0.14905801 0.12500387 -0.030027479
-0.02611593 -0.059798401 0.050936799
0.11809143 0.11304481 -0.025662549
0.14806028 0.11597281 -0.028171536
-0.02611593 -0.059798401 0.050936799
0.12603773 0.1140702 -0.028793842
-0.02611593 -0.059798401 0.050936799
-0.02611593 -0.059798401 0.050936799
0.12999864 0.10907479 -0.029958759
-0.02611593 -0.059798401 0.050936799
0.10605437 0.10308957 -0.025617246
0.12998202 0.10005821 -0.029121265
-0.02611593 -0.059798401 0.050936799
0.11098548 0.1001264 -0.028764244
-0.02611593 -0.059798401 0.050936799
-0.02611593 -0.059798401 0.050936799
0.11593928 0.098144986 -0.030893557
-0.02611593 -0.059798401 0.050936799
0.091024771 0.090127543 -0.024569973
0.11194512 0.085107282 -0.028053652
-0.02611593 -0.059798401 0.050936799
0.10092238 0.093199663 -0.03070179
-0.02611593 -0.059798401 0.050936799
-0.02611593 -0.059798401 0.050936799
0.1018947 0.086197264 -0.030846711
-0.02611593 -0.059798401 0.050936799
0.081009984 0.081146859 -0.023544572
0.10286703 0.079194874 -0.030991632
-0.02611593 -0.059798401 0.050936799
0.082956448 0.077176549 -0.025653545
-0.02611593 -0.059798401 0.050936799
-0.02611593 -0.059798401 0.050936799
0.086883835 0.073217146 -0.028799765
-0.02611593 -0.059798401 0.050936799
0.069995366 0.072169781 -0.022500385
0.086856343 0.066218339 -0.028925896
-0.02611593 -0.059798401 0.050936799
0.073911883 0.070228122 -0.026610229
-0.02611593 -0.059798401 0.050936799
-0.02611593 -0.059798401 0.050936799
0.072895437 0.061215155 -0.025753938
-0.02611593 -0.059798401 0.050936799
-0.02611593 -0.059798401 0.050936799
0.073852964 0.055230677 -0.026880506
-0.02611593 -0.059798401 0.050936799
0.065885857 0.06325803 -0.02658603
-0.02611593 -0.059798401 0.050936799
-0.02611593 -0.059798401 0.050936799
0.063869596 0.054248646 -0.025710952
-0.02611593 -0.059798401 0.050936799
-0.02611593 -0.059798401 0.050936799
0.064812325 0.049282093 -0.02781916
-0.02611593 -0.059798401 0.050936799
0.055893704 0.055259101 -0.02454295
-0.02611593 -0.059798401 0.050936799
-0.02611593 -0.059798401 0.050936799
0.058810413 0.053321034 -0.028634001
-0.02611593 -0.059798401 0.050936799
-0.02611593 -0.059798401 0.050936799
0.056790225 0.043311819 -0.027776945
-0.02611593 -0.059798401 0.050936799
0.04886055 0.051302988 -0.02548315
-0.02611593 -0.059798401 0.050936799
-0.02611593 -0.059798401 0.050936799
0.051792059 0.048347004 -0.02859256
-0.02611593 -0.059798401 0.050936799
-0.02611593 -0.059798401 0.050936799
0.050760813 0.04035195 -0.02871792
-0.02611593 -0.059798401 0.050936799
0.041875709 0.045292959 -0.023460407
-0.02611593 -0.059798401 0.050936799
-0.02611593 -0.059798401 0.050936799
0.0418147 0.039330151 -0.025567837
-0.02611593 -0.059798401 0.050936799
-0.02611593 -0.059798401 0.050936799
0.041757617 0.034367185 -0.027657256
-0.02611593 -0.059798401 0.050936799
0.036846124 0.042329509 -0.024420168
-0.02611593 -0.059798401 0.050936799
-0.02611593 -0.059798401 0.050936799
0.034829866 0.033320121 -0.023545094
-0.02611593 -0.059798401 0.050936799
-0.02611593 -0.059798401 0.050936799
0.033787761 0.027342821 -0.024634074
-0.02611593 -0.059798401 0.050936799
0.03083151 0.038351718 -0.024379499
-0.02611593 -0.059798401 0.050936799
-0.02611593 -0.059798401 0.050936799
0.029789405 0.032374412 -0.02546848
-0.02611593 -0.059798401 0.050936799
-0.02611593 -0.059798401 0.050936799
0.027777072 0.024364863 -0.02457539
-0.02611593 -0.059798401 0.050936799
0.023880189 0.031305678 -0.020375449
-0.02611593 -0.059798401 0.050936799
-0.02611593 -0.059798401 0.050936799
-0.02611593 -0.059798401 0.050936799
-0.02611593 -0.059798401 0.050936799
-0.02611593 -0.059798401 0.050936799
0.016896535 0.011243748 -0.015605982
-0.02611593 -0.059798401 0.050936799
0.013980743 0.018199062 -0.012424503
-0.02611593 -0.059798401 0.050936799
-0.02611593 -0.059798401 0.050936799
-0.02611593 -0.059798401 0.050936799
-0.02611593 -0.059798401 0.050936799
-0.02611593 -0.059798401 0.050936799
-0.02611593 -0.059798401 0.050936799
-0.02611593 -0.059798401 0.050936799
-0.02611593 -0.059798401 0.050936799
-0.02611593 -0.059798401 0.050936799
-0.02611593 -0.059798401 0.050936799
-0.02611593 -0.059798401 0.050936799
-0.02611593 -0.059798401 0.050936799
-0.02611593 -0.059798401 0.050936799
0.013733421 0.017434383 -0.025438108
-0.02611593 -0.059798401 0.050936799
-0.02611593 -0.059798401 0.050936799
-0.02611593 -0.059798401 0.050936799
-0.02611593 -0.059798401 0.050936799
-0.02611593 -0.059798401 0.050936799
-0.02611593 -0.059798401 0.050936799
-0.02611593 -0.059798401 0.050936799
0.0087116854 0.016470592 -0.026361842
-0.02611593 -0.059798401 0.050936799
-0.02611593 -0.059798401 0.050936799
-0.02611593 -0.059798401 0.050936799
-0.02611593 -0.059798401 0.050936799
0.0018953487 0.010297751 -0.015342142
-0.02611593 -0.059798401 0.050936799
-0.02611593 -0.059798401 0.050936799
0.0066489442 0.019549618 -0.030268852
-0.02611593 -0.059798401 0.050936799
-0.02611593 -0.059798401 0.050936799
-0.02611593 -0.059798401 0.050936799
-0.02611593 -0.059798401 0.050936799
-0.00016739045 0.013376777 -0.019249149
-0.02611593 -0.059798401 0.050936799
-0.02611593 -0.059798401 0.050936799
0.0016567977 0.016549982 -0.029229283
-0.02611593 -0.059798401 0.050936799
-0.02611593 -0.059798401 0.050936799
-0.02611593 -0.059798401 0.050936799
-0.02611593 -0.059798401 0.050936799
-0.0022301332 0.016455803 -0.023156159
-0.02611593 -0.059798401 0.050936799
-0.02611593 -0.059798401 0.050936799
-0.0033314205 0.014550176 -0.028171711
-0.02611593 -0.059798401 0.050936799
-0.02611593 -0.059798401 0.050936799
-0.02611593 -0.059798401 0.050936799
-0.02611593 -0.059798401 0.050936799
-0.0052778972 0.018520499 -0.026062734
-0.02611593 -0.059798401 0.050936799
-0.02611593 -0.059798401 0.050936799
-0.0073346156 0.013564701 -0.028114565
-0.02611593 -0.059798401 0.050936799
-0.02611593 -0.059798401 0.050936799
-0.02611593 -0.059798401 0.050936799
-0.02611593 -0.059798401 0.050936799
-0.0092662983 0.016517105 -0.025023945
-0.02611593 -0.059798401 0.050936799
-0.02611593 -0.059798401 0.050936799
-0.011352605 0.013597146 -0.029039063
-0.02611593 -0.059798401 0.050936799
-0.02611593 -0.059798401 0.050936799
-0.02611593 -0.059798401 0.050936799
-0.02611593 -0.059798401 0.050936799
-0.013221181 0.0134777 -0.022003859
-0.02611593 -0.059798401 0.050936799
-0.02611593 -0.059798401 0.050936799
-0.015351874 0.013611501 -0.028963901
-0.02611593 -0.059798401 0.050936799
-0.02611593 -0.059798401 0.050936799
-0.02611593 -0.059798401 0.050936799
-0.02611593 -0.059798401 0.050936799
-0.016235428 0.014506387 -0.022929132
-0.02611593 -0.059798401 0.050936799
-0.02611593 -0.059798401 0.050936799
-0.018370047 0.013640357 -0.029907193
-0.02611593 -0.059798401 0.050936799
-0.018141448 0.014423119 -0.017893244
-0.02611593 -0.059798401 0.050936799
-0.02611593 -0.059798401 0.050936799
-0.01931278 0.018606922 -0.027798984
-0.02611593 -0.059798401 0.050936799
-0.02611593 -0.059798401 0.050936799
-0.022369316 0.013654713 -0.029832032
-0.02611593 -0.059798401 0.050936799
-0.021155694 0.015451806 -0.018818513
-0.02611593 -0.059798401 0.050936799
-0.02611593 -0.059798401 0.050936799
-0.023312049 0.018621277 -0.027723823
-0.02611593 -0.059798401 0.050936799
-0.02611593 -0.059798401 0.050936799
-0.026368583 0.013669068 -0.02975687
-0.02611593 -0.059798401 0.050936799
-0.024125556 0.013426732 -0.01679885
-0.02611593 -0.059798401 0.050936799
-0.02611593 -0.059798401 0.050936799
-0.027270861 0.014582043 -0.024721753
-0.02611593 -0.059798401 0.050936799
-0.02611593 -0.059798401 0.050936799
-0.029368034 0.013679835 -0.029700499
-0.02611593 -0.059798401 0.050936799
-0.027125007 0.013437499 -0.016742479
-0.02611593 -0.059798401 0.050936799
-0.02611593 -0.059798401 0.050936799
-0.029266566 0.015589051 -0.024666153
-0.02611593 -0.059798401 0.050936799
-0.02611593 -0.059798401 0.050936799
-0.033367306 0.01369419 -0.029625338
-0.02611593 -0.059798401 0.050936799
-0.029150302 0.016480347 -0.01865017
-0.02611593 -0.059798401 0.050936799
-0.02611593 -0.059798401 0.050936799
-0.03334374 0.019693175 -0.02951723
-0.02611593 -0.059798401 0.050936799
-0.02611593 -0.059798401 0.050936799
-0.037377436 0.015726298 -0.030513793
-0.02611593 -0.059798401 0.050936799
-0.02611593 -0.059798401 0.050936799
-0.02611593 -0.059798401 0.050936799
-0.02611593 -0.059798401 0.050936799
-0.036235694 0.013578334 -0.022571336
-0.02611593 -0.059798401 0.050936799
-0.02611593 -0.059798401 0.050936799
-0.041357987 0.015722563 -0.029438976
-0.02611593 -0.059798401 0.050936799
-0.036252588 0.0236309 -0.025390137
-0.02611593 -0.059798401 0.050936799
-0.02611593 -0.059798401 0.050936799
-0.040275421 0.017646272 -0.025423083
-0.02611593 -0.059798401 0.050936799
-0.02611593 -0.059798401 0.050936799
-0.044338714 0.015715241 -0.028382938
-0.02611593 -0.059798401 0.050936799
-0.02611593 -0.059798401 0.050936799
-0.02611593 -0.059798401 0.050936799
-0.02611593 -0.059798401 0.050936799
-0.043270946 0.018656878 -0.025348693
-0.02611593 -0.059798401 0.050936799
-0.02611593 -0.059798401 0.050936799
-0.049367387 0.017769016 -0.030252267
-0.02611593 -0.059798401 0.050936799
-0.02611593 -0.059798401 0.050936799
-0.02611593 -0.059798401 0.050936799
-0.02611593 -0.059798401 0.050936799
-0.048310488 0.022728402 -0.028181646
-0.02611593 -0.059798401 0.050936799
-0.02611593 -0.059798401 0.050936799
-0.053344008 0.018765122 -0.029159434
-0.02611593 -0.059798401 0.050936799
-0.02611593 -0.059798401 0.050936799
-0.02611593 -0.059798401 0.050936799
-0.02611593 -0.059798401 0.050936799
-0.049143635 0.012534713 -0.017346773
-0.02611593 -0.059798401 0.050936799
-0.02611593 -0.059798401 0.050936799
-0.055280529 0.015700452 -0.025177266
-0.02611593 -0.059798401 0.050936799
-0.02611593 -0.059798401 0.050936799
-0.02611593 -0.059798401 0.050936799
-0.02611593 -0.059798401 0.050936799
-0.052153952 0.014563231 -0.018254027
-0.02611593 -0.059798401 0.050936799
-0.02611593 -0.059798401 0.050936799
-0.062378887 0.023850836 -0.03189921
-0.02611593 -0.059798401 0.050936799
-0.02611593 -0.059798401 0.050936799
-0.02611593 -0.059798401 0.050936799
-0.02611593 -0.059798401 0.050936799
-0.02611593 -0.059798401 0.050936799
-0.02611593 -0.059798401 0.050936799
-0.02611593 -0.059798401 0.050936799
-0.063233763 0.017692639 -0.022991575
-0.02611593 -0.059798401 0.050936799
-0.02611593 -0.059798401 0.050936799
-0.02611593 -0.059798401 0.050936799
-0.02611593 -0.059798401 0.050936799
-0.02611593 -0.059798401 0.050936799
-0.02611593 -0.059798401 0.050936799
-0.02611593 -0.059798401 0.050936799
-0.06413696 0.013588378 -0.017046895
-0.02611593 -0.059798401 0.050936799
-0.02611593 -0.059798401 0.050936799
-0.02611593 -0.059798401 0.050936799
-0.02611593 -0.059798401 0.050936799
-0.061058693 0.014505086 -0.013086606
-0.02611593 -0.059798401 0.050936799
-0.02611593 -0.059798401 0.050936799
-0.02611593 -0.059798401 0.050936799
-0.02611593 -0.059798401 0.050936799
-0.02611593 -0.059798401 0.050936799
-0.02611593 -0.059798401 0.050936799
-0.02611593 -0.059798401 0.050936799
-0.067108914 0.020597959 -0.016864397
-0.02611593 -0.059798401 0.050936799
-0.02611593 -0.059798401 0.050936799
-0.02611593 -0.059798401 0.050936799
-0.02611593 -0.059798401 0.050936799
-0.063023888 0.018493498 -0.011977281
-0.02611593 -0.059798401 0.050936799
-0.02611593 -0.059798401 0.050936799
-0.068016037 0.01549386 -0.010937735
-0.02611593 -0.059798401 0.050936799
-0.02611593 -0.059798401 0.050936799
-0.08729367 0.034902513 -0.029231913
-0.02611593 -0.059798401 0.050936799
-0.073150367 0.033707723 -0.021515716
-0.02611593 -0.059798401 0.050936799
-0.02611593 -0.059798401 0.050936799
-0.083230376 0.036833547 -0.026272058
-0.02611593 -0.059798401 0.050936799
-0.02611593 -0.059798401 0.050936799
-0.093272932 0.039923191 -0.029029079
-0.02611593 -0.059798401 0.050936799
-0.081211105 0.041825525 -0.026219547
-0.02611593 -0.059798401 0.050936799
-0.02611593 -0.059798401 0.050936799
-0.087188266 0.037811559 -0.024179559
-0.02611593 -0.059798401 0.050936799
-0.02611593 -0.059798401 0.050936799
-0.099256121 0.043944046 -0.02884426
-0.02611593 -0.059798401 0.050936799
-0.087194294 0.045846373 -0.026034731
-0.02611593 -0.059798401 0.050936799
-0.02611593 -0.059798401 0.050936799
-0.095196761 0.044875257 -0.025902428
-0.02611593 -0.059798401 0.050936799
-0.02611593 -0.059798401 0.050936799
-0.10522059 0.047946814 -0.027659789
-0.02611593 -0.059798401 0.050936799
-0.091152191 0.046824373 -0.023942232
-0.02611593 -0.059798401 0.050936799
-0.02611593 -0.059798401 0.050936799
-0.098140039 0.044831753 -0.022847071
-0.02611593 -0.059798401 0.050936799
-0.02611593 -0.059798401 0.050936799
-0.11119291 0.049949918 -0.026511345
-0.02611593 -0.059798401 0.050936799
-0.098164789 0.052884668 -0.025701907
-0.02611593 -0.059798401 0.050936799
-0.02611593 -0.059798401 0.050936799
-0.10714834 0.051899038 -0.024551149
-0.02611593 -0.059798401 0.050936799
-0.02611593 -0.059798401 0.050936799
-0.11713867 0.053934596 -0.024327207
-0.02611593 -0.059798401 0.050936799
-0.10311856 0.054866087 -0.023572598
-0.02611593 -0.059798401 0.050936799
-0.02611593 -0.059798401 0.050936799
-0.11511939 0.058926564 -0.024274696
-0.02611593 -0.059798401 0.050936799
-0.02611593 -0.059798401 0.050936799
-0.1271202 0.062987037 -0.024976794
-0.02611593 -0.059798401 0.050936799
-0.11010158 0.058890533 -0.023368988
-0.02611593 -0.059798401 0.050936799
-0.02611593 -0.059798401 0.050936799
-0.12410898 0.065975763 -0.024979111
-0.02611593 -0.059798401 0.050936799
-0.02611593 -0.059798401 0.050936799
-0.13607627 0.069000237 -0.023699909
-0.02611593 -0.059798401 0.050936799
-0.11606212 0.063893117 -0.022166487
-0.02611593 -0.059798401 0.050936799
-0.02611593 -0.059798401 0.050936799
-0.13307983 0.073006868 -0.024683867
-0.02611593 -0.059798401 0.050936799
-0.02611593 -0.059798401 0.050936799
-0.15007882 0.08210253 -0.026201587
-0.02611593 -0.059798401 0.050936799
-0.12807289 0.074988581 -0.024741784
-0.02611593 -0.059798401 0.050936799
-0.02611593 -0.059798401 0.050936799
-0.14404246 0.08204481 -0.024315003
-0.02611593 -0.059798401 0.050936799
-0.11699792 0.065842107 -0.019112684
-0.16000812 0.090100884 -0.023870211
-0.02611593 -0.059798401 0.050936799
-0.13398905 0.076937415 -0.020594358
-0.02611593 -0.059798401 0.050936799
-0.02611593 -0.059798401 0.050936799
-0.15701561 0.093107685 -0.024872184
-0.02611593 -0.059798401 0.050936799
-0.12495024 0.072851531 -0.01783656
-0.17797549 0.10719877 -0.025224991
-0.02611593 -0.059798401 0.050936799
-0.14898749 0.091043152 -0.023059227
-0.02611593 -0.059798401 0.050936799
-0.02611593 -0.059798401 0.050936799
-0.17098071 0.10617381 -0.025374543
-0.02611593 -0.059798401 0.050936799
-0.13794211 0.083932489 -0.019393407
-0.19391757 0.12125381 -0.024672084
-0.02611593 -0.059798401 0.050936799
-0.16496308 0.10613419 -0.024487618
-0.02611593 -0.059798401 0.050936799
-0.02611593 -0.059798401 0.050936799
-0.18692279 0.12022886 -0.024821635
-0.02611593 -0.059798401 0.050936799
-0.15294054 0.098038226 -0.021858275
-0.21886012 0.14437582 -0.025787212
-0.02611593 -0.059798401 0.050936799
-0.17992799 0.1192039 -0.024971187
-0.02611593 -0.059798401 0.050936799
-0.02611593 -0.059798401 0.050936799
-0.20483795 0.13627265 -0.023195442
-0.02611593 -0.059798401 0.050936799
-0.16689086 0.11008642 -0.021378987
-0.23673782 0.1603834 -0.022161704
-0.02611593 -0.059798401 0.050936799
-0.19985364 0.13727263 -0.024271045
-0.02611593 -0.059798401 0.050936799
-0.02611593 -0.059798401 0.050936799
-0.22774734 0.15835145 -0.022366852
-0.02611593 -0.059798401 0.050936799
-0.18584323 0.12616998 -0.021733329
-0.26361203 0.1864578 -0.020186219
-0.02611593 -0.059798401 0.050936799
-0.21876861 0.15332 -0.022626061
-0.02611593 -0.059798401 0.050936799
-0.02611593 -0.059798401 0.050936799
-0.25263762 0.18041936 -0.020501025
-0.02611593 -0.059798401 0.050936799
-0.20777938 0.14626361 -0.021959227
-0.71394801 0.64612979 -0.12147406
-0.02611593 -0.059798401 0.050936799
-0.23865682 0.17135255 -0.0199266
-0.02611593 -0.059798401 0.050936799
-0.72166473 0.65090436 -0.10723837
-0.69808984 0.64419931 -0.12880835
-0.02611593 -0.059798401 0.050936799
-0.23370303 0.16937111 -0.022055905
-0.71637493 0.64358014 -0.090464219
-0.7088356 0.65102053 -0.11647961
-0.26751196 0.19741601 -0.016913868
-0.02611593 -0.059798401 0.050936799
-0.72008544 0.6453228 -0.0753581
-0.70853305 0.64671367 -0.099557444
-0.02611593 -0.059798401 0.050936799
-0.26158097 0.19444926 -0.02007965
-0.72381085 0.64808339 -0.061233625
-0.7122702 0.64647472 -0.085487023
-0.70370549 0.65087599 -0.10957594
-0.02611593 -0.059798401 0.050936799
-0.72052753 0.64378387 -0.045367502
-0.71598476 0.64721763 -0.070398942
-0.70842367 0.65062261 -0.094487071
-0.69786423 0.64899945 -0.11772201
-0.72124648 0.64351618 -0.030353799
-0.71669286 0.64493209 -0.054421604
-0.7121461 0.64936572 -0.079435006
-0.70658869 0.65177798 -0.10350358
-0.72396117 0.6442554 -0.015284486
-0.7224139 0.64869976 -0.040241525
-0.71485388 0.64708745 -0.063420102
-0.7113148 0.64952493 -0.088450745
-0.72666413 0.6479941 -0.00016112626
-0.72312206 0.64641428 -0.024264202
-0.71956813 0.64783382 -0.0483132
-0.71703285 0.64927512 -0.073343083
-0.72539127 0.64571959 0.01477896
-0.72682869 0.64915681 -0.0091400594
-0.72229075 0.64657348 -0.033279933
-0.72074038 0.64700043 -0.057309382
-0.72210407 0.64241987 0.03066311
-0.72555977 0.64588237 0.0057820082
-0.72800094 0.6483233 -0.018136241
-0.72844636 0.64975733 -0.042110085
-0.72183806 0.64316642 0.044676386
-0.72526807 0.64359331 0.021740556
-0.73269254 0.65005147 -0.0020116717
-0.73215395 0.64748257 -0.026076384
-0.71657377 0.63887781 0.059505276
-0.72399139 0.64231849 0.036698658
-0.73040909 0.64575559 0.013873249
-0.73485768 0.64620411 -0.010043457
-0.7202726 0.64362001 0.074665442
-0.72570628 0.64305419 0.051749177
-0.73511946 0.64750183 0.028998155
-0.74053442 0.64691794 0.0070815459
-0.72000659 0.64436662 0.088678718
-0.72941285 0.64579672 0.066873312
-0.73482782 0.64521277 0.044956692
-0.74124646 0.64363259 0.023040861
-0.71475714 0.64109594 0.10252596
-0.729132 0.6455254 0.081868224
-0.73053384 0.63889188 0.061767664
-0.74492747 0.64333946 0.04011026
-0.71147686 0.64081383 0.11746451
-0.72386783 0.64123678 0.096697114
-0.73524028 0.64163804 0.076910585
-0.749623 0.64406776 0.056216814
-0.70523155 0.6365397 0.13127494
-0.72358698 0.64096546 0.11169203
-0.73894691 0.64438057 0.092034712
-0.75030845 0.64276403 0.073211826
-0.70593482 0.64027131 0.14636073
-0.7242794 0.64267921 0.12774143
-0.73865128 0.64309126 0.10801128
-0.75201643 0.64048219 0.08920794
-0.70466501 0.64201409 0.16037323
-0.72001106 0.6393941 0.14260714
-0.73932892 0.64378721 0.12504232
-0.75568956 0.64218861 0.10631339
-0.69841582 0.63873994 0.17420168
-0.71773058 0.63911563 0.15756446
-0.74102503 0.64450473 0.14109251
-0.75836283 0.64389157 0.12340003
-0.69814187 0.64148611 0.18825099
-0.71545011 0.6388371 0.1725218
-0.73275441 0.63718778 0.15681063
-0.75504601 0.638556 0.14124747
-0.69189268 0.63821185 0.20207945
-0.71217763 0.63655519 0.1874243
-0.73444664 0.63890529 0.17287883
-0.76168418 0.64425451 0.15948102
-0.68862712 0.63894767 0.21603635
-0.71088922 0.63828003 0.20243648
-0.73215133 0.63760883 0.1888178
-0.75938195 0.6399405 0.17636558
-0.68536162 0.63968343 0.22999325
-0.70760888 0.63799798 0.21737501
-0.73085189 0.63731581 0.2047936
-0.75210726 0.633627 0.19212052
-0.67715019 0.63643819 0.2417848
-0.7053284 0.63771939 0.23233236
-0.73052579 0.63900799 0.22182386
-0.75872666 0.63930738 0.21135372
-0.67388469 0.63717407 0.25574172
-0.70105219 0.63643384 0.24723409
-0.73119956 0.64070368 0.23887292
-0.75938165 0.64098501 0.22940245
-0.66764635 0.63591748 0.26860654
-0.69679081 0.63616627 0.26115417
-0.72294372 0.6344046 0.25360942
-0.75308406 0.63565677 0.24619386
-0.66140801 0.6346609 0.28147137
-0.69251066 0.63588059 0.27607393
-0.72261369 0.63709664 0.27065772
-0.75371647 0.63831627 0.26526025
-0.65417373 0.63240105 0.29429939
-0.68723071 0.63559133 0.29097492
-0.7183187 0.63579297 0.2865591
-0.7494067 0.63599473 0.28214329
-0.64894998 0.63216603 0.3062014
-0.68494248 0.63731247 0.30596828
-0.7120468 0.63350046 0.30140525
-0.74607414 0.63465846 0.30006284
-0.64270765 0.63190931 0.31908423
-0.67769337 0.63403457 0.31977794
-0.70872515 0.63418198 0.3183611
-0.74373358 0.63532555 0.31803715
-0.63451499 0.6286822 0.32987612
-0.66946328 0.63077128 0.33256915
-0.70442635 0.63387817 0.33428052
-0.74039704 0.6349892 0.33597469
-0.63024175 0.63141406 0.34385026
-0.66517532 0.63248515 0.34752497
-0.6981318 0.63256741 0.35014433
-0.74000692 0.63862669 0.35603997
-0.6239956 0.63215715 0.35675114
-0.65991408 0.63221401 0.36142629
-0.69383299 0.63226366 0.36606377
-0.73072863 0.63330579 0.37177533
-0.61579895 0.62992984 0.36756107
-0.65265328 0.63193566 0.37528998
-0.68952626 0.63395953 0.38201922
-0.7283842 0.63497281 0.38976771
-0.61054856 0.63167638 0.38049871
-0.64342326 0.62866873 0.38806239
-0.68225455 0.63166344 0.39684659
-0.72205216 0.63362575 0.40763083
-0.60332525 0.63143414 0.39236313
-0.64013124 0.63138604 0.40305501
-0.67595613 0.63135248 0.41272843
-0.71473908 0.63229328 0.42447552
-0.5970937 0.63319522 0.40428236
-0.63287038 0.63110769 0.41691872
-0.67065352 0.63204491 0.42864704
-0.71137607 0.63393849 0.44344875
-0.5878973 0.63096428 0.41507345
-0.62857848 0.63382155 0.43189251
-0.66040504 0.62875634 0.44240034
-0.70009422 0.6296103 0.45916456
-0.58264697 0.63271087 0.42801115
-0.62131381 0.63454294 0.44577426
-0.65507978 0.63043046 0.45933667
-0.69575006 0.63126993 0.47711933
-0.57444251 0.63248312 0.43885711
-0.60815644 0.62731665 0.45540047
-0.64680046 0.63013047 0.47418126
-0.68544149 0.62892693 0.49388966
-0.56329173 0.62828159 0.4475753
-0.60286075 0.63102657 0.47037351
-0.6414752 0.6318047 0.49111757
-0.67714739 0.62760895 0.50971586
-0.55606443 0.62903917 0.4594577
-0.59166861 0.62778872 0.48110905
-0.62926847 0.62754524 0.50281596
-0.6688078 0.62825447 0.52757746
-0.54687887 0.62882602 0.46928519
-0.58637685 0.63049889 0.49606404
-0.62293941 0.63021564 0.51975149
-0.66639149 0.63386637 0.54864085
-0.54062468 0.63156879 0.48222211
-0.57615799 0.62924612 0.50785404
-0.61268312 0.62892669 0.53354084
-0.65115172 0.62856013 0.56226414
-0.5304659 0.62937045 0.49099514
-0.5649845 0.62602627 0.51758993
-0.60340393 0.62862307 0.54836667
-0.64087665 0.62725312 0.57705319
-0.52321208 0.6321097 0.50391322
-0.55768925 0.62972909 0.53252536
-0.59411681 0.63031906 0.56322849
-0.63056022 0.62690973 0.59385949
-0.51499975 0.63388163 0.51479524
-0.54747033 0.62847632 0.5443154
-0.58091027 0.62605608 0.57490802
-0.62219417 0.62953681 0.61275679
-0.50581408 0.63366842 0.52462268
-0.53529716 0.62525284 0.55403244
-0.57360023 0.62874097 0.59082514
-0.61089659 0.62920791 0.62854469
-0.49370489 0.62849963 0.53130472
-0.52704734 0.62698871 0.56691372
-0.56331724 0.62943363 0.60565019
-0.59864455 0.62691188 0.64227843
-0.48256499 0.62631577 0.53905928
-0.51487017 0.62476504 0.57664883
-0.54815251 0.62419969 0.61527485
-0.58632451 0.62756115 0.65906519
-0.47435269 0.62808776 0.5499413
-0.50757092 0.62946779 0.59160233
-0.53788429 0.62591022 0.62911826
-0.57111442 0.62429082 0.67072517
-0.46026254 0.62292981 0.5555861
-0.49441665 0.62625879 0.60030091
-0.52662027 0.62661731 0.64292479
-0.55979025 0.62594342 0.68754882
-0.45397791 0.62865394 0.56957674
-0.48516703 0.62799096 0.61316347
-0.51340193 0.62535375 0.6546585
-0.54360694 0.62068784 0.69815427
-0.44380733 0.62945515 0.57840383
-0.47296327 0.62774897 0.62393421
-0.5021379 0.6260609 0.66846502
-0.53032058 0.62236953 0.71294093
-0.4326674 0.62727129 0.58615834
-0.46370971 0.63048106 0.63681471
-0.48893827 0.6248154 0.67919898
-0.5180006 0.6230188 0.72972775
-0.4215275 0.62508744 0.5939129
-0.44859713 0.62630117 0.64345849
-0.47376162 0.62258101 0.6888777
-0.50373709 0.62371516 0.743478
-0.41233012 0.62787372 0.60379446
-0.43737054 0.62704444 0.65526569
-0.46053934 0.62231731 0.70062941
-0.48851907 0.62244439 0.75517404
-0.40115973 0.62867129 0.61260271
-0.42327648 0.62288636 0.66092849
-0.44827154 0.6240207 0.71443522
-0.47325969 0.62213737 0.76888746
-0.38901606 0.62748367 0.62035656
-0.41204205 0.62562937 0.67277181
-0.43404552 0.62475318 0.72618604
-0.45608348 0.61989582 0.77852857
-0.37981871 0.63027 0.63023806
-0.39983043 0.62738693 0.68357861
-0.41891026 0.62155509 0.73384738
-0.439843 0.61960322 0.79122353
-0.36674318 0.62613356 0.63492
-0.38666824 0.62617761 0.69231325
-0.40661591 0.62524003 0.74868894
-0.42362124 0.61932874 0.80291879
-0.35461825 0.62496406 0.64167416
-0.37252492 0.62498289 0.70002955
-0.39045426 0.62401998 0.75736719
-0.40741822 0.61907226 0.81361437
-0.34246677 0.62577605 0.64946395
-0.35842693 0.62182462 0.70571035
-0.37431526 0.62181824 0.76502782
-0.39019668 0.61879426 0.82529086
-0.33134159 0.62461019 0.65623689
-0.34618875 0.62556374 0.71755284
-0.36010793 0.62256879 0.77577901
-0.372058 0.61658525 0.83291394
-0.31921276 0.62444049 0.66300905
-0.33206418 0.62438709 0.72426939
-0.34298784 0.62038153 0.78242123
-0.35387409 0.61633974 0.84257233
-0.30803451 0.62723768 0.6718533
-0.31696242 0.62222511 0.72994953
-0.32779941 0.62114662 0.79215395
-0.33573544 0.61413074 0.85019529
-0.29683748 0.63001674 0.68169725
-0.30372447 0.62596065 0.74177319
-0.31165257 0.6209445 0.79985064
-0.31659698 0.61191821 0.85779953
-0.28182244 0.62492758 0.68332469
-0.28868672 0.62185329 0.74441826
-0.29546437 0.62170601 0.80956459
-0.29938632 0.61365789 0.86851239
-0.26968962 0.62575775 0.6901148
-0.27447155 0.62460351 0.75520551
-0.27834031 0.62051857 0.81622481
-0.28024396 0.61244518 0.87613469
-0.25567439 0.62067223 0.69176102
-0.25843403 0.62049252 0.75783181
-0.26123506 0.61934912 0.82188529
-0.26109371 0.61323208 0.88379294
-0.24256442 0.62051702 0.69751465
-0.24334709 0.61934841 0.76253021
-0.24506161 0.62112862 0.83061767
-0.24292457 0.61400455 0.8924697
-0.23040898 0.62232888 0.7053225
-0.22917329 0.621135 0.77130014
-0.22697915 0.61897385 0.83524162
-0.22375563 0.61477333 0.90112764
-0.21827227 0.62415886 0.71213073
-0.21406369 0.62097263 0.77701622
-0.20991524 0.61684084 0.83888483
-0.20464675 0.61459661 0.90676856
-0.20423046 0.62105483 0.71481252
-0.19799565 0.61984301 0.78069621
-0.19178353 0.6176495 0.84556222
-0.18360621 0.61146748 0.90931892
-0.19111265 0.62289929 0.72060221
-0.18288215 0.62068057 0.78643036
-0.17469302 0.61749804 0.85024107
-0.1635389 0.61032355 0.91292375
-0.17800267 0.62274414 0.72635597
-0.16588224 0.61660206 0.78703851
-0.15662931 0.61536139 0.85386544
-0.14447141 0.60918319 0.9165473
-0.16393034 0.62262154 0.73009151
-0.15072736 0.6184032 0.79478997
-0.13855769 0.61522448 0.85752589
-0.12346832 0.60609025 0.91709834
-0.1498846 0.62051731 0.73279136
-0.1347007 0.61630994 0.79645264
-0.12046344 0.6160692 0.86220396
-0.10426493 0.61084032 0.92682803
-0.13578962 0.62137657 0.73754466
-0.11867402 0.61421663 0.79811519
-0.10243714 0.61396879 0.86382908
-0.083280548 0.60776544 0.92637938
-0.12171337 0.62225378 0.74129826
-0.10351127 0.61801744 0.80590278
-0.083407104 0.61286455 0.86545336
-0.063182741 0.60960287 0.93103784
-0.10859554 0.62409818 0.74708796
-0.086412922 0.61986566 0.81061763
-0.065290213 0.61469108 0.87114906
-0.042235814 0.6065641 0.92858994
-0.093546048 0.62299025 0.74978709
-0.070404984 0.61779046 0.81128061
-0.047214687 0.61555392 0.87482756
-0.022205958 0.60545635 0.93019539
-0.079560392 0.61994052 0.74947
-0.05437047 0.61769688 0.81297928
-0.029244559 0.61350781 0.87345362
-0.0021042209 0.60829371 0.93487197
-0.064578854 0.61588734 0.74911606
-0.03731741 0.61758161 0.81565881
-0.010210589 0.61340344 0.8750959
0.017956143 0.61016726 0.93753117
-0.049476199 0.61874259 0.75388658
-0.020260423 0.61846614 0.81835639
0.007872791 0.61626601 0.87881035
0.038842976 0.60618299 0.9320662
-0.035396017 0.62061965 0.75765818
-0.0052257199 0.61837614 0.8200739
0.02586557 0.61520153 0.87845409
0.058816668 0.60512948 0.93067271
-0.020451915 0.61660266 0.75530487
0.011721939 0.61535186 0.81770104
0.044880815 0.61511528 0.87909675
0.079880767 0.60799944 0.93333113
-0.0063490793 0.61946148 0.76009423
0.028760199 0.61625445 0.819399
0.063877337 0.6150471 0.87873977
0.099794373 0.60600024 0.92892063
0.0087496415 0.62131685 0.76484668
0.045734439 0.61521167 0.81806177
0.081723355 0.61010998 0.87131381
0.12079446 0.60692477 0.92854404
0.023742972 0.62026322 0.76454681
0.062772699 0.61611432 0.81975979
0.10185166 0.61492878 0.87702602
0.1417571 0.60788542 0.92616814
0.038736299 0.61920953 0.76424694
0.079746947 0.61507159 0.81842268
0.11865648 0.60903162 0.86760151
0.16167462 0.60688615 0.9217757
0.053642955 0.61522871 0.75989437
0.095683917 0.61406863 0.81510502
0.13770223 0.61192667 0.86929792
0.18161479 0.60686862 0.91840094
0.069749348 0.61908019 0.76466411
0.11259414 0.61108047 0.81073284
0.1565973 0.60994935 0.8639065
0.20149486 0.60590553 0.91200906
0.08467865 0.61608112 0.76132917
0.13072674 0.61690629 0.81650066
0.17453782 0.60993898 0.86056936
0.22137101 0.60394263 0.9055993
0.10076633 0.61995065 0.76509929
0.1476862 0.61688149 0.81418192
0.1945686 0.61384845 0.86126524
0.24240553 0.60884839 0.90629441
0.11574093 0.61891508 0.76379973
0.16350991 0.61096978 0.80577588
0.21141872 0.60991472 0.85387617
0.26118037 0.60497981 0.89486909
0.13169663 0.61789405 0.7614817
0.18049201 0.61192667 0.80447477
0.22928044 0.60897702 0.84652221
0.28112844 0.60696197 0.89153028
0.14665252 0.61687654 0.75918251
0.19956826 0.61780322 0.80722487
0.2482661 0.61092651 0.84520161
0.29888475 0.60311514 0.8791241
0.16263479 0.61783701 0.75790024
0.21539983 0.61389118 0.79885483
0.26615044 0.61097044 0.8388654
0.31883669 0.6060971 0.87580335
0.17863578 0.61877942 0.75761759
0.23134075 0.61388803 0.79555517
0.28505731 0.61199248 0.8335281
0.33663833 0.60421371 0.8654325
0.19352764 0.61581659 0.75228345
0.24926257 0.61389577 0.79121834
0.30191526 0.61005849 0.82617497
0.35548508 0.60429025 0.85707819
0.21051368 0.61777329 0.75100029
0.26513943 0.61194724 0.78488368
0.32084477 0.61206228 0.82185531
0.37431309 0.6043849 0.8477242
0.22540946 0.61581028 0.74568415
0.2831105 0.61491829 0.78260022
0.33871433 0.61312413 0.81453753
0.39316377 0.60546124 0.83938783
0.2413691 0.615789 0.74338418
0.29896864 0.61298776 0.77526587
0.353486 0.60827011 0.80316931
0.40996948 0.60458124 0.82905382
0.25624222 0.61284417 0.73705029
0.31482682 0.6110574 0.76793158
0.3724007 0.61129189 0.79786801
0.42780161 0.60567927 0.8197366
0.27218702 0.61384088 0.73376864
0.33068889 0.61012679 0.76061529
0.38922906 0.61139363 0.78855163
0.44454724 0.60385382 0.80638552
0.28810921 0.61385584 0.72946936
0.34550977 0.60823607 0.75130039
0.40296346 0.60657942 0.77520287
0.46342844 0.60791153 0.79910302
0.30401269 0.6138888 0.72417039
0.36348477 0.612207 0.749035
0.4229272 0.61256087 0.77193618
0.48021936 0.60804951 0.78778732
0.3188937 0.61294371 0.71787262
0.38033184 0.61229062 0.74071825
0.43872923 0.61068475 0.76160294
0.49596912 0.60722739 0.77447301
0.33377075 0.61099881 0.71155673
0.39515275 0.61040002 0.73140335
0.4555428 0.61180443 0.75130492
0.51582748 0.61029983 0.76615399
0.35070056 0.61300975 0.70727468
0.41100004 0.61048734 0.72310543
0.47134876 0.61092806 0.74098957
0.5295589 0.60950309 0.75187761
0.36658531 0.61306089 0.70097607
0.4289149 0.61351258 0.71782291
0.48713985 0.61106962 0.72969264
0.54428613 0.60770267 0.7375645
0.38042513 0.61115575 0.6926797
0.44269857 0.61166167 0.70652759
0.50193119 0.61121476 0.71841455
0.55904001 0.60788405 0.72428703
0.39629117 0.61122495 0.68538141
0.45854586 0.61174893 0.69822961
0.51361364 0.60746181 0.70212239
0.5717302 0.60612714 0.70801216
0.41320229 0.61325395 0.68009967
0.47335199 0.6108762 0.68793315
0.53044993 0.60956323 0.69284201
0.58748776 0.60730475 0.69473392
0.42804584 0.61234504 0.67180252
0.48920709 0.61296314 0.67967129
0.5442 0.60874832 0.67956537
0.60122705 0.60850757 0.68049365
0.44596073 0.61537039 0.66652
0.50193083 0.61017025 0.66537768
0.55999511 0.60988975 0.66828644
0.61596614 0.60970682 0.66623455
0.46078944 0.61547935 0.65724117
0.51878583 0.61225361 0.65709698
0.57274538 0.60907835 0.65502852
0.62765646 0.60795349 0.6499784
0.47459179 0.61361033 0.64694548
0.53255463 0.61142057 0.64481997
0.5885483 0.61221945 0.64378572
0.64139575 0.60915631 0.63573813
0.48839417 0.61174136 0.63664979
0.54534239 0.61057311 0.63356131
0.60228366 0.61242247 0.62952739
0.65411252 0.60938102 0.6204989
0.50527573 0.61580622 0.62940478
0.56013763 0.61171812 0.62230128
0.61503786 0.612611 0.61628747
0.66174358 0.60669655 0.60130101
0.52008188 0.61493343 0.61910832
0.57593662 0.61385924 0.61104047
0.62572843 0.61086124 0.60005021
0.6785354 0.61185175 0.58907568
0.5359143 0.61603868 0.60982871
0.58461571 0.60911721 0.59478664
0.63946766 0.61206412 0.58580995
0.68921518 0.61211979 0.5718748
0.54867941 0.61420941 0.59755248
0.6004374 0.61224025 0.58454335
0.65120333 0.61227429 0.57158923
0.69888717 0.61039174 0.55465662
0.56142581 0.61239833 0.58427656
0.61419535 0.61342496 0.57130271
0.6618979 0.6115244 0.55536991
0.70654482 0.60968876 0.53649437
0.57521725 0.61254704 0.5730173
0.62492335 0.61163908 0.55706477
0.67363751 0.61273438 0.54116714
0.71724319 0.60993874 0.52029306
0.58798629 0.61171758 0.56075901
0.63868523 0.61382365 0.5438422
0.68535441 0.61296272 0.52594674
0.72692698 0.61121017 0.50312895
0.60378921 0.61485863 0.54951614
0.65041703 0.61303401 0.52960342
0.69400787 0.61125624 0.50774771
0.73661077 0.61248165 0.48596483
0.61451328 0.61207294 0.53526014
0.66113025 0.612266 0.51438373
0.70472908 0.61248797 0.49256408
0.74426842 0.61177868 0.46780258
0.62726361 0.61126155 0.52200222
0.67286593 0.61247617 0.50016302
0.71848011 0.61669022 0.47837782
0.75192994 0.61207557 0.44965836
0.64204401 0.61342454 0.5097605
0.68458682 0.61370432 0.48496062
0.72210389 0.61202049 0.45921901
0.75453925 0.60842735 0.4295367
0.65782821 0.61658359 0.49751797
0.69427752 0.61195809 0.4687421
0.73280632 0.61327022 0.44303575
0.76424569 0.61068046 0.41339025
0.6685375 0.61481583 0.48228031
0.70599842 0.61318624 0.45353976
0.74048263 0.61254925 0.42587322
0.7709074 0.61098099 0.39526483
0.67925465 0.61504769 0.46707872
0.71874577 0.61639231 0.43935424
0.74814409 0.61284608 0.40772894
0.77959925 0.61425567 0.37815553
0.68794167 0.61230528 0.45086095
0.72642207 0.61567128 0.42219168
0.75785059 0.61509937 0.39158252
0.78423864 0.61358154 0.35904998
0.69965863 0.61253351 0.43564054
0.73509818 0.61494678 0.40501031
0.76350462 0.61340368 0.37343982
0.7919268 0.6158601 0.34194148
0.71340179 0.61473626 0.42141828
0.74074441 0.61125141 0.38683158
0.7711888 0.61468238 0.35631329
0.79254031 0.61321872 0.32187539
0.72410023 0.61498624 0.40521702
0.75145066 0.61350101 0.37066633
0.77684677 0.61398655 0.33818862
0.79820615 0.61452264 0.30378678
0.73176873 0.61226547 0.38801837
0.7601347 0.61477607 0.35352105
0.78351241 0.61528689 0.32008123
0.80285347 0.61584824 0.28471729
0.74752325 0.61746049 0.37381256
0.76680726 0.61305887 0.3363592
0.78917432 0.61559099 0.30197459
0.80551195 0.61516321 0.26664898
0.75517696 0.6157577 0.35563233
0.77447265 0.6143555 0.31823301
0.79684371 0.61788756 0.28386641
0.80612946 0.61352181 0.24660094
0.76080829 0.61308038 0.33647195
0.78416044 0.61662692 0.3010869
0.79949832 0.61620265 0.26578009
0.80275863 0.60987693 0.22759168
0.77251053 0.61432648 0.32026991
0.79284835 0.61890173 0.28395957
0.80514538 0.61752474 0.24669179
0.56078523 0.41296601 0.16253808
0.78320199 0.61759412 0.30312303
0.79245031 0.6132645 0.26385826
0.76448709 0.58218086 0.21880426
0.54140371 0.3963446 0.14559457
0.78985584 0.61589485 0.28496155
0.80011582 0.6145612 0.24573204
0.56380039 0.41695458 0.16255379
0.5542534 0.40647712 0.13553385
0.79850245 0.61720616 0.2658169
0.75642753 0.57624674 0.21684714
0.55348599 0.40826333 0.14758462
-0.02611593 -0.059798401 0.050936799
0.80816752 0.61849564 0.24765311
0.56983769 0.4219141 0.16353081
0.53815299 0.39459088 0.13261931
0.55677378 0.40893635 0.10952233
0.74937075 0.56629175 0.21579883
0.56352651 0.41420832 0.14850448
0.55599469 0.40772301 0.12151904
0.56156397 0.41313481 0.097504526
0.5778628 0.42386696 0.16441618
0.55521184 0.40550992 0.13349773
0.5446915 0.39701763 0.10753228
0.59646553 0.44220319 0.086373121
-0.02611593 -0.059798401 0.050936799
0.54689705 0.39681146 0.11849097
0.56454468 0.41314214 0.096448496
0.60625565 0.451401 0.073351786
0.57326257 0.41442567 0.13432133
