# .PCD v0.7 - Point Cloud Data file format
VERSION 0.7
FIELDS x y z
SIZE 4 4 4
TYPE F F F
COUNT 1 1 1
WIDTH 1420
HEIGHT 1
VIEWPOINT 0 0 0 1 0 0 0
POINTS 1420
DATA ascii
-1.8024342 0.55033314 3.7664905
-0.94978547 0.44109032 2.4831152
-1.0270722 0.41359699 2.5270798
-1.5023134 0.55088788 3.5037923
-1.7156152 0.54721081 3.8098228
-0.86798686 0.42588043 2.4212878
-0.94117284 0.40028203 2.4702113
-1.0153102 0.37263322 2.5221171
-1.6325817 0.5459035 3.8642633
-0.79190534 0.41543812 2.3736582
-0.8592993 0.38499984 2.4123826
-0.92647552 0.35736209 2.462157
-0.99373144 0.32377967 2.5088248
-0.72088706 0.40306824 2.3230877
-0.78325921 0.37359381 2.3627357
-0.84363961 0.34211254 2.4023104
-0.90110731 0.30769339 2.4377754
-0.65292424 0.39076343 2.2695746
-0.71026385 0.3602351 2.31111
-0.76667857 0.32977545 2.348628
-0.81917363 0.29335672 2.3829634
-0.58782208 0.38034245 2.2231517
-0.64039904 0.34701374 2.2525427
-0.69179976 0.3155182 2.2909484
-0.74121279 0.28101605 2.3292625
-0.5286814 0.36990684 2.1788404
-0.57713878 0.33845484 2.2141907
-0.62179607 0.30416989 2.2394152
-0.66350698 0.26591104 2.262512
-0.47235975 0.36231863 2.1436367
-0.51696086 0.32797945 2.1718602
-0.55669785 0.29274908 2.1929739
-0.59630764 0.25639224 2.2210677
-0.41801518 0.35571939 2.1094882
-0.45593277 0.31764513 2.1215136
-0.49357259 0.28331697 2.1476061
-0.52924329 0.2460003 2.1726074
-0.36483192 0.34626895 2.0673072
-0.40247566 0.31094092 2.0933819
-0.43529275 0.27475798 2.1103475
-0.46804276 0.23650301 2.1312757
-0.3154076 0.34061509 2.0372696
-0.34909344 0.30430907 2.0612516
-0.38091069 0.26812255 2.0781984
-0.40787956 0.22704557 2.0879636
-0.27151319 0.33954778 2.0314264
-0.29872936 0.2977061 2.028178
-0.32756981 0.26052701 2.0440507
-0.35265535 0.21855156 2.0477624
-0.23344311 0.35041809 2.0859287
-0.25723439 0.30108795 2.0534708
-0.2798003 0.25655445 2.0320804
-0.30011922 0.21277842 2.0236661
-0.19417417 0.36410338 2.1504629
-0.21793586 0.31273741 2.1199684
-0.2387839 0.26345083 2.084455
-0.25647873 0.21500856 2.0569007
-0.15190578 0.37777787 2.214941
-0.17583299 0.3225573 2.1763768
-0.19641495 0.27401727 2.1548767
-0.21323803 0.22168064 2.1212337
-0.134876 0.54494643 3.0359242
-0.13059172 0.33423948 2.2397625
-0.15028319 0.28178701 2.2131736
-0.16791886 0.22927308 2.1895456
-0.070116498 0.54393047 3.0226889
-0.10914059 0.53230447 3.3433177
-0.1539277 0.51950967 3.7300558
-0.20510286 0.5062325 4.2559524
-0.0062405504 0.54380929 3.0154881
-0.035112761 0.5330025 3.3439445
-0.067984812 0.51823741 3.7264228
-0.10409566 0.50283444 4.2559996
0.057444245 0.54286909 2.9982729
0.037603911 0.53099412 3.3285415
0.016172256 0.51877296 3.7338591
-0.0039681196 0.50133103 4.2620997
0.12036175 0.54371524 2.9931087
0.11049301 0.52982271 3.3221536
0.10119415 0.51843172 3.7342613
0.095313326 0.50068629 4.2762341
0.18292654 0.54088759 2.9698782
0.18219507 0.52883577 3.3057876
0.18580717 0.51447099 3.7135983
0.19603968 0.49755943 4.2612867
0.24570906 0.54086041 2.9576983
0.25601304 0.52873307 3.2954001
0.27177662 0.51518035 3.7110009
0.29923069 0.49799058 4.2703657
0.30749571 0.54183674 2.9455547
0.32884985 0.52861577 3.2860315
0.35544986 0.51216877 3.6933739
0.40220791 0.4966211 4.2684121
-0.02611593 -0.059798401 0.050936799
0.39949596 0.52768672 3.266685
0.44030723 0.51299018 3.684797
0.50190091 0.49453396 4.251502
0.15406646 0.1781137 1.1842511
-0.02611593 -0.059798401 0.050936799
-0.02611593 -0.059798401 0.050936799
-0.02611593 -0.059798401 0.050936799
0.49067566 0.5419361 2.9001114
0.54203916 0.52758962 3.2410059
0.60782325 0.51182151 3.6576304
-0.02611593 -0.059798401 0.050936799
0.25926101 0.23695037 1.4484353
0.60945326 0.52488869 3.2096841
0.68934715 0.50896186 3.6320436
0.80304366 0.49021047 4.2037692
0.28912839 0.23796912 1.440892
0.28487843 0.1980807 1.4352481
0.27942267 0.15839487 1.4186268
0.28019834 0.12047011 1.4139246
0.66951543 0.54137564 2.8367314
0.75071585 0.52506644 3.1690288
0.85352659 0.5081296 3.5869391
-0.02611593 -0.059798401 0.050936799
0.72812623 0.54052591 2.8156118
0.81828749 0.52422059 3.1457407
0.94044757 0.51088929 3.5813599
-0.02611593 -0.059798401 0.050936799
0.78350902 0.53890413 2.7825341
0.88690042 0.52433473 3.1244507
1.0155902 0.50641328 3.5358567
1.2013673 0.48731297 4.111228
0.84218389 0.53999972 2.7644494
0.95655453 0.52540886 3.1051598
1.0950888 0.50659651 3.5083623
1.3041463 0.48814216 4.0983143
0.89979887 0.54015332 2.7433662
1.0219957 0.52469683 3.0749114
1.1756059 0.50675797 3.4818485
1.4047011 0.4891955 4.0734425
0.95006233 0.53665835 2.704349
1.0874367 0.52398467 3.044663
1.2550858 0.50695926 3.4533546
-0.02611593 -0.059798401 0.050936799
-0.02611593 -0.059798401 0.050936799
-0.02611593 -0.059798401 0.050936799
-0.02611593 -0.059798401 0.050936799
0.48493457 0.11284515 1.2929125
0.39578503 0.1723737 1.0615801
0.50753641 0.19046351 1.3098991
0.51013935 0.15169454 1.2961444
-0.02611593 -0.059798401 0.050936799
0.52852118 0.23054415 1.3012283
1.2858689 0.52575004 2.9589508
1.4965739 0.51051563 3.3698692
-0.02611593 -0.059798401 0.050936799
1.1753287 0.54048932 2.6091683
1.3461195 0.52423686 2.9187815
1.5624561 0.50632524 3.31054
1.9122841 0.49864283 3.9380639
1.2297758 0.54081649 2.5791445
1.4074677 0.52362961 2.8836102
1.6366936 0.50677967 3.2691441
1.9981519 0.49639845 3.8773952
1.2811632 0.54020882 2.5461602
1.4718794 0.52495688 2.8514171
1.714084 0.5080784 3.2357075
2.0611949 0.48901179 3.7740462
1.3315321 0.53962284 2.5121951
1.5321753 0.5254072 2.8132834
1.7790117 0.50585496 3.1784322
2.1254516 0.48342219 3.6817107
1.3849605 0.53997177 2.4811904
1.5924489 0.52487588 2.7741323
1.8574247 0.50813192 3.1459942
2.1897309 0.47881436 3.5903928
1.4363745 0.54134578 2.4492419
1.6558418 0.52622485 2.7409585
1.925472 0.50778896 3.0946965
2.2500298 0.47420281 3.50015
1.4918627 0.54263306 2.421217
1.713045 0.52677643 2.6978827
2.0090082 0.5129388 3.0682168
2.3155036 0.4714101 3.4188459
1.5391573 0.54213023 2.3833094
1.7733225 0.52724487 2.6587493
2.0770595 0.51359558 3.016937
2.3717849 0.466831 3.3276784
1.5812763 0.53980851 2.336463
1.8356822 0.52963358 2.6236131
2.1615167 0.51781446 2.9864218
2.4281254 0.46319744 3.2395279
1.6357687 0.54209912 2.3084748
1.8785124 0.52557993 2.561717
2.2367659 0.52126473 2.9450614
2.4886048 0.46142259 3.1583362
1.6830671 0.54259616 2.2705855
1.9367379 0.52710962 2.5196402
2.2914891 0.51927626 2.8769777
2.5430286 0.4597235 3.0742581
1.7272646 0.54119474 2.2277181
1.9950048 0.529603 2.4795806
2.3584883 0.52099073 2.8227363
2.5933931 0.45709318 2.9872377
1.7776453 0.54360831 2.1938066
2.0450554 0.52932459 2.4286213
2.4152942 0.52092242 2.7586496
2.6539924 0.45720947 2.9120798
1.8239065 0.54414511 2.1539369
2.0950871 0.5290643 2.3766625
2.4700818 0.52087933 2.6936009
2.7044361 0.45550665 2.8290765
1.8681269 0.54372543 2.1120872
2.1512794 0.53163713 2.3326421
2.5238097 0.51989412 2.6255541
2.7558832 0.45480004 2.7460723
1.9123135 0.5443418 2.0682561
2.2003114 0.53138041 2.2807016
2.5857389 0.52269888 2.5674255
2.8063905 0.45504263 2.6661041
1.9626566 0.54679155 2.0323458
2.2473292 0.53214878 2.2278173
2.6323926 0.52181119 2.4955118
2.8518014 0.45439374 2.5812132
2.0028026 0.54645848 1.9865726
2.3024802 0.53376162 2.1817985
2.6912625 0.5236811 2.4344227
2.9135394 0.4563795 2.5130701
2.0510902 0.54896981 1.9477009
2.3484418 0.53458786 2.1259339
2.7277646 0.52197421 2.3546815
3.2160361 0.50201529 2.6342731
2.0871582 0.54772365 1.8979862
2.3883448 0.53449011 2.0671651
2.7714231 0.52209723 2.2828419
3.2786093 0.50516003 2.5571325
2.1313303 0.54935789 1.8531735
2.4394259 0.53718954 2.0172408
2.8120222 0.52128541 2.2080414
3.3269525 0.50657243 2.4682229
2.1745207 0.55097771 1.8093793
2.4833691 0.538041 1.9604141
2.871922 0.52613306 2.1479876
3.381392 0.50887263 2.3842165
2.2136297 0.55068445 1.7616256
2.5252752 0.53893584 1.9016256
2.9206624 0.5281654 2.0800886
3.4094877 0.50859225 2.2826512
2.2527237 0.55140918 1.7128903
2.5661817 0.53983426 1.8428562
2.968384 0.53021955 2.0112092
3.4629877 0.51184171 2.2016809
2.2908216 0.55313736 1.6641917
2.6081104 0.54171085 1.7850854
3.0039506 0.53046155 1.9345216
3.5164168 0.51616323 2.11673
2.3268752 0.55290914 1.6134953
2.6459799 0.54265624 1.7243731
3.0395207 0.53170353 1.8578521
3.539551 0.51586467 2.0172577
2.3639505 0.55365914 1.563798
2.6939907 0.54643857 1.6705242
3.0731101 0.53293455 1.7822198
3.578862 0.51834542 1.9265357
2.4081116 0.55731106 1.5180218
2.7338634 0.54837662 1.6097922
3.1097217 0.5351367 1.7075489
3.6262589 0.52372456 1.8397162
2.4431126 0.55814064 1.4643631
2.7686775 0.54938704 1.5461371
3.1493514 0.53730994 1.6338212
3.6514711 0.52434623 1.7442231
2.4811773 0.56090468 1.4136833
2.7994545 0.55044794 1.4805578
3.1778858 0.53861314 1.5552839
3.6746733 0.52699292 1.6478038
2.5141788 0.56174141 1.3600625
2.8342912 0.55244011 1.4179205
3.2084606 0.54087293 1.4787264
3.6837909 0.52676266 1.5475949
2.5471613 0.5625962 1.3054419
2.8600278 0.55255532 1.3504179
3.2329767 0.54220861 1.3992645
3.7221334 0.53222841 1.4579456
2.5690448 0.56158131 1.2459936
2.8867683 0.55366683 1.2829143
3.2585113 0.54352266 1.3207837
3.7262518 0.5320161 1.3578308
2.6100938 0.56535256 1.1942757
2.911509 0.55478543 1.2154485
3.2880721 0.54680389 1.2432632
3.7495327 0.53559023 1.2654282
2.633981 0.56533027 1.1348079
2.9392533 0.55689317 1.1479443
3.3095553 0.54918647 1.1618764
3.7466383 0.53642094 1.1644632
2.6770148 0.57011235 1.0820709
2.9760787 0.56089592 1.0843056
3.323036 0.55059785 1.0806222
3.7719452 0.54196942 1.0730587
2.6938431 0.56916964 1.0197176
2.9967642 0.56208324 1.013916
3.3495972 0.55388987 1.0031581
3.7892082 0.54558325 0.97976935
2.7247925 0.57106757 0.96315336
3.020509 0.56420529 0.94648689
3.3701365 0.55622166 0.92478925
3.7934513 0.54826194 0.88570637
2.7416205 0.5701248 0.90080005
3.0452349 0.56634182 0.87803948
3.3765624 0.55771238 0.84066737
3.7986937 0.550937 0.79162478
2.761456 0.57117099 0.83842653
3.0609026 0.56756514 0.8067441
3.3870478 0.56013447 0.75948733
3.8079438 0.55559736 0.69750398
2.7913723 0.57410854 0.77989966
3.0665264 0.56686091 0.73360127
3.3855047 0.55961806 0.67747909
3.7931447 0.55638069 0.60176277
2.8132112 0.57614732 0.71750653
3.0902421 0.57101876 0.66420895
3.404 0.56501085 0.59620285
3.7933962 0.56107348 0.50781107
2.8370457 0.57717913 0.65505785
3.0988696 0.57130355 0.59102774
3.4014609 0.56549788 0.51423132
3.7826567 0.56278807 0.4150117
2.8548667 0.57925045 0.59174013
3.117563 0.57449764 0.52071172
3.419009 0.56984013 0.43595487
3.7719395 0.56548434 0.32323003
2.8626552 0.57737637 0.52753866
3.1222103 0.57477874 0.44860533
3.4234993 0.57328349 0.35490558
3.7221692 0.56235784 0.23007376
2.8864639 0.58144385 0.46314466
3.1298645 0.5770486 0.37647864
3.4099433 0.5738281 0.27214119
3.5402946 0.53674513 0.13698407
2.8942375 0.58058763 0.3979615
3.1414993 0.57932234 0.30327713
3.4074459 0.57527882 0.19218712
-0.02611593 -0.059798401 0.050936799
2.9150431 0.58366603 0.33360586
3.1461163 0.58163929 0.22920749
3.4119251 0.58073986 0.11017422
2.958931 0.44983795 -0.019756434
2.9367964 0.5877949 0.26625043
3.1547744 0.58490539 0.15708001
3.3924038 0.58027005 0.029503869
2.9906161 0.46102026 -0.092171937
2.94454 0.58897454 0.19910403
3.1633952 0.58820778 0.08295323
2.9488146 0.50117272 -0.035643827
2.739419 0.42297348 -0.14617538
2.9512804 0.58915806 0.13195838
3.1450343 0.58557189 0.011225
2.9675241 0.50836617 -0.1058878
2.7631915 0.43209434 -0.2134783
2.960047 0.59131581 0.065810874
2.9376528 0.54553032 -0.052638218
2.7163594 0.46426615 -0.15700036
2.5232809 0.39573643 -0.25265747
2.9507821 0.58955705 -0.0010701492
2.9263589 0.54581451 -0.12144496
2.7571218 0.4763436 -0.22556832
2.5211546 0.40084273 -0.31354594
2.9154985 0.58189261 -0.067570731
2.7162211 0.50554854 -0.1722562
2.5132446 0.4339467 -0.26178145
2.4651527 0.39699969 -0.36558458
1.2796005 0.22560495 -0.031374954
2.7310021 0.51168418 -0.23844437
2.4931624 0.43506405 -0.31940478
2.3084693 0.37416059 -0.39607453
1.2770354 0.22515495 -0.061345235
2.489161 0.46422675 -0.27178621
2.3703344 0.41524714 -0.35847685
2.3323243 0.38520879 -0.45934278
2.7069292 0.53994644 -0.24748549
2.5279799 0.47625706 -0.33731762
2.2934813 0.40531769 -0.40123206
2.3541796 0.39626417 -0.52257341
2.4840846 0.49242082 -0.28118435
2.3413069 0.44047359 -0.36447909
2.3213694 0.41531551 -0.46259412
2.5472951 0.44151044 -0.63340813
2.5258992 0.5034405 -0.34679016
2.2874198 0.43249741 -0.40962979
2.3481903 0.42738897 -0.52790004
2.4595039 0.43256602 -0.6729396
2.320277 0.46065414 -0.36972207
2.3182702 0.44252065 -0.47304755
2.513422 0.46760991 -0.63130111
2.4871831 0.44678023 -0.7462256
2.2923076 0.4566744 -0.42028755
2.3391366 0.45156184 -0.53529578
2.4515259 0.46168026 -0.67726511
2.4263132 0.44282851 -0.79117268
2.3112037 0.46368694 -0.48053491
2.5033536 0.49280441 -0.6396597
2.4762349 0.47386941 -0.7485314
-0.02611593 -0.059798401 0.050936799
2.3420355 0.47372824 -0.54495233
2.4972055 0.4969433 -0.7014907
2.4163797 0.46889618 -0.79251558
0.18352047 -0.015116021 -0.032208078
2.467411 0.50593138 -0.638749
2.4612076 0.4950282 -0.75386912
-0.02611593 -0.059798401 0.050936799
-0.02611593 -0.059798401 0.050936799
2.4961116 0.51610649 -0.71012646
2.3924131 0.48601559 -0.79375768
0.18849391 -0.012098297 -0.034247298
0.16445598 -0.017993055 -0.034904089
2.4342558 0.50612313 -0.75316358
-0.02611593 -0.059798401 0.050936799
-0.02611593 -0.059798401 0.050936799
-0.02611593 -0.059798401 0.050936799
2.3873193 0.50017583 -0.80140871
0.18549836 -0.011087699 -0.034172911
0.16544494 -0.015978891 -0.035886511
0.14144841 -0.020909999 -0.034525964
-0.02611593 -0.059798401 0.050936799
-0.02611593 -0.059798401 0.050936799
-0.02611593 -0.059798401 0.050936799
-0.02611593 -0.059798401 0.050936799
0.180518 -0.011087843 -0.033079293
0.16941462 -0.013957408 -0.03792496
0.14045252 -0.019906577 -0.034489155
0.120474 -0.024870127 -0.032204118
-0.02611593 -0.059798401 0.050936799
-0.02611593 -0.059798401 0.050936799
-0.02611593 -0.059798401 0.050936799
-0.02611593 -0.059798401 0.050936799
0.14955233 -0.018029666 -0.029623933
0.14740293 -0.017877774 -0.037583642
0.12740961 -0.021823406 -0.036280245
0.10843482 -0.025790714 -0.033995971
-0.02611593 -0.059798401 0.050936799
-0.02611593 -0.059798401 0.050936799
-0.02611593 -0.059798401 0.050936799
-0.02611593 -0.059798401 0.050936799
0.13449107 -0.019921221 -0.032377094
0.12739089 -0.021805316 -0.037279904
0.107435 -0.025787123 -0.033977181
0.093444496 -0.02875446 -0.032768514
-0.02611593 -0.059798401 0.050936799
-0.02611593 -0.059798401 0.050936799
-0.02611593 -0.059798401 0.050936799
-0.02611593 -0.059798401 0.050936799
0.11451253 -0.02488477 -0.030092057
0.10842002 -0.024772793 -0.034977619
0.096414357 -0.026729386 -0.034788165
0.083423682 -0.029700313 -0.033598278
-0.02611593 -0.059798401 0.050936799
-0.02611593 -0.059798401 0.050936799
-0.02611593 -0.059798401 0.050936799
-0.02611593 -0.059798401 0.050936799
0.10246943 -0.026805189 -0.031901922
0.095414542 -0.026725797 -0.034769375
0.085389793 -0.028671481 -0.035617173
0.073421583 -0.03066425 -0.033428393
-0.02611593 -0.059798401 0.050936799
-0.02611593 -0.059798401 0.050936799
-0.02611593 -0.059798401 0.050936799
-0.02611593 -0.059798401 0.050936799
0.087497845 -0.029787023 -0.029674806
0.0844087 -0.028685981 -0.034598716
0.075387694 -0.029635422 -0.035447288
0.064419292 -0.031631779 -0.033277292
-0.02611593 -0.059798401 0.050936799
-0.02611593 -0.059798401 0.050936799
-0.02611593 -0.059798401 0.050936799
-0.02611593 -0.059798401 0.050936799
0.079457924 -0.030721962 -0.031541817
0.077331163 -0.029588332 -0.038483847
0.071313545 -0.029548712 -0.039370771
0.051503517 -0.034675062 -0.028088778
-0.02611593 -0.059798401 0.050936799
-0.02611593 -0.059798401 0.050936799
-0.02611593 -0.059798401 0.050936799
-0.02611593 -0.059798401 0.050936799
0.06747099 -0.032696642 -0.030352708
0.067347787 -0.03057036 -0.037314303
0.057379205 -0.03257031 -0.035163112
0.051361587 -0.032530688 -0.036050029
-0.02611593 -0.059798401 0.050936799
-0.02611593 -0.059798401 0.050936799
-0.02611593 -0.059798401 0.050936799
-0.02611593 -0.059798401 0.050936799
0.056502596 -0.034693006 -0.02818273
0.059345316 -0.031541478 -0.037181992
0.051342864 -0.032512598 -0.037049688
0.043396566 -0.033537984 -0.033918396
-0.02611593 -0.059798401 0.050936799
-0.02611593 -0.059798401 0.050936799
-0.02611593 -0.059798401 0.050936799
-0.02611593 -0.059798401 0.050936799
0.052447155 -0.034624383 -0.031106547
0.051338937 -0.033512428 -0.037067708
0.043377843 -0.033519898 -0.034918062
0.037378941 -0.033498362 -0.03480532
-0.02611593 -0.059798401 0.050936799
-0.02611593 -0.059798401 0.050936799
-0.02611593 -0.059798401 0.050936799
-0.02611593 -0.059798401 0.050936799
0.046406891 -0.035566501 -0.033011142
0.045302585 -0.03345472 -0.038954288
0.03834131 -0.033465773 -0.036823429
0.032361131 -0.033462331 -0.035711028
-0.02611593 -0.059798401 0.050936799
-0.02611593 -0.059798401 0.050936799
-0.02611593 -0.059798401 0.050936799
-0.02611593 -0.059798401 0.050936799
0.036475752 -0.037602626 -0.028860632
0.038299941 -0.034429427 -0.038840774
0.034285877 -0.033397149 -0.039747253
0.023429815 -0.035502046 -0.031579304
-0.02611593 -0.059798401 0.050936799
-0.02611593 -0.059798401 0.050936799
-0.02611593 -0.059798401 0.050936799
-0.02611593 -0.059798401 0.050936799
0.032420311 -0.037534006 -0.031784456
0.03131602 -0.035422225 -0.037727594
0.027320674 -0.03440804 -0.037634414
-0.02611593 -0.059798401 0.050936799
-0.02611593 -0.059798401 0.050936799
-0.02611593 -0.059798401 0.050936799
-0.02611593 -0.059798401 0.050936799
-0.02611593 -0.059798401 0.050936799
0.027402503 -0.037497971 -0.032690156
0.024350815 -0.036433108 -0.035614759
0.02423154 -0.033306994 -0.042558335
0.016360134 -0.034404736 -0.035428397
-0.02611593 -0.059798401 0.050936799
-0.02611593 -0.059798401 0.050936799
-0.02611593 -0.059798401 0.050936799
-0.02611593 -0.059798401 0.050936799
0.022399493 -0.038479857 -0.03261422
0.018366706 -0.037429493 -0.034520373
-0.02611593 -0.059798401 0.050936799
-0.02611593 -0.059798401 0.050936799
-0.02611593 -0.059798401 0.050936799
-0.02611593 -0.059798401 0.050936799
-0.02611593 -0.059798401 0.050936799
-0.02611593 -0.059798401 0.050936799
-0.02611593 -0.059798401 0.050936799
0.01433392 -0.036379129 -0.036426511
0.012282045 -0.035317857 -0.0393699
0.0083054295 -0.034321759 -0.03827706
-0.02611593 -0.059798401 0.050936799
-0.02611593 -0.059798401 0.050936799
-0.02611593 -0.059798401 0.050936799
-0.02611593 -0.059798401 0.050936799
-0.02611593 -0.059798401 0.050936799
0.010297204 -0.036328599 -0.038350675
0.0082492614 -0.034267493 -0.041276038
-0.02611593 -0.059798401 0.050936799
-0.02611593 -0.059798401 0.050936799
-0.02611593 -0.059798401 0.050936799
-0.02611593 -0.059798401 0.050936799
-0.02611593 -0.059798401 0.050936799
-0.02611593 -0.059798401 0.050936799
0.0062604956 -0.036278062 -0.040274832
-0.02611593 -0.059798401 0.050936799
-0.02611593 -0.059798401 0.050936799
-0.02611593 -0.059798401 0.050936799
-0.02611593 -0.059798401 0.050936799
-0.02611593 -0.059798401 0.050936799
-0.02611593 -0.059798401 0.050936799
-0.02611593 -0.059798401 0.050936799
-0.02611593 -0.059798401 0.050936799
-0.02611593 -0.059798401 0.050936799
-0.02611593 -0.059798401 0.050936799
-0.02611593 -0.059798401 0.050936799
-0.02611593 -0.059798401 0.050936799
-0.02611593 -0.059798401 0.050936799
-0.02611593 -0.059798401 0.050936799
-0.02611593 -0.059798401 0.050936799
-0.0027753045 -0.036209587 -0.042105041
-0.02611593 -0.059798401 0.050936799
-0.02611593 -0.059798401 0.050936799
-0.02611593 -0.059798401 0.050936799
-0.02611593 -0.059798401 0.050936799
-0.02611593 -0.059798401 0.050936799
-0.02611593 -0.059798401 0.050936799
-0.02611593 -0.059798401 0.050936799
-0.02611593 -0.059798401 0.050936799
-0.02611593 -0.059798401 0.050936799
-0.02611593 -0.059798401 0.050936799
-0.02611593 -0.059798401 0.050936799
-0.02611593 -0.059798401 0.050936799
-0.02611593 -0.059798401 0.050936799
-0.02611593 -0.059798401 0.050936799
-0.02611593 -0.059798401 0.050936799
-0.02611593 -0.059798401 0.050936799
-0.02611593 -0.059798401 0.050936799
-0.02611593 -0.059798401 0.050936799
-0.02611593 -0.059798401 0.050936799
-0.02611593 -0.059798401 0.050936799
-0.02611593 -0.059798401 0.050936799
-0.02611593 -0.059798401 0.050936799
-0.02611593 -0.059798401 0.050936799
-0.02611593 -0.059798401 0.050936799
-0.02611593 -0.059798401 0.050936799
-0.02611593 -0.059798401 0.050936799
-0.02611593 -0.059798401 0.050936799
-0.02611593 -0.059798401 0.050936799
-0.02611593 -0.059798401 0.050936799
-0.02611593 -0.059798401 0.050936799
-0.02611593 -0.059798401 0.050936799
-0.02611593 -0.059798401 0.050936799
-0.02611593 -0.059798401 0.050936799
-0.02611593 -0.059798401 0.050936799
-0.02611593 -0.059798401 0.050936799
-0.02611593 -0.059798401 0.050936799
-0.02611593 -0.059798401 0.050936799
-0.02611593 -0.059798401 0.050936799
-0.02611593 -0.059798401 0.050936799
-0.02611593 -0.059798401 0.050936799
-0.02611593 -0.059798401 0.050936799
-0.02611593 -0.059798401 0.050936799
-0.02611593 -0.059798401 0.050936799
-0.02611593 -0.059798401 0.050936799
-0.02611593 -0.059798401 0.050936799
-0.02611593 -0.059798401 0.050936799
-0.02611593 -0.059798401 0.050936799
-0.02611593 -0.059798401 0.050936799
-0.02611593 -0.059798401 0.050936799
-0.02611593 -0.059798401 0.050936799
-0.02611593 -0.059798401 0.050936799
-0.02611593 -0.059798401 0.050936799
-0.02611593 -0.059798401 0.050936799
-0.02611593 -0.059798401 0.050936799
-0.02611593 -0.059798401 0.050936799
-0.02611593 -0.059798401 0.050936799
-0.02611593 -0.059798401 0.050936799
-0.02611593 -0.059798401 0.050936799
-0.02611593 -0.059798401 0.050936799
-0.02611593 -0.059798401 0.050936799
-0.02611593 -0.059798401 0.050936799
-0.02611593 -0.059798401 0.050936799
-0.02611593 -0.059798401 0.050936799
-0.02611593 -0.059798401 0.050936799
-0.02611593 -0.059798401 0.050936799
-0.02611593 -0.059798401 0.050936799
-0.02611593 -0.059798401 0.050936799
-0.02611593 -0.059798401 0.050936799
-0.02611593 -0.059798401 0.050936799
-0.02611593 -0.059798401 0.050936799
-0.02611593 -0.059798401 0.050936799
-0.02611593 -0.059798401 0.050936799
-0.02611593 -0.059798401 0.050936799
-0.02611593 -0.059798401 0.050936799
-0.02611593 -0.059798401 0.050936799
-0.02611593 -0.059798401 0.050936799
-0.02611593 -0.059798401 0.050936799
-0.02611593 -0.059798401 0.050936799
-0.02611593 -0.059798401 0.050936799
-0.02611593 -0.059798401 0.050936799
-0.02611593 -0.059798401 0.050936799
-0.02611593 -0.059798401 0.050936799
-0.02611593 -0.059798401 0.050936799
-0.02611593 -0.059798401 0.050936799
-0.02611593 -0.059798401 0.050936799
-0.02611593 -0.059798401 0.050936799
-0.02611593 -0.059798401 0.050936799
-0.02611593 -0.059798401 0.050936799
-0.02611593 -0.059798401 0.050936799
-0.02611593 -0.059798401 0.050936799
-0.02611593 -0.059798401 0.050936799
-0.02611593 -0.059798401 0.050936799
-0.02611593 -0.059798401 0.050936799
-0.02611593 -0.059798401 0.050936799
-0.02611593 -0.059798401 0.050936799
-0.02611593 -0.059798401 0.050936799
-0.02611593 -0.059798401 0.050936799
-0.02611593 -0.059798401 0.050936799
-0.02611593 -0.059798401 0.050936799
-0.02611593 -0.059798401 0.050936799
-0.02611593 -0.059798401 0.050936799
-0.02611593 -0.059798401 0.050936799
-0.02611593 -0.059798401 0.050936799
-0.02611593 -0.059798401 0.050936799
-0.060707606 -0.031038454 -0.038925771
-0.02611593 -0.059798401 0.050936799
-0.02611593 -0.059798401 0.050936799
-0.02611593 -0.059798401 0.050936799
-0.02611593 -0.059798401 0.050936799
-0.02611593 -0.059798401 0.050936799
-0.02611593 -0.059798401 0.050936799
-0.064714737 -0.033023756 -0.038886648
-0.06466943 -0.031060275 -0.036851291
-0.02611593 -0.059798401 0.050936799
-0.02611593 -0.059798401 0.050936799
-0.02611593 -0.059798401 0.050936799
-0.02611593 -0.059798401 0.050936799
-0.02611593 -0.059798401 0.050936799
-0.02611593 -0.059798401 0.050936799
-0.068676554 -0.033045582 -0.036812168
-0.070720576 -0.029984644 -0.039719511
-0.06960056 -0.02809711 -0.033704299
-0.02611593 -0.059798401 0.050936799
-0.02611593 -0.059798401 0.050936799
-0.02611593 -0.059798401 0.050936799
-0.02611593 -0.059798401 0.050936799
-0.02611593 -0.059798401 0.050936799
-0.07367564 -0.033027638 -0.036718216
-0.074659742 -0.02902473 -0.036627352
-0.072543852 -0.028140612 -0.030648936
-0.02611593 -0.059798401 0.050936799
-0.02611593 -0.059798401 0.050936799
-0.02611593 -0.059798401 0.050936799
-0.02611593 -0.059798401 0.050936799
-0.075593449 -0.036110394 -0.031736378
-0.080703951 -0.030966675 -0.03854996
-0.080673441 -0.027985275 -0.037496246
-0.077576458 -0.027086657 -0.032536298
-0.02611593 -0.059798401 0.050936799
-0.02611593 -0.059798401 0.050936799
-0.02611593 -0.059798401 0.050936799
-0.02611593 -0.059798401 0.050936799
-0.081588425 -0.035089031 -0.031605616
-0.084647045 -0.031006588 -0.035475813
-0.08258339 -0.029068373 -0.032478381
-0.082552887 -0.026086971 -0.031424657
-0.02611593 -0.059798401 0.050936799
-0.02611593 -0.059798401 0.050936799
-0.02611593 -0.059798401 0.050936799
-0.02611593 -0.059798401 0.050936799
-0.08656878 -0.035089176 -0.030511998
-0.091675356 -0.028945629 -0.037307572
-0.091630057 -0.026982145 -0.035272207
-0.088566586 -0.025047518 -0.032293566
-0.02611593 -0.059798401 0.050936799
-0.02611593 -0.059798401 0.050936799
-0.02611593 -0.059798401 0.050936799
-0.02611593 -0.059798401 0.050936799
-0.093559645 -0.033064391 -0.030344427
-0.097651608 -0.027942354 -0.036177151
-0.096606486 -0.02598246 -0.034160577
-0.093543015 -0.024047831 -0.031181928
-0.02611593 -0.059798401 0.050936799
-0.02611593 -0.059798401 0.050936799
-0.02611593 -0.059798401 0.050936799
-0.02611593 -0.059798401 0.050936799
-0.1025876 -0.030996256 -0.032138605
-0.10564622 -0.026913812 -0.036008805
-0.10257882 -0.023979353 -0.033012137
-0.097500913 -0.023069827 -0.029089428
-0.02611593 -0.059798401 0.050936799
-0.02611593 -0.059798401 0.050936799
-0.02611593 -0.059798401 0.050936799
-0.02611593 -0.059798401 0.050936799
-0.10651197 -0.031054255 -0.028064791
-0.11263708 -0.024889028 -0.035841238
-0.10652192 -0.024019264 -0.029937983
-0.10754347 -0.019980181 -0.031846453
-0.02611593 -0.059798401 0.050936799
-0.02611593 -0.059798401 0.050936799
-0.02611593 -0.059798401 0.050936799
-0.02611593 -0.059798401 0.050936799
-0.11655845 -0.028964439 -0.030839838
-0.11757608 -0.023925519 -0.032730281
-0.1206347 -0.019843081 -0.036600482
-0.11351973 -0.018976904 -0.030716024
-0.02611593 -0.059798401 0.050936799
-0.02611593 -0.059798401 0.050936799
-0.02611593 -0.059798401 0.050936799
-0.02611593 -0.059798401 0.050936799
-0.12958173 -0.025882114 -0.032540828
-0.13061808 -0.020825109 -0.035430931
-0.12453644 -0.018919338 -0.031508993
-0.12252501 -0.015927028 -0.031492516
-0.02611593 -0.059798401 0.050936799
-0.02611593 -0.059798401 0.050936799
-0.02611593 -0.059798401 0.050936799
-0.02611593 -0.059798401 0.050936799
-0.13348345 -0.024958372 -0.02744934
-0.13655688 -0.019858016 -0.032301188
-0.13554528 -0.016862111 -0.03226592
-0.12948236 -0.014938251 -0.029343635
-0.02611593 -0.059798401 0.050936799
-0.02611593 -0.059798401 0.050936799
-0.02611593 -0.059798401 0.050936799
-0.02611593 -0.059798401 0.050936799
-0.14245524 -0.022944504 -0.026244529
-0.14550993 -0.017862231 -0.030096706
-0.14553167 -0.013826734 -0.032023959
-0.13846894 -0.011906463 -0.029120464
-0.02611593 -0.059798401 0.050936799
-0.02611593 -0.059798401 0.050936799
-0.02611593 -0.059798401 0.050936799
-0.02611593 -0.059798401 0.050936799
-0.1473607 -0.023017004 -0.021152269
-0.15951039 -0.013794579 -0.030761234
-0.15549934 -0.010809442 -0.030782338
-0.15045495 -0.0088639073 -0.028840922
-0.02611593 -0.059798401 0.050936799
-0.02611593 -0.059798401 0.050936799
-0.02611593 -0.059798401 0.050936799
-0.02611593 -0.059798401 0.050936799
-0.16739358 -0.017891809 -0.023685351
-0.17247748 -0.01076652 -0.029463232
-0.16241924 -0.0098568453 -0.026634134
-0.16245577 -0.0048034289 -0.029543027
-0.02611593 -0.059798401 0.050936799
-0.02611593 -0.059798401 0.050936799
-0.02611593 -0.059798401 0.050936799
-0.02611593 -0.059798401 0.050936799
-0.19043675 -0.010738097 -0.027125683
-0.19450608 -0.0046343161 -0.031940717
-0.18344799 -0.0037282309 -0.029130407
-0.16634271 -0.0048976075 -0.023469903
-0.02611593 -0.059798401 0.050936799
-0.02611593 -0.059798401 0.050936799
-0.02611593 -0.059798401 0.050936799
-0.02611593 -0.059798401 0.050936799
-0.2174457 -0.0046060383 -0.02850955
-0.21851166 0.0024868031 -0.03336294
-0.2034395 0.0023606131 -0.029646154
-0.19441456 0.0043098852 -0.028779563
-0.02611593 -0.059798401 0.050936799
-0.02611593 -0.059798401 0.050936799
-0.02611593 -0.059798401 0.050936799
-0.02611593 -0.059798401 0.050936799
-0.24640897 0.0034966781 -0.027820475
-0.23945072 0.0075251381 -0.03087892
-0.2274224 0.010463482 -0.030050691
-0.2123877 0.010373469 -0.028333224
-0.02611593 -0.059798401 0.050936799
-0.02611593 -0.059798401 0.050936799
-0.02611593 -0.059798401 0.050936799
-0.02611593 -0.059798401 0.050936799
-0.95268565 0.20602022 -0.23400354
-0.27140951 0.01663846 -0.030115455
-0.25941864 0.019612974 -0.031286545
-0.23835152 0.018465411 -0.027700521
-0.97131073 0.20974405 -0.21458086
-0.02611593 -0.059798401 0.050936799
-0.02611593 -0.059798401 0.050936799
-0.02611593 -0.059798401 0.050936799
-0.97589397 0.21036384 -0.19247636
-0.97019798 0.23371828 -0.21316755
-0.96548301 0.2570582 -0.23284033
-0.27032509 0.028596651 -0.027918704
-0.99349666 0.21506578 -0.17205483
-0.98582357 0.23743133 -0.19380127
-0.97408032 0.25871029 -0.2116423
-0.02611593 -0.059798401 0.050936799
-1.0050895 0.21772851 -0.15078238
-0.99442083 0.23908342 -0.17260322
-0.98671436 0.26041293 -0.19236839
-0.97601229 0.28073183 -0.21220794
-1.0156639 0.2203695 -0.12852909
-1.0000041 0.23970681 -0.15047993
-1.0033585 0.26414767 -0.17398298
-0.98363239 0.28139856 -0.19204637
-1.0192058 0.2219494 -0.10442603
-1.0226166 0.24644448 -0.13092807
-1.0109373 0.26577803 -0.15180407
-0.98722374 0.28001514 -0.16999671
-1.0377896 0.22663684 -0.082986027
-1.0281808 0.24704979 -0.10780509
-1.017539 0.26642314 -0.13066164
-1.0088779 0.28578559 -0.15248094
-1.0373403 0.2262027 -0.058994159
-1.0427692 0.25072306 -0.086458273
-1.0291318 0.26908582 -0.10938921
-1.0154794 0.28643063 -0.13133851
-1.0559012 0.23187195 -0.036536485
-1.0603305 0.25638872 -0.064019397
-1.0367104 0.27071625 -0.08721032
-1.0250953 0.28810441 -0.11112136
-1.0684301 0.23648362 -0.01221025
-1.0638952 0.25698683 -0.040934004
-1.0482848 0.27336082 -0.064938232
-1.0386878 0.29077432 -0.089811333
-1.0889679 0.24314174 0.011302687
-1.0664414 0.25756332 -0.016867757
-1.0698826 0.27907699 -0.044423498
-1.0462893 0.29142293 -0.068650112
-1.1024777 0.24773888 0.036647368
-1.0909935 0.26525372 0.0057387054
-1.0684336 0.27863929 -0.020450428
-1.0638731 0.29610685 -0.04722891
-1.118983 0.25334665 0.062066447
-1.1085174 0.27088314 0.030176915
-1.0820032 0.28229091 0.0018772632
-1.0804572 0.30078712 -0.025826499
-1.1434748 0.26198259 0.087689899
-1.1250412 0.27650899 0.054596324
-1.1035411 0.28895259 0.025408987
-1.0820262 0.30037823 -0.0027967095
-1.1599427 0.26755422 0.1151083
-1.1435422 0.28312376 0.080071002
-1.1070833 0.29053247 0.049512051
-1.0985727 0.30502239 0.020605024
-0.02611593 -0.059798401 0.050936799
-1.1740105 0.29276305 0.10682488
-1.1345747 0.2991792 0.075191878
-1.1111242 0.30865228 0.043913577
-1.2008198 0.28368905 0.17218485
-1.1894785 0.29833099 0.1342245
-1.1451076 0.30278388 0.099462517
-1.1286479 0.31428176 0.06835179
-0.02611593 -0.059798401 0.050936799
-0.02611593 -0.059798401 0.050936799
-1.1655895 0.30938774 0.12597443
-0.02611593 -0.059798401 0.050936799
-0.02611593 -0.059798401 0.050936799
-1.2353134 0.31544748 0.19341233
-1.1910439 0.31799108 0.15361601
-1.1796583 0.32957926 0.11860059
-0.02611593 -0.059798401 0.050936799
-1.2278091 0.31493393 0.22027165
-0.02611593 -0.059798401 0.050936799
-0.02611593 -0.059798401 0.050936799
-0.02611593 -0.059798401 0.050936799
-1.2621338 0.32746041 0.25415236
-1.2398741 0.33611813 0.21287823
-1.233525 0.34776044 0.17595744
-0.02611593 -0.059798401 0.050936799
-1.2894489 0.33794403 0.28886518
-1.2413417 0.33761847 0.24094236
-1.2350153 0.34827903 0.20300388
-1.3040092 0.3305915 0.36703128
-1.3097692 0.34740266 0.32342845
-1.2696754 0.34812379 0.2746743
-1.2633862 0.35882053 0.2347365
-1.3252693 0.34099928 0.40463033
-1.3300747 0.35584337 0.35897332
-1.2979902 0.35861096 0.30940592
-1.2718301 0.36132768 0.26394987
-2.2843711 0.64407802 0.72317767
-1.3463809 0.36426973 0.39444306
-1.3093654 0.36407414 0.34172869
-0.02611593 -0.059798401 0.050936799
-2.2465513 0.6391319 0.76739508
-1.3527195 0.3696788 0.42867124
-1.3425928 0.37750641 0.38060692
-0.02611593 -0.059798401 0.050936799
-2.2136998 0.6371851 0.81276017
-2.1705389 0.6397962 0.71396589
-0.02611593 -0.059798401 0.050936799
-1.2980325 0.3727437 0.35767871
-2.1878016 0.63722694 0.86029214
-2.1516435 0.63886333 0.76161134
-2.1142571 0.6412788 0.67492574
-1.3084078 0.37820333 0.3899827
-2.152992 0.63430935 0.90360236
-2.1228137 0.63594913 0.80603397
-2.0993795 0.64037836 0.72164667
-1.3585001 0.39658722 0.43526843
-2.1281126 0.63437289 0.95015347
-2.1069064 0.63802654 0.85378987
-2.0795443 0.6384964 0.76625633
-2.0639853 0.64082801 0.68898106
-2.0883787 0.63150966 0.98937106
-2.0741374 0.63415241 0.89512026
-2.0626671 0.63758874 0.81293982
-2.0551026 0.64094895 0.73583281
-2.0595601 0.63061321 1.03283
-2.0532763 0.63424844 0.94074684
-2.0418513 0.63572127 0.85653108
-2.0382674 0.63907766 0.78049892
-2.0277565 0.63072401 1.0752509
-2.0264797 0.63237739 0.98322576
-2.022012 0.63483906 0.90115881
-2.0234122 0.63719553 0.82620227
-1.9880828 0.62691534 1.1114516
-2.0026562 0.6324988 1.0267967
-2.0021729 0.63395685 0.94578654
-2.0026002 0.63432819 0.86977541
-1.9563168 0.6270622 1.1518731
-1.967944 0.62867182 1.0650904
-1.9743994 0.63110054 0.98722899
-1.9887413 0.63344944 0.9155156
-1.9176576 0.62427491 1.1871109
-1.9421395 0.62880409 1.1076242
-1.958533 0.63221425 1.0329676
-1.9718829 0.6325599 0.96119934
-1.8859105 0.62443995 1.2265328
-1.9153539 0.62895083 1.1491394
-1.9337363 0.63035047 1.0754839
-1.9609556 0.63463712 1.010049
-1.8512241 0.62364864 1.2628814
-1.8796755 0.62615633 1.1854333
-1.9119124 0.63047898 1.1190925
-1.9431162 0.63376212 1.0547142
-1.8135794 0.62188286 1.2971562
-1.8469965 0.6233725 1.2217832
-1.8821768 0.62765169 1.1584978
-1.9123883 0.62893152 1.0940648
-1.7710147 0.61917168 1.3273205
-1.8172489 0.62354475 1.2612429
-1.8544366 0.62583148 1.1979591
-1.9004612 0.63100523 1.1428957
-1.7324264 0.61745667 1.3585776
-1.7865429 0.62274969 1.2986662
-1.8256968 0.62400758 1.2374012
-1.8707334 0.62617826 1.182265
-1.6908988 0.61478531 1.3867614
-1.7528563 0.62196195 1.3350337
-1.8028693 0.62513232 1.2810091
-1.8489134 0.62530702 1.2258556
-1.6552685 0.61404461 1.4200921
-1.714276 0.61824721 1.3662548
-1.7702088 0.62236667 1.3163595
-1.8310249 0.62739527 1.2725742
-1.6137558 0.61239123 1.4472942
-1.6707753 0.61358702 1.3933651
-1.7414464 0.62152451 1.3568195
-1.7973351 0.62259018 1.3098692
-1.5820757 0.6146282 1.4827535
-1.6391218 0.61384249 1.4277887
-1.7018849 0.61782426 1.3870221
-1.7725343 0.62172621 1.3524036
-1.5376462 0.61103672 1.5058646
-1.6015372 0.61113119 1.4590466
-1.6692246 0.61505854 1.4223725
-1.7408177 0.61890972 1.3907719
-1.4932541 0.6074813 1.5269762
-1.5698797 0.61238647 1.4934883
-1.6345794 0.61330354 1.4567038
-1.7120552 0.61806756 1.4312319
-1.4537745 0.60687101 1.5522346
-1.5352682 0.61166751 1.5258383
-1.6068317 0.61348295 1.4962008
-1.6823156 0.61624014 1.4706554
-1.4103595 0.60430098 1.5743828
-1.4947778 0.60903591 1.5520413
-1.5731823 0.6127314 1.530569
-1.651576 0.61440915 1.5100601
-1.3689404 0.60273796 1.5965866
-1.4513481 0.60544795 1.5751712
-1.5375562 0.61099094 1.5638818
-1.6267262 0.61650848 1.5546478
-1.3294983 0.60216391 1.6198456
-1.4118725 0.60383785 1.6004117
-1.4980094 0.60830861 1.5931027
-1.5861727 0.61080498 1.5847956
-1.2900521 0.60258961 1.6431227
-1.3743175 0.60316241 1.6297061
-1.4594814 0.60564804 1.6213428
-1.5534484 0.6099847 1.6231811
-1.2486891 0.60108083 1.6623274
-1.3348606 0.60157037 1.6539469
-1.4189723 0.60299826 1.6485457
-1.5197244 0.60916078 1.6615479
-1.2083032 0.60055745 1.6825688
-1.2963619 0.60094559 1.6802237
-1.3775047 0.59938133 1.6737124
-1.4752651 0.60353339 1.6866221
-1.1630609 0.59714311 1.6956643
-1.2578821 0.60033888 1.7055007
-1.3448062 0.60159671 1.7101526
-1.4357036 0.59983325 1.7168248
-1.1256107 0.59857595 1.718997
-1.2174628 0.5987795 1.7277234
-1.3082323 0.60090673 1.7404656
-1.4000134 0.60003811 1.7531726
-1.0813869 0.59518331 1.7311118
-1.1770207 0.59820181 1.7509637
-1.2677606 0.59829324 1.7656692
-1.3624064 0.59830862 1.7854481
-1.0468682 0.59957206 1.7575538
-1.1365974 0.59764224 1.7732042
-1.2253042 0.59669042 1.7898535
-1.3266785 0.5984773 1.8237953
-1.0036405 0.59718299 1.7697053
-1.0961928 0.59710068 1.7944452
-1.1867868 0.59604758 1.81713
-1.291007 0.59870028 1.8591434
-0.95945036 0.59482634 1.7798389
-1.0519317 0.59367192 1.8085592
-1.1472697 0.59540105 1.8443875
-1.2465401 0.59507257 1.8842537
-0.91817707 0.59440786 1.7940633
-1.008644 0.59222835 1.8237277
-1.1048319 0.59381634 1.8675723
-1.2078691 0.59528482 1.9195455
-0.87502432 0.59209108 1.8022164
-0.96919781 0.59265405 1.8470048
-1.0653298 0.59418786 1.8938482
-1.1672773 0.59456247 1.9507831
-0.83572799 0.5926615 1.8174959
-0.92786843 0.59218132 1.8642284
-1.0199714 0.59166491 1.9129598
-1.1218625 0.59198517 1.9728938
-0.79257125 0.59134459 1.8256669
-0.8836596 0.58980674 1.8753614
-0.97850692 0.59206533 1.9371989
-1.0783315 0.59030646 2.0010579
-0.75133532 0.59096229 1.8378922
-0.84039056 0.58838117 1.8895303
-0.93514431 0.59054941 1.9563663
-1.0366946 0.59154397 2.034312
-0.70923853 0.58870333 1.8430648
-0.79999685 0.5898574 1.9098077
-0.88984209 0.58808076 1.9724789
-0.98934048 0.58801407 2.0533681
-0.66711909 0.58742619 1.8492553
-0.75676531 0.58846813 1.9219773
-0.84547567 0.58756107 1.9916452
-0.94576019 0.58929861 2.0835855
-0.62789756 0.58806896 1.8605363
-0.71357107 0.58711499 1.9321474
-0.80018824 0.58611023 2.0067763
-0.897425 0.58578312 2.1016233
-0.58671397 0.58874083 1.8697807
-0.67127538 0.58767468 1.9473709
-0.75586319 0.58462697 2.0239255
-0.85100281 0.58520204 2.1237509
-0.54471469 0.58557242 1.8699371
-0.6290583 0.58730686 1.9585775
-0.71147031 0.5860889 2.0441275
-0.80354339 0.58458114 2.1478591
-0.5026288 0.58533126 1.8741462
-0.58299971 0.58506972 1.9616758
-0.66524309 0.58368891 2.0562227
-0.75518161 0.58304715 2.1669323
-0.46158403 0.58412999 1.8763566
-0.54076391 0.58468384 1.9738822
-0.61901212 0.5822888 2.0683358
-0.70683855 0.58153141 2.1850061
-0.42147905 0.58387792 1.881603
-0.49570125 0.58345014 1.9770172
-0.57273573 0.58285224 2.0824845
-0.66120934 0.5857721 2.2172394
-0.3814075 0.58466184 1.8848681
-0.45070255 0.58027101 1.9771173
-0.5265007 0.582452 2.0946159
-0.60902464 0.58238709 2.2272048
-0.34133998 0.58444595 1.8881152
-0.40757936 0.57999009 1.9833069
-0.48030716 0.58108807 2.1047297
-0.55225772 0.57336491 2.2159746
-0.30127239 0.58423001 1.8913621
-0.36445618 0.57970917 1.9894965
-0.43409091 0.58070588 2.1158612
-0.48640478 0.55214113 2.1583381
-0.26027989 0.58408284 1.8905916
-0.32041201 0.57849717 1.9916507
-0.3805145 0.57087564 2.0946732
-0.4271152 0.53654361 2.1229341
-0.22029115 0.58293951 1.889822
-0.27812704 0.5810746 2.0059104
-0.32637376 0.55544066 2.0513656
-0.36997503 0.5210979 2.0795701
-0.1802571 0.58375955 1.8910879
-0.23419914 0.57897127 2.0020487
-0.2769129 0.54473341 2.0242367
-0.31573674 0.50657237 2.0412791
-0.1413056 0.58265597 1.8883375
-0.19025248 0.57684988 1.9991865
-0.23748936 0.56429106 2.0958767
-0.26773858 0.5033825 2.0413227
-0.10145183 0.58063936 1.8805523
-0.147283 0.57571381 1.9973609
-0.19462609 0.57534242 2.1392887
-0.22650352 0.51809663 2.103838
-0.062496405 0.58053553 1.8778203
-0.10323095 0.57650149 1.9995511
-0.14666148 0.57318848 2.137351
-0.18306983 0.53562212 2.1763663
-0.023499619 0.58139545 1.8771054
-0.060302846 0.57440174 1.9957081
-0.098655447 0.57199836 2.1374307
-0.13561422 0.55411506 2.2498372
0.015418351 0.58132786 1.8723738
-0.017227974 0.57617474 1.9989347
-0.050626788 0.57178992 2.1385281
-0.085733533 0.5651232 2.2941175
0.054294955 0.58029658 1.865625
0.024685524 0.57509649 1.9941289
-0.0026355721 0.57161766 2.1376262
-0.032608248 0.56580615 2.3001373
0.092074193 0.57835954 1.8538787
0.06739983 0.57119614 1.9792535
0.044277009 0.57052147 2.1327264
0.020438222 0.56556171 2.3021405
0.13001107 0.57827747 1.8501656
0.11035845 0.57207781 1.9764643
0.091129482 0.56847978 2.1248095
0.072406061 0.56439334 2.3001456
0.16787307 0.57826769 1.842454
0.15239605 0.57389057 1.9777104
0.13804208 0.56738365 2.1199098
0.12635481 0.56323582 2.2971134
-0.02611593 -0.059798401 0.050936799
-0.02611593 -0.059798401 0.050936799
0.18605594 0.56819308 2.1200254
0.179285 0.56210005 2.2931006
0.24255586 0.57728809 1.825032
-0.02611593 -0.059798401 0.050936799
-0.02611593 -0.059798401 0.050936799
0.23318151 0.56199664 2.2870877
0.27932048 0.57637256 1.812323
-0.02611593 -0.059798401 0.050936799
0.14351529 0.28711656 1.1874214
-0.02611593 -0.059798401 0.050936799
0.28156987 0.51172709 1.6250479
0.17375259 0.30479833 1.1431601
0.32877159 0.56893289 2.1033611
0.19218913 0.31049547 1.3779976
0.35178983 0.57359946 1.7839063
0.20867831 0.32184112 1.1888299
0.36997575 0.55950755 2.0624053
0.39177015 0.55978823 2.2640707
0.38877612 0.5764842 1.7822654
0.21495278 0.29437307 1.1021863
0.41699764 0.56232023 2.0625758
0.27269578 0.33383289 1.4529378
0.42346227 0.57464838 1.7655772
0.23675761 0.29347512 1.0917583
0.4649218 0.56421989 2.0577111
0.49749249 0.56066084 2.2481017
-0.02611593 -0.059798401 0.050936799
0.25964105 0.29350114 1.0853281
0.51066607 0.56329018 2.0438335
0.54919827 0.55974573 2.2321117
-0.02611593 -0.059798401 0.050936799
0.28356573 0.29448718 1.0808966
0.55643296 0.56334215 2.030973
0.59980661 0.55792481 2.2111242
0.32206464 0.33701789 1.0989512
0.30643043 0.29453129 1.0734665
0.60116261 0.56343389 2.0161324
0.6504938 0.55703139 2.1941531
0.56657869 0.57596344 1.7169049
0.32723546 0.29363695 1.0630574
0.64477235 0.56163812 1.9952762
0.70328206 0.55803996 2.182179
0.60343385 0.57897496 1.7082664
0.35324642 0.29754296 1.0626409
0.69052434 0.56270802 1.9814342
0.75289452 0.55722249 2.1612279
0.63504183 0.57622236 1.6876179
0.37825361 0.30045271 1.0622252
-0.02611593 -0.059798401 0.050936799
-0.02611593 -0.059798401 0.050936799
0.39374581 0.32497007 1.030368
0.39902115 0.29959458 1.0498167
0.39585862 0.267647 1.0472972
0.40197611 0.24041297 1.0586939
0.57473195 0.46509796 1.3736305
0.53906596 0.39357099 1.298979
0.54001409 0.35648328 1.3032919
0.52828461 0.30905548 1.2736435
0.73506451 0.57578254 1.6347193
0.79547608 0.57022333 1.7635312
0.86518544 0.56434244 1.9081688
0.95028144 0.557028 2.0734994
0.76875877 0.57594997 1.6180859
0.83311331 0.5704307 1.7438238
0.90674722 0.56460774 1.8843875
0.99368519 0.55543107 2.0416472
0.80143833 0.57713884 1.6004895
0.86764979 0.56873953 1.7191381
0.94622654 0.56295294 1.8566089
1.0412458 0.55567485 2.0177529
0.8320356 0.57640773 1.5788962
0.90220875 0.56803012 1.6954702
0.98680717 0.56320375 1.833846
1.0918925 0.55883503 1.9978551
0.86365134 0.5756548 1.5582836
0.93782777 0.56826276 1.6748006
1.0252905 0.56255239 1.8061043
1.1332365 0.55629981 1.9630234
0.89528972 0.57588363 1.5386888
0.97549164 0.57045162 1.6561286
1.0648112 0.56186122 1.7803432
1.1797262 0.55761939 1.9351673
0.92899179 0.57805067 1.5220914
1.008976 0.56981814 1.628481
1.1053396 0.56316608 1.7545992
1.218977 0.55518186 1.8953748
0.95755196 0.57736284 1.4985361
1.0445576 0.57008696 1.6058118
1.143827 0.56351453 1.7268755
1.2624298 0.55654836 1.865576
0.98815703 0.57863122 1.4769788
1.078102 0.57039905 1.5811813
1.1802771 0.56390631 1.69719
1.3099649 0.5598278 1.8397366
1.0187582 0.57889992 1.4554034
1.1095867 0.56977278 1.553571
1.217746 0.56427646 1.6684855
1.3513167 0.5592922 1.8049409
1.0473182 0.57821202 1.4318483
1.1431352 0.57108474 1.5289584
1.2552 0.56566447 1.6387993
1.3875757 0.55886507 1.7652407
1.0748411 0.577564 1.4063125
1.1776832 0.572393 1.5043268
1.2885908 0.56512147 1.6061532
1.4258718 0.55839455 1.7275026
1.1054689 0.57981408 1.3857728
1.2081307 0.57180655 1.474736
1.3260448 0.56650949 1.5764672
1.4682541 0.56083685 1.6937417
1.1339955 0.58016229 1.3602364
1.2426828 0.57411474 1.4501227
1.3614805 0.56792283 1.5458188
1.506577 0.56234795 1.6570392
1.1615185 0.57951421 1.3347008
1.2721157 0.57454979 1.4195691
1.3938191 0.56843752 1.5102105
1.544881 0.56387711 1.6193367
1.1880453 0.57986951 1.309202
1.2995262 0.57401019 1.3880354
1.4272138 0.56889433 1.4775826
1.5770847 0.56351864 1.5767128
1.2176172 0.58217758 1.2856821
1.3310187 0.5753836 1.3604612
1.4575342 0.56943429 1.4410123
1.612348 0.5640949 1.5370497
1.2431067 0.58257264 1.2582026
1.3574108 0.57486564 1.3279468
1.4888916 0.56993449 1.4064224
1.6455779 0.5657143 1.4954427
1.2686114 0.58194983 1.2317047
1.385829 0.5763222 1.2964303
1.5192347 0.57145613 1.3708699
1.6757485 0.56639898 1.450875
1.2940824 0.58236295 1.2032257
1.414247 0.57777876 1.2649139
1.5485177 0.57203585 1.332319
1.7028742 0.56513089 1.4043286
1.3185349 0.58279783 1.1737658
1.4396206 0.57728255 1.2314186
1.5717379 0.5706917 1.290846
1.7289855 0.56488436 1.356819
1.343006 0.58321464 1.1453056
1.4629797 0.57781142 1.196979
1.602066 0.57323134 1.2543117
1.7602197 0.5675109 1.3152678
1.3654401 0.58367473 1.1148834
1.4883384 0.57833314 1.1625021
1.6283495 0.57382178 1.2158172
1.7843313 0.56727147 1.2677959
1.3889116 0.58409512 1.086442
1.5157567 0.57979327 1.1310045
1.6525961 0.57445562 1.175361
1.8125288 0.56994486 1.2243016
1.4103271 0.5845769 1.0550393
1.5380973 0.58034384 1.0955843
1.6788837 0.57604593 1.1368845
1.8396852 0.57165819 1.1788088
1.4286979 0.58310604 1.0216573
1.560419 0.58091247 1.0591642
1.7021343 0.57768315 1.0964651
1.8648231 0.57339686 1.1323538
1.4501321 0.58356971 0.99125403
1.5797187 0.58051014 1.0217829
1.7213216 0.57738942 1.0530859
1.8879426 0.57516074 1.0849367
1.4725516 0.58504772 0.95985043
1.6000408 0.58108604 0.9854005
1.745576 0.58002293 1.0126656
1.9110849 0.57790631 1.0385374
1.4949895 0.58650774 0.9294464
1.6243887 0.58362907 0.94997859
1.7688265 0.58166027 0.97224629
1.9291639 0.5787245 0.98919696
1.5143681 0.58703285 0.89608181
1.6457146 0.58520114 0.91359544
1.7849996 0.58239514 0.92794174
1.9482656 0.58052087 0.94085544
1.5317429 0.58656543 0.8627367
1.6650182 0.58579862 0.87623215
1.804191 0.58310121 0.88458055
1.9643263 0.58136427 0.890553
1.5521439 0.58806866 0.83037096
1.6822847 0.58643955 0.83690715
1.8244271 0.58576709 0.84323585
1.976369 0.58224016 0.83932602
1.5745486 0.59056467 0.79798567
1.6965479 0.58609134 0.79762053
1.8315154 0.5836072 0.79504776
1.9934523 0.5840618 0.79002237
1.593931 0.59208971 0.76463908
1.7128185 0.58773565 0.75833231
1.8456888 0.58434927 0.75078076
2.0024955 0.58494842 0.73885173
1.6072505 0.59169078 0.72837019
1.7341335 0.59132546 0.72098547
1.8618698 0.58708382 0.70651233
2.0115387 0.5858351 0.68768108
1.6215924 0.59227008 0.69310027
1.7473781 0.59099895 0.68071795
1.8689994 0.58588755 0.66034156
2.0216045 0.58769989 0.63750935
1.6409562 0.59381324 0.65875393
1.7555823 0.58972669 0.63852704
1.8831806 0.58862931 0.61611062
2.0266259 0.58761919 0.58539623
1.6482353 0.5924722 0.62058043
1.7718607 0.59337068 0.59927487
1.8953396 0.59039646 0.57089967
2.0276482 0.58755279 0.53335828
1.6645621 0.59406215 0.58429122
1.7851094 0.59404397 0.55902535
1.8994734 0.5902108 0.52480322
2.0417624 0.59236652 0.48516476
1.6768856 0.59466678 0.54805917
1.7943212 0.59476781 0.51685172
1.9066108 0.59101421 0.47866848
2.0417848 0.59230375 0.43314558
1.6932163 0.5972566 0.51178795
1.8015481 0.59448099 0.47569725
1.9127482 0.59182119 0.43255255
2.0388076 0.59225172 0.38118276
1.7075436 0.59885383 0.47553629
1.810764 0.59620464 0.4335416
1.9179085 0.59361345 0.38747308
2.040875 0.59414518 0.33116138
1.7178301 0.59950167 0.43734252
1.8179948 0.59691757 0.39240518
1.9180244 0.59346026 0.34045219
-0.02611593 -0.059798401 0.050936799
1.7251133 0.59916055 0.39918703
1.2174691 0.38177475 0.25170922
-0.02611593 -0.059798401 0.050936799
