# .PCD v0.7 - Point Cloud Data file format
VERSION 0.7
FIELDS x y z
SIZE 4 4 4
TYPE F F F
COUNT 1 1 1
WIDTH 1398
HEIGHT 1
VIEWPOINT 0 0 0 1 0 0 0
POINTS 1398
DATA ascii
-1.1600949 0.64318031 0.19493291
-1.043487 0.64119387 0.27974251
-1.0808398 0.64067054 0.26142621
-1.1152346 0.63917279 0.24103615
-1.1595932 0.6416921 0.22190574
-1.0390719 0.64178139 0.30167788
-1.0734184 0.63822973 0.2842508
-1.1236851 0.64469749 0.26930386
-1.1580918 0.64020032 0.24885978
-1.0296921 0.63836974 0.3224476
-1.073957 0.64079863 0.30831552
-1.1142532 0.64023179 0.29305458
-1.1575675 0.6396938 0.27685028
-1.0203271 0.63597596 0.34223568
-1.0705082 0.64035368 0.33225101
-1.107794 0.63775843 0.31789729
-1.1560434 0.63918376 0.304822
-1.0159121 0.6365636 0.36417109
-1.0581369 0.63493156 0.35292834
-1.1112721 0.64128369 0.34503537
-1.1545194 0.63867366 0.33279371
-1.0144846 0.64016128 0.38621691
-1.0526844 0.63547939 0.37684426
-1.1028322 0.63882113 0.36884087
-1.1509997 0.63715655 0.36070985
-1.003124 0.63676053 0.40594938
-1.044282 0.63305306 0.39865044
-1.0924003 0.63435173 0.39257276
-1.147476 0.63663936 0.38864398
-0.99375516 0.63536668 0.4257555
-1.0418025 0.63559318 0.42365843
-1.092864 0.63684839 0.42063615
-1.1429713 0.63613659 0.41555968
-0.98636323 0.63496166 0.44661683
-1.02845 0.6301856 0.44331729
-1.0863972 0.63637465 0.44551489
-1.1433975 0.63859689 0.44562235
-0.97601712 0.63258237 0.46538645
-1.0249894 0.63274014 0.46730685
-1.0749803 0.63291961 0.46824637
-1.1289557 0.63209546 0.47024271
-0.97159028 0.63616943 0.48737589
-1.0155832 0.63131005 0.48911226
-1.0694906 0.63343114 0.49416164
-1.1244094 0.63255632 0.49917573
-0.96122158 0.63477194 0.50716323
-1.0081537 0.63086891 0.5119729
-1.060028 0.6319468 0.51896602
-1.1168904 0.63102496 0.52701664
-0.9557988 0.63735545 0.52911586
-0.99972069 0.63142395 0.53483284
-1.0495883 0.62947708 0.54273397
-1.1113405 0.63248211 0.55594891
-0.94742197 0.63796479 0.54897678
-0.99031049 0.63099366 0.55665624
-1.0430987 0.62998509 0.5686304
-1.1028178 0.63194686 0.58378911
-0.93409914 0.63459307 0.56667233
-0.97892708 0.62857473 0.57740641
-1.0326513 0.62951505 0.59243435
-1.0923181 0.63042271 0.61057401
-0.92372251 0.6351952 0.58649564
-0.96949422 0.62912619 0.6002475
-1.0251617 0.63001949 0.618312
-1.0847911 0.63089091 0.63845104
-0.91039574 0.63282329 0.60420924
-0.96205705 0.63068467 0.62314421
-1.0117414 0.6275571 0.64102399
-1.0713146 0.62837434 0.66416186
-0.89413744 0.62749541 0.6188134
-0.94671589 0.62728763 0.64180183
-1.0012714 0.6280688 0.66584551
-1.0637463 0.62980616 0.69405627
-0.88278371 0.62711221 0.6376003
-0.93628311 0.62783551 0.66462415
-0.99080497 0.6275807 0.69064921
-1.0463158 0.62531173 0.71765661
-0.87240326 0.62871414 0.65744162
-0.92389214 0.62741256 0.6853916
-0.97935373 0.62810689 0.71445239
-1.0367666 0.62675452 0.74651366
-0.8610456 0.62933087 0.67624652
-0.91150117 0.62698966 0.706159
-0.96295655 0.62465209 0.73609018
-1.0173552 0.62227094 0.76907682
-0.84576058 0.62598813 0.69190514
-0.89615601 0.62459254 0.72483468
-0.95148259 0.62615997 0.76091111
-1.0117373 0.62667322 0.80106211
-0.8393302 0.63056785 0.71387506
-0.88671529 0.62714362 0.74771178
-0.93607742 0.62470835 0.78260374
-0.98936784 0.62121534 0.8215515
-0.81913269 0.62427998 0.7253871
-0.87332052 0.62771696 0.76847839
-0.91969508 0.62227142 0.80325997
-0.97683793 0.62266541 0.8493526
-0.80579412 0.62490755 0.74315476
-0.85992587 0.62829024 0.78924501
-0.90328604 0.62181604 0.82495189
-0.95644552 0.61819637 0.87089723
-0.79640955 0.62751293 0.76303291
-0.84064543 0.62393332 0.80481052
-0.89079362 0.62330234 0.85075361
-0.94291186 0.62064266 0.89869756
-0.78305233 0.62812245 0.78180021
-0.83215922 0.62845153 0.82974184
-0.87144923 0.6208908 0.86935413
-0.92249274 0.61815518 0.92127788
-0.76385069 0.62283802 0.79334903
-0.80600816 0.6201787 0.83910573
-0.85504025 0.62043542 0.89104593
-0.90798193 0.61961621 0.94804168
-0.75048947 0.62444729 0.81213439
-0.79749924 0.6256786 0.86505467
-0.83765018 0.61999452 0.91171944
-0.88560456 0.61615789 0.96856713
-0.73423427 0.62313682 0.82581091
-0.7772339 0.62233603 0.87961972
-0.82121855 0.62052095 0.93442905
-0.86811304 0.61762625 0.99427491
-0.7189374 0.62279361 0.84152365
-0.76283538 0.62390554 0.90038562
-0.80089307 0.61812383 0.95201105
-0.84573168 0.61516774 1.0148183
-0.70168626 0.62047964 0.85516346
-0.74354714 0.6215483 0.91598707
-0.78443491 0.62063175 0.97575635
-0.83115292 0.61957395 1.0446352
-0.68929827 0.62407404 0.87500328
-0.72523218 0.62117618 0.93264318
-0.76310962 0.61823112 0.99331963
-0.80096519 0.61125064 1.0559232
-0.67010766 0.62080747 0.88558841
-0.70398968 0.61684823 0.9461717
-0.74373853 0.61780113 1.0129558
-0.78438282 0.61664945 1.0857205
-0.65674245 0.6234166 0.90439177
-0.68760633 0.61942852 0.9659183
-0.72240937 0.61640036 1.0305371
-0.75712657 0.61128211 1.1001182
-0.63655198 0.62014633 0.91495818
-0.66831422 0.61807108 0.98153788
-0.7039929 0.61793751 1.0522274
-0.73860872 0.61472845 1.1268427
-0.61929297 0.61983216 0.92863393
-0.64804095 0.61672813 0.99613893
-0.67874718 0.614595 1.0656989
-0.71230298 0.61232793 1.1433125
-0.60010225 0.61656541 0.93921924
-0.6316576 0.61930847 1.0158856
-0.65839112 0.61517942 1.0843345
-0.69084579 0.61481792 1.1669637
-0.5837791 0.61820012 0.95594883
-0.6065321 0.61407483 1.0233231
-0.63508099 0.61378944 1.1008787
-0.66260451 0.61046487 1.1803608
-0.56555772 0.61791849 0.96760654
-0.589145 0.6176514 1.0430689
-0.61178559 0.61341751 1.1164411
-0.64012468 0.61393297 1.2050109
-0.54729891 0.61760068 0.98126352
-0.5678907 0.61632288 1.0566515
-0.58944875 0.61401278 1.1340395
-0.60802698 0.60669273 1.2112812
-0.5300172 0.61826813 0.99595702
-0.54374224 0.61207467 1.0651253
-0.56421781 0.61168826 1.1465293
-0.58458883 0.60919368 1.2338952
-0.51175445 0.61895013 1.009632
-0.52444226 0.61271685 1.080781
-0.53806978 0.60743278 1.1549658
-0.55444145 0.60492384 1.2422565
-0.4887034 0.61379606 1.0131084
-0.50122571 0.61141741 1.0923266
-0.5157063 0.61000967 1.1735998
-0.53285223 0.61230445 1.2719958
-0.47139913 0.61544532 1.0288196
-0.47902772 0.61013967 1.1028916
-0.49232417 0.6125648 1.1932151
-0.49891254 0.60320204 1.270195
-0.45021969 0.61418915 1.0384036
-0.45583379 0.60785854 1.1134198
-0.46519509 0.60832387 1.2006328
-0.47442922 0.6076628 1.2948258
-0.43097582 0.61488569 1.0510602
-0.43356788 0.60952592 1.1270375
-0.43991095 0.60996246 1.2151942
-0.44233844 0.60344017 1.3001503
-0.40890193 0.61071694 1.055573
-0.41132456 0.61021167 1.1396378
-0.41275918 0.60670328 1.2236296
-0.41497585 0.60599899 1.3186907
-0.38963541 0.61239517 1.0692474
-0.38718703 0.60798115 1.147148
-0.38658062 0.60542929 1.2331197
-0.38292646 0.60081261 1.3219979
-0.36847076 0.61215699 1.0778496
-0.36300814 0.60671431 1.1566757
-0.36033809 0.60610062 1.2456448
-0.35649574 0.60632038 1.34361
-0.34822321 0.61384976 1.0905055
-0.33978376 0.60741448 1.1682575
-0.33413687 0.60580832 1.2561524
-0.32350665 0.60018486 1.3438814
-0.32614931 0.60968095 1.0950184
-0.31561962 0.60716558 1.1768035
-0.30691323 0.60649419 1.2676591
-0.29609483 0.60570711 1.364475
-0.30400357 0.60945737 1.1026022
-0.29141417 0.60788023 1.1873667
-0.27876857 0.60624897 1.2751302
-0.26312053 0.60058951 1.3637649
-0.28188047 0.60825193 1.1091684
-0.26723132 0.60761327 1.1969123
-0.25158626 0.60597116 1.2846195
-0.23375046 0.60514092 1.3823036
-0.26254603 0.6128754 1.1258957
-0.24302191 0.60932779 1.2074937
-0.223483 0.60476232 1.2900733
-0.19993789 0.59716493 1.3735234
-0.23759285 0.60680479 1.1243182
-0.21694091 0.60714442 1.2119675
-0.19529696 0.60548073 1.2995619
-0.1714396 0.60561067 1.3981509
-0.21637897 0.60952991 1.134974
-0.19179176 0.6079098 1.2195129
-0.16712965 0.60621732 1.3080506
-0.13764574 0.59765279 1.3883709
-0.19329743 0.60735726 1.139504
-0.16668794 0.60671169 1.2250232
-0.13814674 0.60311377 1.3074516
-0.10722663 0.60516393 1.4089441
-0.1720008 0.6120097 1.1541945
-0.13966328 0.60457897 1.2264791
-0.10903971 0.60290116 1.3129047
-0.074447379 0.5982275 1.3982013
-0.14799823 0.60890603 1.1546891
-0.11455552 0.60438073 1.2320073
-0.079928756 0.60368836 1.3183757
-0.042231582 0.60191303 1.4086684
-0.12484875 0.60967857 1.1622722
-0.088466652 0.60419697 1.2365171
-0.050881825 0.60253024 1.3208117
-0.010369411 0.59690762 1.401979
-0.10078217 0.60852027 1.1658018
-0.06144201 0.60206425 1.237973
-0.021812236 0.60235381 1.3242655
0.020929318 0.60252398 1.4164996
-0.07765533 0.60831112 1.1723673
-0.035371885 0.60189855 1.2414831
0.0062200837 0.60221714 1.3257387
0.052633852 0.59566355 1.4017769
-0.053584829 0.60815263 1.175915
-0.0092377253 0.60367829 1.2480282
0.03629341 0.60303688 1.3291916
0.085812025 0.59938169 1.4102259
-0.02949168 0.60897583 1.1804802
0.016855061 0.60449433 1.2525561
0.065284178 0.601933 1.3286287
0.097998872 0.50966847 1.2243118
-0.0045907777 0.60395932 1.1759219
0.043992966 0.6072703 1.2591003
0.093985327 0.59408355 1.3139443
0.14968014 0.59726083 1.4029893
0.018630598 0.60867697 1.1865759
0.070837319 0.60230094 1.2515053
0.11704417 0.57081544 1.2680762
0.18038878 0.59140384 1.3883034
0.042554334 0.60464573 1.183054
0.091467068 0.56540418 1.1854292
0.15316659 0.59970796 1.3219407
0.21463865 0.59906346 1.3998046
0.068752512 0.6083709 1.1926342
0.12484617 0.60208905 1.2514901
0.18318377 0.60058206 1.3223947
0.24428739 0.59226441 1.3821205
0.092684098 0.60633934 1.1891481
0.15185995 0.60197407 1.2519826
0.21205826 0.5985868 1.3158157
0.2783944 0.59705108 1.3865701
0.11875815 0.6071735 1.1926762
0.17877227 0.59994978 1.2474405
0.24199662 0.59853339 1.312253
0.30708861 0.59221923 1.3709401
0.14266707 0.60416025 1.1881726
0.20570722 0.59890729 1.243916
0.27195761 0.59946173 1.3097081
0.34219939 0.5980022 1.3753889
0.16870371 0.6050306 1.1897013
0.23475115 0.60176659 1.2454246
0.2997722 0.59652454 1.300131
0.36983368 0.59222829 1.3567606
0.19369912 0.60494083 1.1892315
0.26062226 0.59878224 1.238884
0.32973713 0.59845269 1.297604
0.40492576 0.59802926 1.3602097
0.21861181 0.60292387 1.1847272
0.28856096 0.59873611 1.2353588
0.36072057 0.60035926 1.2960578
0.43148535 0.59233141 1.3376017
0.24242319 0.59900117 1.175207
0.31546241 0.59872961 1.2298532
0.38641927 0.59653795 1.2805022
0.46551749 0.59719038 1.3380527
0.27061015 0.60473686 1.1837862
0.34238261 0.59870505 1.2253473
0.416264 0.59657502 1.2719413
0.4858073 0.58475041 1.3024356
0.29331636 0.59790879 1.1692325
0.37028384 0.59869504 1.2198229
0.44623283 0.59950298 1.2694323
0.40115669 0.44899622 1.0284721
0.32246566 0.60367703 1.1757933
0.39720792 0.59967029 1.2153348
0.4687666 0.59183782 1.2458638
0.55378187 0.59555876 1.2983572
0.34625831 0.59977245 1.1652735
0.42507175 0.5996964 1.2078111
0.41049844 0.48375902 1.0399299
0.57622206 0.58798403 1.2697903
0.37538889 0.60555881 1.1708348
0.44878957 0.59586424 1.1932929
0.52854657 0.59583896 1.2328124
0.61230689 0.59679902 1.272275
0.40018535 0.60265058 1.1603143
0.40846199 0.50788867 1.0334023
0.55735803 0.59691554 1.222289
0.63481104 0.59116971 1.2467432
0.42819199 0.60554951 1.1598423
0.50458127 0.59786195 1.1812803
0.58412451 0.59603596 1.2097677
0.67183572 0.59903556 1.2461921
0.4067753 0.53970957 1.044013
0.53349406 0.60084772 1.175791
0.60566622 0.59037399 1.1862539
0.69022048 0.59152949 1.2147014
0.47472528 0.5987981 1.1358408
0.56136578 0.60287356 1.1683034
0.64175123 0.59918892 1.1887387
0.72516662 0.59847504 1.2101712
0.50473547 0.60268974 1.1353492
0.58715111 0.60197943 1.1568005
0.65921104 0.59161419 1.1612653
0.74359274 0.59193265 1.1806979
0.53056222 0.6027593 1.1258636
0.61291778 0.60110331 1.1442981
0.69523978 0.60048342 1.160751
0.78056514 0.60085267 1.1771657
0.55538523 0.60183245 1.1163789
0.63349718 0.59540886 1.1228024
0.70961338 0.58999223 1.1292816
0.79589033 0.59241176 1.1427146
0.58429813 0.60481828 1.1108897
0.66543609 0.60036546 1.1182926
0.74560475 0.59889764 1.1267679
0.83288538 0.60231346 1.1402003
0.60803849 0.60196787 1.0973891
0.68604207 0.59665263 1.0978327
0.76306844 0.59232265 1.0993127
0.84516966 0.59291965 1.1037879
0.63489163 0.60401541 1.0889205
0.71796614 0.60262722 1.0923412
0.79495507 0.59833348 1.0918219
0.87799996 0.59898108 1.0932792
0.65967721 0.6031248 1.0774363
0.73444486 0.59503782 1.0658864
0.81038171 0.59180176 1.0624049
0.88934851 0.59153628 1.0599209
0.6854291 0.60326666 1.0639523
0.7663877 0.60099435 1.0613946
0.8504442 0.60463792 1.0628873
0.92318642 0.59959382 1.0494295
0.71019584 0.6023941 1.0514685
0.78082925 0.59344834 1.0329781
0.85769892 0.59228069 1.0255152
0.93451631 0.59216714 1.0150714
0.73594773 0.60253596 1.0379845
0.81475693 0.60041559 1.027467
0.8926155 0.60126209 1.0190217
0.96427226 0.59831172 1.0006205
0.75865877 0.60172492 1.0225393
0.83024365 0.5948295 1.001067
0.90398276 0.59379929 0.98666292
0.97768843 0.59380502 0.97027755
0.78647429 0.60380501 1.0120527
0.86313403 0.6018365 0.99357545
0.93479466 0.599886 0.97519231
1.0125302 0.60285878 0.95978546
0.8111701 0.60400474 0.9955883
0.87557602 0.59429771 0.96519661
0.94518477 0.59340841 0.94386995
1.0178009 0.59450811 0.92252308
0.83690715 0.60516447 0.98112249
0.91047388 0.60329723 0.95770341
0.97900403 0.601484 0.93237901
1.0475234 0.60168856 0.90609086
0.85958076 0.60438961 0.96367806
0.91883379 0.59384543 0.92536491
0.99041665 0.59598464 0.9020555
1.0477685 0.59137428 0.86788678
0.88223559 0.60363287 0.94523394
0.9506495 0.60092837 0.91389352
1.0181316 0.60117269 0.88562489
1.0845803 0.60245669 0.85539377
0.90691274 0.6038506 0.92776996
0.96514034 0.59634572 0.88753039
1.0295441 0.59567338 0.85530144
1.0878928 0.59507674 0.82018632
0.91937339 0.59629369 0.90039068
0.99285132 0.60053402 0.87108177
1.055222 0.60090482 0.83690912
1.1176004 0.6032753 0.80277252
0.95118517 0.60237688 0.88890117
1.0083686 0.59792924 0.84573549
1.0687021 0.59834343 0.80960119
1.1188946 0.59592068 0.76660305
0.95956779 0.59390688 0.85758042
1.0309939 0.59920841 0.82532817
1.0963796 0.60356772 0.79117119
1.1506284 0.60609359 0.75018734
0.99544674 0.60292077 0.84906888
1.0475336 0.5975818 0.80098081
1.0977074 0.59517711 0.75698298
1.1478742 0.59578997 0.71203959
1.0078965 0.59738165 0.82072598
1.0701441 0.59987879 0.77959168
1.1324859 0.60730278 0.74254626
1.1826379 0.60893351 0.69662124
1.0427158 0.60545367 0.80921614
1.0856652 0.59827393 0.75426358
1.1347948 0.5989266 0.70733958
1.1738582 0.59666991 0.65755051
1.0511022 0.59798348 0.77791345
1.1143504 0.60549426 0.73585087
1.1563946 0.6032449 0.68500572
1.2025139 0.60592604 0.63717455
1.0838616 0.60511708 0.76342416
1.1227634 0.60000569 0.70558375
1.1607709 0.59780681 0.65281451
1.1988277 0.5985713 0.60209858
1.0912521 0.59865034 0.73215824
1.1463816 0.60429877 0.68421203
1.1874192 0.60507053 0.63244009
1.2254649 0.6078527 0.5807606
1.1229515 0.60484201 0.71467078
1.156821 0.60078448 0.65494311
1.1897957 0.59963965 0.60028648
1.2197791 0.60050517 0.54572225
1.1303649 0.59935701 0.68442255
1.1794019 0.60511732 0.63159078
1.2113622 0.604994 0.57597125
1.2433529 0.60785198 0.52140552
1.1630532 0.60756278 0.66595268
1.1868191 0.60063213 0.6013605
1.2137389 0.59956306 0.54381764
1.2386895 0.60148257 0.48736608
1.1633734 0.59717613 0.63174731
1.209404 0.60596484 0.57802618
1.2363276 0.60589558 0.52050138
1.2602637 0.60883653 0.46308693
1.2021137 0.60932356 0.61523604
1.2168249 0.6024794 0.54781401
1.232664 0.59952253 0.48644313
1.2536194 0.60245627 0.43008476
1.201438 0.59994024 0.58106744
1.2393911 0.60783017 0.52348
1.2552341 0.60587311 0.46212721
1.2741563 0.60984993 0.4038251
1.2350925 0.60917848 0.56059754
1.2427716 0.60339546 0.49132562
1.252593 0.60047823 0.42906782
1.2665123 0.60347325 0.37084165
1.2344019 0.60081315 0.52544713
1.2663413 0.60974246 0.46699089
1.2741711 0.60883206 0.40480673
1.2830498 0.61088133 0.34465718
1.2680418 0.61106932 0.5039956
1.2657 0.60434043 0.43389395
1.2745562 0.60540795 0.37272671
1.273421 0.60349381 0.312693
1.270396 0.60465664 0.47082427
1.2912546 0.61169821 0.40854001
1.2910633 0.60983467 0.34548852
1.2929472 0.6129089 0.28548849
1.2989726 0.61298537 0.44643161
1.2865874 0.60432893 0.37448254
1.2894672 0.60639971 0.3144457
1.1999251 0.56406164 0.24133158
1.2942789 0.60363448 0.41133845
1.3141534 0.61467898 0.34914505
1.3079631 0.61283702 0.28620631
1.1361102 0.53096282 0.20491529
1.3238219 0.61299568 0.38494572
1.3044792 0.60532802 0.31514552
1.1305106 0.52256966 0.22787607
-0.02611593 -0.059798401 0.050936799
1.3171325 0.60465181 0.34990817
1.3098938 0.6048674 0.28402525
1.11092 0.51016468 0.19900869
0.71860057 0.31917107 0.11587089
1.327546 0.6041733 0.31869394
1.126408 0.51064032 0.22473603
0.94675869 0.42759606 0.15457359
0.72230422 0.32044601 0.099819168
1.28468 0.57807028 0.27801055
1.0143915 0.45282659 0.18277326
0.71953934 0.31320471 0.11374468
0.73000407 0.32572392 0.0827647
1.1263233 0.49867854 0.22252049
0.89748442 0.39392239 0.1468844
0.72322428 0.31449768 0.096693285
0.73070437 0.32600978 0.066751331
-0.02611593 -0.059798401 0.050936799
0.71544468 0.30327505 0.11064067
0.73093504 0.3177579 0.080602445
0.73038608 0.32631728 0.049757097
0.76587284 0.31873107 0.12998265
0.72213691 0.30655694 0.093568951
0.73059803 0.31808352 0.06260854
0.72909063 0.32761014 0.033799328
0.71134609 0.29234552 0.10751864
0.72481811 0.30685365 0.076518342
0.73027974 0.31839103 0.045614306
0.73380196 0.33088112 0.01776485
0.72103375 0.29461682 0.090372533
0.72447717 0.30617937 0.058506418
0.73699075 0.32165483 0.029542245
0.73849845 0.33517003 0.00074873492
0.72670346 0.29692057 0.072301924
0.72617716 0.30646166 0.042474262
0.73166549 0.31998059 0.012605926
0.73918384 0.33647376 -0.016246274
0.72635859 0.29524648 0.054271992
0.73185092 0.30976522 0.024421673
0.73635817 0.32326964 -0.0044282116
0.74286187 0.34078434 -0.034243263
0.72903979 0.29554322 0.037221383
0.7315287 0.30907291 0.0074094199
0.73802459 0.32458791 -0.022441674
0.7415477 0.34209523 -0.051200695
0.7317062 0.29685789 0.019189129
0.74419802 0.31636876 -0.011702292
0.74270236 0.32889488 -0.04045745
0.74524045 0.34538788 -0.068216041
0.72936171 0.29519102 0.0011967756
0.74285728 0.31569815 -0.029695414
0.74337304 0.33121657 -0.058434103
0.74591506 0.3487094 -0.086174667
0.72902471 0.29551661 -0.016797122
0.74452782 0.3180162 -0.047690865
0.74804693 0.33452371 -0.076467894
0.75458515 0.35601959 -0.10521122
0.73267215 0.29684576 -0.035847828
0.74717933 0.3203488 -0.06670475
0.75170612 0.33885238 -0.095464557
0.75626349 0.36033735 -0.12317062
0.73133534 0.29717499 -0.053822942
0.75183445 0.32367405 -0.085738212
0.7533806 0.3421703 -0.11344197
0.75691944 0.36367694 -0.14212893
0.74895161 0.30550697 -0.076009572
0.75048292 0.32502112 -0.10469497
0.75303274 0.34451365 -0.1323995
0.76158243 0.36900184 -0.16112633
0.74461138 0.30484712 -0.093946315
0.74215424 0.32235789 -0.12159294
0.75967664 0.34984946 -0.15243416
0.76823407 0.37633732 -0.18112497
0.74824798 0.30819401 -0.11396065
0.76276702 0.33469653 -0.14476351
0.72942507 0.33715829 -0.16310096
0.73800135 0.36362806 -0.1907921
0.75286567 0.31155542 -0.13499343
0.63879734 0.27491656 -0.130519
-0.02611593 -0.059798401 0.050936799
-0.02611593 -0.059798401 0.050936799
0.65580028 0.26682076 -0.12898326
0.58865613 0.25115439 -0.13301092
0.56345171 0.2554605 -0.144465
0.20680177 0.071840897 -0.034071628
0.60464048 0.24308021 -0.13245603
0.59834474 0.25844291 -0.15106657
0.21278889 0.06881988 -0.034238428
-0.02611593 -0.059798401 0.050936799
0.6073373 0.24737629 -0.1494346
0.22076087 0.066809595 -0.035424456
0.19576061 0.060882255 -0.034063138
0.17378244 0.055925883 -0.03174052
0.21580133 0.057756722 -0.031494025
-0.02611593 -0.059798401 0.050936799
-0.02611593 -0.059798401 0.050936799
-0.02611593 -0.059798401 0.050936799
0.19875821 0.050837006 -0.032300375
0.18572314 0.050919842 -0.034055416
0.17468771 0.050995499 -0.035848055
0.15471311 0.047031786 -0.033544984
-0.02611593 -0.059798401 0.050936799
-0.02611593 -0.059798401 0.050936799
-0.02611593 -0.059798401 0.050936799
-0.02611593 -0.059798401 0.050936799
0.16572407 0.03593991 -0.030950904
0.16266544 0.040022351 -0.034821104
0.15065283 0.04108334 -0.035577267
0.13766609 0.03911224 -0.034369361
-0.02611593 -0.059798401 0.050936799
-0.02611593 -0.059798401 0.050936799
-0.02611593 -0.059798401 0.050936799
-0.02611593 -0.059798401 0.050936799
0.14565887 0.028049219 -0.032718565
0.14260022 0.032131664 -0.036588766
0.13162094 0.032153055 -0.035382412
0.1206565 0.031156532 -0.0331944
-0.02611593 -0.059798401 0.050936799
-0.02611593 -0.059798401 0.050936799
-0.02611593 -0.059798401 0.050936799
-0.02611593 -0.059798401 0.050936799
0.12564589 0.019104447 -0.031505257
0.12657566 0.025190281 -0.036414247
0.11659621 0.025208082 -0.035226684
0.10465065 0.024197051 -0.03202023
-0.02611593 -0.059798401 0.050936799
-0.02611593 -0.059798401 0.050936799
-0.02611593 -0.059798401 0.050936799
-0.02611593 -0.059798401 0.050936799
0.10565165 0.010141572 -0.029292293
0.10955128 0.018252486 -0.036220938
0.098605536 0.017237857 -0.033033267
0.091648184 0.018226642 -0.030884396
-0.02611593 -0.059798401 0.050936799
-0.02611593 -0.059798401 0.050936799
-0.02611593 -0.059798401 0.050936799
-0.02611593 -0.059798401 0.050936799
0.092615664 0.0052071717 -0.03013777
0.092579134 0.010260585 -0.033046655
0.088572919 0.013292521 -0.033917103
0.082619317 0.015277538 -0.031769004
-0.02611593 -0.059798401 0.050936799
-0.02611593 -0.059798401 0.050936799
-0.02611593 -0.059798401 0.050936799
-0.02611593 -0.059798401 0.050936799
0.080616951 0.00023299991 -0.029002715
0.085516393 0.0083403205 -0.035950147
0.076574206 0.0083183534 -0.032782041
0.073586538 0.011328605 -0.032671615
-0.02611593 -0.059798401 0.050936799
-0.02611593 -0.059798401 0.050936799
-0.02611593 -0.059798401 0.050936799
-0.02611593 -0.059798401 0.050936799
0.069603249 -0.0037268447 -0.028868094
0.073521599 0.0043659755 -0.03479708
0.070529997 0.0063763964 -0.03470467
0.06656123 0.0093721626 -0.033575788
-0.02611593 -0.059798401 0.050936799
-0.02611593 -0.059798401 0.050936799
-0.02611593 -0.059798401 0.050936799
-0.02611593 -0.059798401 0.050936799
0.062559232 -0.0056652017 -0.030771915
0.064507529 0.00039895694 -0.034700036
0.062523618 0.0044054538 -0.034590382
0.056580879 0.0043727201 -0.031478655
-0.02611593 -0.059798401 0.050936799
-0.02611593 -0.059798401 0.050936799
-0.02611593 -0.059798401 0.050936799
-0.02611593 -0.059798401 0.050936799
0.052586719 -0.0086649787 -0.028638747
0.057482239 -0.0015574929 -0.035604198
0.055494387 0.0014491732 -0.035512563
0.050555401 0.0024126812 -0.032401599
-0.02611593 -0.059798401 0.050936799
-0.02611593 -0.059798401 0.050936799
-0.02611593 -0.059798401 0.050936799
-0.02611593 -0.059798401 0.050936799
0.04359138 -0.01265009 -0.027542043
0.049475849 -0.0035284432 -0.035489913
0.048487809 -0.00052536582 -0.035417069
0.042582527 -0.00059427763 -0.030306011
-0.02611593 -0.059798401 0.050936799
-0.02611593 -0.059798401 0.050936799
-0.02611593 -0.059798401 0.050936799
-0.02611593 -0.059798401 0.050936799
0.039554663 -0.012599557 -0.029466201
0.042465348 -0.006502809 -0.035412431
0.042462338 -0.0024853973 -0.036340017
0.039526906 -0.00052924361 -0.033248626
-0.02611593 -0.059798401 0.050936799
-0.02611593 -0.059798401 0.050936799
-0.02611593 -0.059798401 0.050936799
-0.02611593 -0.059798401 0.050936799
0.032548092 -0.014574096 -0.029370707
0.038409911 -0.0064341854 -0.038336255
0.035474487 -0.0044780253 -0.035244863
0.031587552 -0.0045722038 -0.029171731
-0.02611593 -0.059798401 0.050936799
-0.02611593 -0.059798401 0.050936799
-0.02611593 -0.059798401 0.050936799
-0.02611593 -0.059798401 0.050936799
0.025593759 -0.017602729 -0.026294243
0.031422064 -0.0084268106 -0.037241094
0.03143777 -0.0044274912 -0.037169021
0.027546909 -0.0055215005 -0.031113915
-0.02611593 -0.059798401 0.050936799
-0.02611593 -0.059798401 0.050936799
-0.02611593 -0.059798401 0.050936799
-0.02611593 -0.059798401 0.050936799
0.021538321 -0.017534105 -0.029218063
0.026419051 -0.0094087003 -0.037165161
0.024464715 -0.0074380394 -0.03509222
0.023510197 -0.0054709669 -0.033038069
-0.02611593 -0.059798401 0.050936799
-0.02611593 -0.059798401 0.050936799
-0.02611593 -0.059798401 0.050936799
-0.02611593 -0.059798401 0.050936799
0.016516589 -0.018497903 -0.030141789
0.018464895 -0.012433744 -0.034069911
0.018491473 -0.010452172 -0.033034209
0.019488277 -0.0064383531 -0.033980589
-0.02611593 -0.059798401 0.050936799
-0.02611593 -0.059798401 0.050936799
-0.02611593 -0.059798401 0.050936799
-0.02611593 -0.059798401 0.050936799
-0.02611593 -0.059798401 0.050936799
0.014428183 -0.01238321 -0.035994068
0.015421063 -0.0093692215 -0.036958463
0.014485266 -0.007420239 -0.033904657
-0.02611593 -0.059798401 0.050936799
-0.02611593 -0.059798401 0.050936799
-0.02611593 -0.059798401 0.050936799
-0.02611593 -0.059798401 0.050936799
-0.02611593 -0.059798401 0.050936799
0.010424984 -0.013368682 -0.035936926
0.01140307 -0.009336777 -0.037882969
0.0094822552 -0.0084021213 -0.033828724
-0.02611593 -0.059798401 0.050936799
-0.02611593 -0.059798401 0.050936799
-0.02611593 -0.059798401 0.050936799
-0.02611593 -0.059798401 0.050936799
-0.02611593 -0.059798401 0.050936799
0.0054219747 -0.014350572 -0.035860993
0.0064148549 -0.011336579 -0.036825385
0.0045127594 -0.010420016 -0.031771477
-0.02611593 -0.059798401 0.050936799
-0.02611593 -0.059798401 0.050936799
-0.02611593 -0.059798401 0.050936799
-0.02611593 -0.059798401 0.050936799
-0.02611593 -0.059798401 0.050936799
0.001385261 -0.014300038 -0.037785154
0.0014157668 -0.011318634 -0.036731429
0.0015133065 -0.010409249 -0.031715102
-0.02611593 -0.059798401 0.050936799
-0.02611593 -0.059798401 0.050936799
-0.02611593 -0.059798401 0.050936799
-0.02611593 -0.059798401 0.050936799
-0.02611593 -0.059798401 0.050936799
-0.02611593 -0.059798401 0.050936799
-0.002572634 -0.013322026 -0.035692647
-0.0025234055 -0.010358715 -0.033639275
-0.02611593 -0.059798401 0.050936799
-0.02611593 -0.059798401 0.050936799
-0.02611593 -0.059798401 0.050936799
-0.02611593 -0.059798401 0.050936799
-0.02611593 -0.059798401 0.050936799
-0.02611593 -0.059798401 0.050936799
-0.02611593 -0.059798401 0.050936799
-0.0055415793 -0.010329859 -0.034582563
-0.02611593 -0.059798401 0.050936799
-0.02611593 -0.059798401 0.050936799
-0.02611593 -0.059798401 0.050936799
-0.02611593 -0.059798401 0.050936799
-0.02611593 -0.059798401 0.050936799
-0.02611593 -0.059798401 0.050936799
-0.011570987 -0.013289725 -0.035523534
-0.02611593 -0.059798401 0.050936799
-0.02611593 -0.059798401 0.050936799
-0.02611593 -0.059798401 0.050936799
-0.02611593 -0.059798401 0.050936799
-0.02611593 -0.059798401 0.050936799
-0.02611593 -0.059798401 0.050936799
-0.02611593 -0.059798401 0.050936799
-0.014622678 -0.012224864 -0.038448129
-0.02611593 -0.059798401 0.050936799
-0.02611593 -0.059798401 0.050936799
-0.02611593 -0.059798401 0.050936799
-0.02611593 -0.059798401 0.050936799
-0.02611593 -0.059798401 0.050936799
-0.02611593 -0.059798401 0.050936799
-0.020637289 -0.016202649 -0.038407456
-0.02611593 -0.059798401 0.050936799
-0.02611593 -0.059798401 0.050936799
-0.02611593 -0.059798401 0.050936799
-0.02611593 -0.059798401 0.050936799
-0.02611593 -0.059798401 0.050936799
-0.02611593 -0.059798401 0.050936799
-0.02611593 -0.059798401 0.050936799
-0.02611593 -0.059798401 0.050936799
-0.02611593 -0.059798401 0.050936799
-0.02611593 -0.059798401 0.050936799
-0.02611593 -0.059798401 0.050936799
-0.02611593 -0.059798401 0.050936799
-0.02611593 -0.059798401 0.050936799
-0.02611593 -0.059798401 0.050936799
-0.02611593 -0.059798401 0.050936799
-0.02611593 -0.059798401 0.050936799
-0.02611593 -0.059798401 0.050936799
-0.02611593 -0.059798401 0.050936799
-0.02611593 -0.059798401 0.050936799
-0.02611593 -0.059798401 0.050936799
-0.02611593 -0.059798401 0.050936799
-0.02611593 -0.059798401 0.050936799
-0.02611593 -0.059798401 0.050936799
-0.031635277 -0.016163172 -0.038200762
-0.02611593 -0.059798401 0.050936799
-0.02611593 -0.059798401 0.050936799
-0.02611593 -0.059798401 0.050936799
-0.02611593 -0.059798401 0.050936799
-0.02611593 -0.059798401 0.050936799
-0.02611593 -0.059798401 0.050936799
-0.02611593 -0.059798401 0.050936799
-0.035634544 -0.016148817 -0.038125601
-0.02611593 -0.059798401 0.050936799
-0.031582125 -0.012200031 -0.036129363
-0.02611593 -0.059798401 0.050936799
-0.02611593 -0.059798401 0.050936799
-0.02611593 -0.059798401 0.050936799
-0.02611593 -0.059798401 0.050936799
-0.02611593 -0.059798401 0.050936799
-0.02611593 -0.059798401 0.050936799
-0.037622396 -0.013142146 -0.038033966
-0.02611593 -0.059798401 0.050936799
-0.02611593 -0.059798401 0.050936799
-0.02611593 -0.059798401 0.050936799
-0.02611593 -0.059798401 0.050936799
-0.02611593 -0.059798401 0.050936799
-0.02611593 -0.059798401 0.050936799
-0.043595634 -0.016156282 -0.035975948
-0.041621666 -0.013127791 -0.037958801
-0.02611593 -0.059798401 0.050936799
-0.02611593 -0.059798401 0.050936799
-0.02611593 -0.059798401 0.050936799
-0.02611593 -0.059798401 0.050936799
-0.02611593 -0.059798401 0.050936799
-0.02611593 -0.059798401 0.050936799
-0.048609518 -0.01512042 -0.036863647
-0.045568693 -0.014167537 -0.034902673
-0.02611593 -0.059798401 0.050936799
-0.02611593 -0.059798401 0.050936799
-0.02611593 -0.059798401 0.050936799
-0.02611593 -0.059798401 0.050936799
-0.02611593 -0.059798401 0.050936799
-0.02611593 -0.059798401 0.050936799
-0.052608784 -0.015106062 -0.036788486
-0.050616089 -0.012095664 -0.037771668
-0.02611593 -0.059798401 0.050936799
-0.02611593 -0.059798401 0.050936799
-0.02611593 -0.059798401 0.050936799
-0.02611593 -0.059798401 0.050936799
-0.02611593 -0.059798401 0.050936799
-0.02611593 -0.059798401 0.050936799
-0.056589328 -0.015109796 -0.035713658
-0.05461143 -0.011081478 -0.037678488
-0.02611593 -0.059798401 0.050936799
-0.02611593 -0.059798401 0.050936799
-0.02611593 -0.059798401 0.050936799
-0.02611593 -0.059798401 0.050936799
-0.02611593 -0.059798401 0.050936799
-0.02611593 -0.059798401 0.050936799
-0.060551155 -0.015131619 -0.033639174
-0.058591977 -0.01108521 -0.036603667
-0.054555263 -0.011135745 -0.034679502
-0.02611593 -0.059798401 0.050936799
-0.02611593 -0.059798401 0.050936799
-0.02611593 -0.059798401 0.050936799
-0.02611593 -0.059798401 0.050936799
-0.06750156 -0.017160427 -0.030544683
-0.064531706 -0.015135352 -0.032564353
-0.062572524 -0.011088944 -0.035528835
-0.058517087 -0.011157567 -0.032605022
-0.02611593 -0.059798401 0.050936799
-0.02611593 -0.059798401 0.050936799
-0.02611593 -0.059798401 0.050936799
-0.02611593 -0.059798401 0.050936799
-0.071496904 -0.016146239 -0.030451503
-0.070556261 -0.012078153 -0.034396872
-0.067571603 -0.011070999 -0.035434883
-0.063530967 -0.010121703 -0.03349271
-0.02611593 -0.059798401 0.050936799
-0.02611593 -0.059798401 0.050936799
-0.02611593 -0.059798401 0.050936799
-0.02611593 -0.059798401 0.050936799
-0.076473333 -0.015146554 -0.029339883
-0.075551413 -0.011060378 -0.034284901
-0.072581559 -0.0090353079 -0.036304563
-0.065459631 -0.011186711 -0.029474501
-0.02611593 -0.059798401 0.050936799
-0.02611593 -0.059798401 0.050936799
-0.02611593 -0.059798401 0.050936799
-0.02611593 -0.059798401 0.050936799
-0.079416618 -0.015190053 -0.026284523
-0.079513252 -0.011082199 -0.032210417
-0.075495251 -0.011114645 -0.031285916
-0.071492061 -0.01012917 -0.031343061
-0.02611593 -0.059798401 0.050936799
-0.02611593 -0.059798401 0.050936799
-0.02611593 -0.059798401 0.050936799
-0.02611593 -0.059798401 0.050936799
-0.086426206 -0.01314718 -0.027116612
-0.08550822 -0.010060836 -0.032079659
-0.083571695 -0.0069961688 -0.036061827
-0.075487398 -0.0091149872 -0.031249881
-0.02611593 -0.059798401 0.050936799
-0.02611593 -0.059798401 0.050936799
-0.02611593 -0.059798401 0.050936799
-0.02611593 -0.059798401 0.050936799
-0.093450584 -0.010086392 -0.028930351
-0.094565749 -0.0059568603 -0.035837114
-0.087514788 -0.0070360806 -0.03298768
-0.080463834 -0.0081152972 -0.030138239
-0.02611593 -0.059798401 0.050936799
-0.02611593 -0.059798401 0.050936799
-0.02611593 -0.059798401 0.050936799
-0.02611593 -0.059798401 0.050936799
-0.098412223 -0.010104625 -0.026837073
-0.09850885 -0.0059967716 -0.032762967
-0.095557712 -0.0039536101 -0.035782289
-0.086473607 -0.0060760169 -0.030989125
-0.02611593 -0.059798401 0.050936799
-0.02611593 -0.059798401 0.050936799
-0.02611593 -0.059798401 0.050936799
-0.02611593 -0.059798401 0.050936799
-0.1023514 -0.0091447094 -0.023744904
-0.1055145 -0.0029540719 -0.033577036
-0.099500805 -0.0039935214 -0.032708142
-0.090439357 -0.0070976699 -0.028932665
-0.02611593 -0.059798401 0.050936799
-0.02611593 -0.059798401 0.050936799
-0.02611593 -0.059798401 0.050936799
-0.02611593 -0.059798401 0.050936799
-0.11239003 -0.0050552306 -0.026483912
-0.11248665 -0.00094737741 -0.032409806
-0.10445853 -0.0030119279 -0.030596841
-0.096430399 -0.0050764754 -0.028783888
-0.02611593 -0.059798401 0.050936799
-0.02611593 -0.059798401 0.050936799
-0.02611593 -0.059798401 0.050936799
-0.02611593 -0.059798401 0.050936799
-0.12037678 -0.0020270275 -0.026279531
-0.11947751 0.0010774063 -0.032242239
-0.112464 3.4360448e-05 -0.031392131
-0.10240665 -0.0040732003 -0.027653456
-0.02611593 -0.059798401 0.050936799
-0.02611593 -0.059798401 0.050936799
-0.02611593 -0.059798401 0.050936799
-0.02611593 -0.059798401 0.050936799
-0.13037796 0.002026266 -0.02701921
-0.12743075 0.0030695971 -0.030056547
-0.12045076 0.0030625639 -0.03118775
-0.11041213 -0.0010269115 -0.028448742
-0.02611593 -0.059798401 0.050936799
-0.02611593 -0.059798401 0.050936799
-0.02611593 -0.059798401 0.050936799
-0.02611593 -0.059798401 0.050936799
-0.1413563 0.0070648901 -0.026722424
-0.13844654 0.0081444066 -0.031759087
-0.12842271 0.0050728475 -0.030001722
-0.11738428 0.00097978313 -0.027281508
-0.02611593 -0.059798401 0.050936799
-0.02611593 -0.059798401 0.050936799
-0.02611593 -0.059798401 0.050936799
-0.02611593 -0.059798401 0.050936799
-0.15132397 0.010082189 -0.025480803
-0.14941011 0.012165111 -0.030480657
-0.13840909 0.0081082284 -0.029759761
-0.12840399 0.0050547584 -0.029002056
-0.02611593 -0.059798401 0.050936799
-0.02611593 -0.059798401 0.050936799
-0.02611593 -0.059798401 0.050936799
-0.02611593 -0.059798401 0.050936799
-0.16531657 0.016149499 -0.026109282
-0.16039239 0.016203912 -0.03020189
-0.14939138 0.012147021 -0.02948099
-0.13637593 0.0070650345 -0.027816042
-0.02611593 -0.059798401 0.050936799
-0.02611593 -0.059798401 0.050936799
-0.02611593 -0.059798401 0.050936799
-0.02611593 -0.059798401 0.050936799
-0.18027152 0.022184221 -0.024719656
-0.17839511 0.024303326 -0.031718828
-0.16338399 0.018214334 -0.030109476
-0.14733951 0.011085746 -0.026537605
-0.02611593 -0.059798401 0.050936799
-0.02611593 -0.059798401 0.050936799
-0.02611593 -0.059798401 0.050936799
-0.02611593 -0.059798401 0.050936799
-0.20328423 0.032319341 -0.027106266
-0.19133565 0.029312953 -0.029385138
-0.17634323 0.023242053 -0.028775442
-0.15427813 0.012056432 -0.023389075
-0.02611593 -0.059798401 0.050936799
-0.02611593 -0.059798401 0.050936799
-0.02611593 -0.059798401 0.050936799
-0.02611593 -0.059798401 0.050936799
-0.22623681 0.043400016 -0.026475877
-0.21431482 0.038412061 -0.02979045
-0.19331655 0.02930204 -0.028347891
-0.17431401 0.021199042 -0.026849743
-0.02611593 -0.059798401 0.050936799
-0.02611593 -0.059798401 0.050936799
-0.02611593 -0.059798401 0.050936799
-0.02611593 -0.059798401 0.050936799
-0.25117031 0.054469779 -0.024808258
-0.23424229 0.046446301 -0.027271166
-0.21427737 0.038375884 -0.027791124
-0.19631208 0.030312637 -0.028273504
-0.02611593 -0.059798401 0.050936799
-0.02611593 -0.059798401 0.050936799
-0.02611593 -0.059798401 0.050936799
-0.02611593 -0.059798401 0.050936799
-0.93958199 0.39660102 -0.2117939
-0.26619622 0.061576687 -0.027399261
-0.24024813 0.049485415 -0.028104033
-0.21727681 0.03838665 -0.027734753
-0.95523721 0.40234986 -0.19439092
-0.02611593 -0.059798401 0.050936799
-0.02611593 -0.059798401 0.050936799
-0.02611593 -0.059798401 0.050936799
-0.96185762 0.40301308 -0.17424814
-0.95147824 0.39855325 -0.20653409
-0.26313367 0.058494065 -0.023511034
-0.23820411 0.046424478 -0.025196686
-0.97949362 0.40875104 -0.15580791
-0.96009827 0.39922366 -0.18635374
-0.02611593 -0.059798401 0.050936799
-0.02611593 -0.059798401 0.050936799
-0.98810577 0.411421 -0.13559152
-0.9747389 0.40395099 -0.16798788
-0.95933884 0.39543775 -0.19844055
-0.25508776 0.051394187 -0.019788843
-1.006719 0.41814432 -0.11611481
-0.98032981 0.40257478 -0.14590062
-0.96696293 0.39510471 -0.17829698
-0.02611593 -0.059798401 0.050936799
-1.0133168 0.41978922 -0.094954342
-0.99495167 0.40728402 -0.12653509
-0.98059285 0.39781073 -0.1589863
-0.96723384 0.38834104 -0.19141871
-1.0249245 0.42346984 -0.074663565
-1.0115694 0.41300032 -0.10711399
-0.9942041 0.40049872 -0.13867596
-0.98286337 0.39105424 -0.17207044
-1.0365095 0.42813221 -0.053355113
-1.0261763 0.41669172 -0.086766839
-1.0068005 0.40216517 -0.11740275
-0.99045396 0.38968521 -0.14994559
-1.0470985 0.43179113 -0.032083459
-1.0397609 0.42136124 -0.065420792
-1.0234034 0.40686351 -0.097000003
-1.0030506 0.39135164 -0.12867241
-1.061679 0.43746409 -0.010700598
-1.0513313 0.42500567 -0.043130688
-1.0330007 0.40851924 -0.075783171
-1.0266629 0.39809293 -0.10910174
-1.0862154 0.44915381 0.011977918
-1.0539228 0.42361864 -0.021099798
-1.049566 0.41318142 -0.053381108
-1.0412552 0.40076634 -0.087772921
-1.0977817 0.45379809 0.034286052
-1.0814773 0.43533722 0.00063544512
-1.0701413 0.41987571 -0.031867497
-1.0458276 0.39936841 -0.064704806
-1.1222994 0.46546975 0.057964239
-1.086023 0.43592083 0.024739288
-1.0777016 0.42148805 -0.0086889267
-1.063378 0.40301627 -0.041302286
-0.02611593 -0.059798401 0.050936799
-1.0935792 0.43853298 0.047935866
-1.0882423 0.42309305 0.015545666
-1.0789288 0.40665698 -0.01793737
-1.1683017 0.48776621 0.10724555
-1.118086 0.4481869 0.072577678
-1.1077805 0.42974761 0.039039813
-1.0884736 0.4072586 0.0062604323
-0.02611593 -0.059798401 0.050936799
-1.1336062 0.45480898 0.09699633
-1.1123077 0.43031311 0.064143315
-1.1069973 0.4128916 0.030717421
-1.1892811 0.49790266 0.15983953
-1.1630777 0.46846199 0.12280383
-1.1158537 0.43089315 0.08822836
-1.1294936 0.42052057 0.056285277
-1.1987648 0.50446701 0.18614474
-1.1934929 0.4820644 0.15162909
-1.1433185 0.44152147 0.11494389
-1.1360242 0.42009345 0.081408344
-1.2381172 0.52406454 0.21724658
-1.2099527 0.48963565 0.17908353
-1.1637926 0.45012507 0.14149185
-0.02611593 -0.059798401 0.050936799
-1.2555318 0.53360283 0.24675515
-1.2403265 0.50420165 0.20992616
-1.1862288 0.45869952 0.1700767
-1.1669642 0.4302296 0.13618955
-1.2759004 0.54511535 0.27835548
-1.2477664 0.50770509 0.23913874
-1.2335384 0.47928938 0.20334619
-1.1963725 0.44081083 0.16594163
-1.3121744 0.56562954 0.31341758
-1.2721303 0.52023184 0.27083224
-1.2130905 0.46974882 0.2287994
-1.2227477 0.45034531 0.19761866
-1.4587522 0.63908088 0.37651199
-1.2904924 0.5287196 0.30334055
-1.2812487 0.499304 0.26862362
-1.2023001 0.44080475 0.22307187
-1.3637325 0.59554821 0.38494834
-1.3157961 0.54219556 0.33806986
-1.2657695 0.49276271 0.29522449
-0.02611593 -0.059798401 0.050936799
-1.4614844 0.64590001 0.44270891
-1.3539801 0.56162661 0.37814987
-1.3179314 0.51724321 0.33565766
-1.2589446 0.46279702 0.29155344
-1.4539013 0.64631397 0.47358489
-1.5033927 0.63392609 0.4502795
-1.3213236 0.51867837 0.36775801
-1.2822418 0.47324812 0.32719076
-1.4413496 0.64372849 0.50331318
-1.5205973 0.64426529 0.49080241
-1.3694005 0.54105437 0.41307825
-1.3174461 0.48766932 0.36712426
-1.4327707 0.64313906 0.53415239
-1.5119622 0.6436215 0.52464056
-1.5942093 0.64416909 0.51218611
-1.3615581 0.50604969 0.41129762
-1.4212149 0.6415571 0.56391752
-1.5053228 0.64398485 0.55853426
-1.5934713 0.64546329 0.55120897
-1.6657931 0.63701266 0.53640515
-1.4037055 0.63799012 0.5915345
-1.4927151 0.6413452 0.59126163
-1.5847614 0.6447472 0.5890457
-1.6798977 0.64423305 0.58281553
-1.3971186 0.6394074 0.62244725
-1.483099 0.64071596 0.62408125
-1.5750929 0.6430639 0.6248464
-1.6711206 0.64144486 0.62461489
-1.3865587 0.63882887 0.65224922
-1.4714869 0.63907963 0.65684539
-1.566383 0.64234775 0.66268319
-1.6673269 0.64267409 0.66658044
-1.3729993 0.63823956 0.68199474
-1.4598711 0.63844323 0.68962747
-1.5537189 0.63965386 0.69840944
-1.6565651 0.64089668 0.70736051
-1.3594589 0.63766831 0.71074063
-1.4482366 0.63778877 0.7234093
-1.5469819 0.64092654 0.73731953
-1.6477841 0.63910842 0.74917793
-1.3498762 0.63807511 0.74157906
-1.4336439 0.63615984 0.75511742
-1.5333142 0.63922876 0.77304506
-1.6409535 0.64029068 0.79308629
-1.3343546 0.63751477 0.76928771
-1.4230052 0.63650876 0.7889359
-1.516651 0.63652045 0.80869615
-1.6291919 0.63850963 0.8338477
-1.3218139 0.6369471 0.79805237
-1.4064317 0.63489074 0.81960678
-1.5108912 0.63877851 0.84864277
-1.6134497 0.6367324 0.87353426
-1.3003613 0.63342005 0.8225953
-1.392835 0.63426518 0.85135168
-1.4922471 0.63608116 0.88325661
-1.6016465 0.63591516 0.91631305
-1.283844 0.63185626 0.85026717
-1.3762388 0.63362896 0.88304019
-1.4736217 0.63340181 0.91687071
-1.5839235 0.63414878 0.95496237
-1.2712954 0.63328832 0.87906784
-1.3586652 0.63200736 0.91369218
-1.4549922 0.63172239 0.95050305
-1.5661815 0.63236439 0.99461132
-1.2547741 0.63272434 0.90675765
-1.3391149 0.6293968 0.94328898
-1.4363254 0.63000667 0.98613459
-1.5503979 0.63155085 1.0363152
-1.2333215 0.6291973 0.93130058
-1.3215377 0.62877506 0.97395897
-1.4206504 0.63030154 1.0218586
-1.5306566 0.62975931 1.0759267
-1.2168151 0.62965131 0.95800877
-1.3019835 0.62716442 1.0035739
-1.3980483 0.62662613 1.0543798
-1.5128881 0.62995642 1.1166114
-1.1983129 0.6290983 0.9846614
-1.2824478 0.62557185 1.032189
-1.3823465 0.62890249 1.0911394
-1.4891884 0.62718683 1.1541302
-1.1788521 0.62757808 1.0092779
-1.2609127 0.623972 1.0607665
-1.3587407 0.62622333 1.1236601
-1.468462 0.62640959 1.1927412
-1.1593729 0.62603974 1.034894
-1.2413545 0.62336111 1.0903993
-1.3361534 0.62356597 1.1552
-1.4408047 0.62266201 1.2281677
-1.138927 0.62553382 1.0585101
-1.2188195 0.62175775 1.118958
-1.3125397 0.62288648 1.1877565
-1.4190596 0.62186313 1.2677594
-1.1164896 0.62302107 1.0820526
-1.1953222 0.62018698 1.1454986
-1.2879529 0.62022173 1.2192587
-1.3914133 0.62013322 1.3022223
-1.0960253 0.62249708 1.1066682
-1.1738018 0.61960506 1.1730947
-1.2623998 0.61858952 1.2487606
-1.363752 0.61738539 1.3376666
-1.0745797 0.62198752 1.1302655
-1.1502856 0.61801624 1.200635
-1.235832 0.61593586 1.2792256
-1.3370641 0.61662287 1.3741655
-1.0521572 0.62049264 1.1528263
-1.1258072 0.61645997 1.2261571
-1.2161082 0.61917955 1.3169277
-1.3074368 0.61490393 1.4075911
-1.0336469 0.62193942 1.1795149
-1.1032642 0.61685628 1.2547519
-1.1885781 0.61655837 1.3453746
-1.2777907 0.61316687 1.4420164
-1.0102246 0.62044096 1.202057
-1.0787631 0.61628175 1.2812917
-1.1600255 0.61491543 1.3748202
-1.2481408 0.61242968 1.4764595
-0.98584366 0.61797529 1.2225629
-1.0532849 0.61472189 1.3067951
-1.13245 0.61425775 1.4053023
-1.2135783 0.60874736 1.5067561
-0.96045899 0.61650586 1.2430679
-1.0258257 0.61317289 1.3312613
-1.1048894 0.614618 1.4348029
-1.1839243 0.60901004 1.5412173
-0.93896818 0.6179598 1.2687006
-1.0032789 0.61456901 1.3598742
-1.0763141 0.61395675 1.4652662
-1.1493582 0.60632759 1.5715318
-0.90974969 0.61262149 1.2810612
-0.97000504 0.60916203 1.3751585
-1.0458368 0.61237895 1.4906757
-1.1167421 0.6066156 1.6039374
-0.88727784 0.61408997 1.3056753
-0.94450015 0.60958374 1.4016976
-1.0114241 0.60884136 1.512975
-1.0841302 0.6059038 1.6363249
-0.86189318 0.61262047 1.3261805
-0.91409773 0.60807824 1.4231086
-0.9818638 0.60919446 1.5424378
-1.0514767 0.60615569 1.6707298
-0.83650452 0.61215085 1.3467035
-0.88567615 0.6065619 1.4455565
-0.94644743 0.60665315 1.5647364
-1.0120238 0.60356385 1.6949525
-0.81111592 0.61168128 1.3672266
-0.85720927 0.60700899 1.47004
-0.9139666 0.60606796 1.5901263
-0.97640836 0.60384113 1.7273016
-0.78472364 0.61220801 1.387749
-0.82584441 0.60553616 1.4894327
-0.88148564 0.60548282 1.6155162
-0.93599296 0.60128188 1.7495062
-0.75737679 0.61076754 1.4062172
-0.79641914 0.60501605 1.5118799
-0.84414452 0.60300666 1.6337785
-0.89751703 0.59967536 1.7747653
-0.72906756 0.60935974 1.4226673
-0.76507288 0.60356122 1.530273
-0.80780321 0.60053414 1.6520596
-0.85706013 0.5980798 1.7989872
-0.70175815 0.6079554 1.4391361
-0.73178726 0.60115373 1.5456115
-0.7733413 0.59995985 1.6764121
-0.81758052 0.59746945 1.8242456
-0.67338485 0.60849303 1.4586213
-0.7023167 0.60259706 1.5700941
-0.73789448 0.60039991 1.6997645
-0.775199 0.59593904 1.844431
-0.64605278 0.60807055 1.4761078
-0.67282736 0.60402232 1.5955764
-0.70053071 0.59890556 1.7190443
-0.73373842 0.59533972 1.8686523
-0.61674374 0.60665905 1.4925392
-0.63855666 0.60262918 1.6099143
-0.66508383 0.59934562 1.7423966
-0.69039446 0.59384191 1.8868198
-0.58647233 0.60528022 1.5069523
-0.60141456 0.59733444 1.618126
-0.62675774 0.59788382 1.7596585
-0.64611083 0.59139478 1.9019517
-0.55617827 0.60488319 1.5223831
-0.57095891 0.59979206 1.6416081
-0.58652949 0.59550548 1.7718663
-0.60468376 0.59183151 1.9241914
-0.52596682 0.60255873 1.5337793
-0.5356884 0.59839535 1.6559274
-0.5500375 0.59790546 1.7972351
-0.56123835 0.59224284 1.9473932
-0.4947331 0.60121256 1.5461743
-0.50137633 0.59796584 1.6722828
-0.50885087 0.59455985 1.8074069
-0.51596969 0.59081018 1.9615247
-0.46443903 0.60081542 1.5616053
-0.46610188 0.59756881 1.6866201
-0.46953577 0.5951122 1.8236864
-0.47161809 0.59130847 1.9797095
-0.43409967 0.60238183 1.5790715
-0.42986903 0.5962047 1.6989212
-0.4292475 0.59367937 1.8389113
-0.42536831 0.58989024 1.9928224
-0.40186605 0.60103196 1.5914478
-0.39363614 0.59484047 1.7112224
-0.38807562 0.59135157 1.8481014
-0.37911853 0.58847201 2.0059352
-0.36970735 0.59975457 1.5998254
-0.35739934 0.59447604 1.7235415
-0.34677961 0.59191495 1.8633437
-0.33288357 0.58807176 2.0180664
-0.33740968 0.60035008 1.6152368
-0.32124135 0.59318423 1.7318438
-0.30562258 0.59060508 1.8715521
-0.28492677 0.58391827 2.0160928
-0.30427381 0.59808731 1.6225779
-0.28396332 0.59377998 1.7461615
-0.26442409 0.59025896 1.881778
-0.2385716 0.58540916 2.0342579
-0.27203235 0.59873712 1.6349902
-0.24680553 0.59248447 1.7544453
-0.22222584 0.58990926 1.8919852
-0.19147179 0.58413213 2.0393548
-0.23785527 0.5974344 1.64433
-0.20868927 0.59022188 1.7606928
-0.17910656 0.58862847 1.8981568
-0.14327462 0.58376092 2.049449
-0.20371561 0.59616786 1.6516703
-0.17055039 0.58894098 1.767958
-0.13598731 0.58734775 1.9043283
-0.09621226 0.58252001 2.0525465
-0.16957599 0.5949012 1.6590108
-0.13326453 0.59153628 1.7823118
-0.092905492 0.5861032 1.9085007
-0.047108892 0.58223563 2.0576236
-0.13635343 0.59556556 1.6704046
-0.094163254 0.59028798 1.787559
-0.050860938 0.58489829 1.9106923
-8.0045313e-05 0.58203077 2.0587399
-0.10129675 0.59236807 1.6736915
-0.056099258 0.58907944 1.7908255
-0.007719025 0.58459926 1.9178816
0.046843402 0.57891685 2.0548038
-0.066111982 0.59306133 1.6830484
-0.017076798 0.58690363 1.7920558
0.035287902 0.58342707 1.9180552
0.095890611 0.57868677 2.0568819
-0.031047417 0.59186357 1.6863714
0.022047121 0.58663702 1.7983207
0.078475118 0.58509153 1.9272801
0.14384438 0.57855064 2.0539806
0.0039570406 0.58972031 1.6866773
0.061174974 0.58737028 1.8046036
0.12244441 0.58395177 1.9254355
0.19175285 0.57645106 2.0490441
0.039183166 0.5913772 1.6980517
0.10122381 0.58717245 1.8068509
0.16643244 0.58279407 1.9245907
-0.02611593 -0.059798401 0.050936799
0.075206175 0.58921224 1.6993384
0.14118992 0.5850473 1.8050636
-0.02611593 -0.059798401 0.050936799
0.15141511 0.30023035 1.1795081
0.11123703 0.58904684 1.7006613
0.11629883 0.38586506 1.263743
0.14248535 0.32729423 1.1781644
0.335558 0.57609707 2.0373414
0.14734279 0.58880907 1.7059828
0.1419483 0.37908044 1.2461343
-0.02611593 -0.059798401 0.050936799
0.26612386 0.39466676 1.4641651
-0.02611593 -0.059798401 0.050936799
0.26234415 0.58644992 1.8118228
0.18757549 0.31294572 1.1320448
0.43025976 0.57602745 2.0205612
0.2236668 0.59322798 1.721639
0.3011567 0.58347321 1.802039
0.20806824 0.30432412 1.1064966
0.47589862 0.57218868 2.001631
0.25945336 0.58828056 1.710876
0.29016024 0.49297887 1.5535238
0.23190624 0.30238301 1.0980123
0.52380407 0.57410657 1.9957666
0.26737675 0.52798319 1.5585852
