# .PCD v0.7 - Point Cloud Data file format
VERSION 0.7
FIELDS x y z
SIZE 4 4 4
TYPE F F F
COUNT 1 1 1
WIDTH 1382
HEIGHT 1
VIEWPOINT 0 0 0 1 0 0 0
POINTS 1382
DATA ascii
-1.0381222 -0.014035275 -0.21437785
-1.0265974 -0.019643184 -0.2387033
-1.0657898 -0.0061808722 -0.14469415
-1.0602785 -0.010749329 -0.1698885
-1.056767 -0.015310608 -0.19504529
-1.0371914 -0.022001326 -0.2165401
-1.0603039 -0.0066691316 -0.11879691
-1.0708646 -0.01110781 -0.14768925
-1.0573027 -0.016759075 -0.17005299
-1.0548176 -0.023298334 -0.19622669
-1.0668682 -0.0060602268 -0.095655143
-1.0663785 -0.011592481 -0.12177324
-1.0708882 -0.01710679 -0.14779738
-1.0613896 -0.024689091 -0.17312095
-1.0734322 -0.005451323 -0.072513387
-1.0759462 -0.01197264 -0.098593138
-1.0674247 -0.018569609 -0.12288025
-1.0729834 -0.027043644 -0.15093897
-1.0829772 -0.004849744 -0.0483156
-1.0905315 -0.012316765 -0.076318726
-1.0699787 -0.019992812 -0.098850027
-1.0695198 -0.028506467 -0.12602182
-1.0995395 -0.0042049456 -0.024985947
-1.0930629 -0.012758225 -0.051270828
-1.0925813 -0.020290136 -0.077424958
-1.0780766 -0.030907968 -0.10189687
-1.121097 -0.0025423805 -0.0015443042
-1.1146431 -0.012077398 -0.028846882
-1.0981349 -0.021702571 -0.053338364
-1.1036826 -0.032194354 -0.080433458
-1.1366408 -0.0019192647 0.022766225
-1.1341861 -0.011439926 -0.0044611767
-1.1036882 -0.023115005 -0.029251777
-1.1012226 -0.034653418 -0.055515565
-1.1491663 -0.0013250044 0.04802005
-1.1467158 -0.011845496 0.020774629
-1.1272345 -0.023463009 -0.0048089325
-1.1228107 -0.035972249 -0.033127636
-1.1606883 0.00026549725 0.0732731
-1.1492283 -0.012305046 0.04682219
-1.1417863 -0.024843143 0.019446772
-1.1153332 -0.038467344 -0.0073040202
-1.1681961 0.00082372001 0.099432632
-1.1517599 -0.012746505 0.071870089
-1.1493169 -0.025266659 0.044588618
-1.1548991 -0.039739668 0.016421784
-1.181684 0.0013853873 0.12670456
-1.1592902 -0.01317002 0.097011939
-1.137836 -0.026776282 0.070355102
-1.1494211 -0.042227592 0.042282991
-1.2131274 0.0029753116 0.15633208
-1.2077491 -0.011500996 0.12595922
-1.1963385 -0.027034853 0.097454928
-0.02611593 -0.059798401 0.050936799
-0.02611593 -0.059798401 0.050936799
-0.02611593 -0.059798401 0.050936799
-0.02611593 -0.059798401 0.050936799
-1.2144285 -0.04594893 0.096451148
-1.2320635 0.0050335946 0.21274295
-1.228678 -0.012453115 0.18335329
-1.2093099 -0.028979333 0.15268134
-0.02611593 -0.059798401 0.050936799
-0.02611593 -0.059798401 0.050936799
-0.02611593 -0.059798401 0.050936799
-0.02611593 -0.059798401 0.050936799
-1.2104298 -0.049935993 0.15032241
-1.2429676 0.00602715 0.27098483
-1.2316288 -0.013451747 0.23940948
-1.2202673 -0.031948913 0.20885181
-1.2228924 -0.052413583 0.17952082
-0.02611593 -0.059798401 0.050936799
-0.02611593 -0.059798401 0.050936799
-1.2327073 -0.033444759 0.23906791
-1.2213759 -0.054923326 0.2074565
-0.02611593 -0.059798401 0.050936799
-0.02611593 -0.059798401 0.050936799
-1.2431434 -0.033947956 0.26926443
-1.226836 -0.056426201 0.23654142
-0.02611593 -0.059798401 0.050936799
-0.02611593 -0.059798401 0.050936799
-0.02611593 -0.059798401 0.050936799
-0.02611593 -0.059798401 0.050936799
-1.3372746 0.012823193 0.41392189
-0.02611593 -0.059798401 0.050936799
-0.02611593 -0.059798401 0.050936799
-0.02611593 -0.059798401 0.050936799
-3.1076064 0.1115924 0.9800458
-6.2869167 0.16864137 1.7818748
-0.02611593 -0.059798401 0.050936799
-1.2820103 -0.062993512 0.33548918
-3.0852957 0.11125064 1.0496455
-3.1098456 0.050609969 0.97898424
-1.5324725 -0.035387758 0.46772268
-0.02611593 -0.059798401 0.050936799
-3.150425 0.11571735 1.1489794
-3.0845618 0.048275858 1.0474918
-3.1170208 -0.013426383 0.98196119
-0.02611593 -0.059798401 0.050936799
-3.2214181 0.1210788 1.2554415
-3.158608 0.049684934 1.151939
-3.0917077 -0.017796328 1.0524322
-3.1043513 -0.087424278 0.97838426
-3.2843568 0.12635727 1.3647524
-3.2256215 0.05003288 1.2582361
-3.1568122 -0.021382529 1.1546209
-3.1008918 -0.093859643 1.0572298
-3.3700666 0.13150123 1.4864914
-3.2845991 0.050315931 1.3663821
-3.2347608 -0.024066949 1.2650691
-3.163028 -0.10043801 1.1583085
-3.4486799 0.13752943 1.6131153
-3.3722639 0.052413307 1.4911036
-3.2927356 -0.027804894 1.3741239
-3.235997 -0.10813953 1.2685727
-4.8303103 0.21922877 2.3757195
-3.4608204 0.053405896 1.6218238
-3.3813677 -0.031757183 1.5017551
-3.3008924 -0.11594211 1.3826853
-4.695096 0.21353661 2.4401069
-4.8008771 0.095214583 2.3689227
-3.472887 -0.035807241 1.6354406
-3.3855636 -0.12488981 1.5091515
-4.5797276 0.20777145 2.5128672
-4.6923771 0.089347929 2.4488125
-4.7990994 -0.033042174 2.3815739
-3.4631615 -0.133935 1.6394848
-4.6653028 0.21483313 2.694659
-4.576014 0.082579382 2.5215359
-4.6707573 -0.039835703 2.4530723
-5.1234527 -0.18190067 2.5540123
-3.4237161 0.14285924 2.0889056
-4.7525721 0.085994937 2.7589836
-4.5820704 -0.046811286 2.5433161
-4.9889698 -0.19086009 2.6333592
-4.5681324 0.21346501 2.9158897
-3.4208846 0.042648401 2.0990434
-4.7526875 -0.053397462 2.7794716
-4.8674231 -0.1988273 2.7159674
-3.1856711 0.13192485 2.1442697
-4.5544186 0.074185148 2.9271173
-3.3121557 -0.06091468 2.0501177
-4.7528768 -0.20676941 2.7987072
-4.350481 0.20407148 3.0566924
-4.4342017 0.068546772 2.9917865
-3.2301714 -0.065181687 2.1025233
-4.6284995 -0.2145846 2.872262
-2.6333287 0.10024531 1.9502896
-3.2963164 0.033768509 2.342633
-3.1946392 -0.07080441 2.1847842
-4.5011787 -0.22235627 2.9427617
-4.1438975 0.19578966 3.1937213
-2.6214857 0.013036165 1.9584932
-3.212363 -0.075938992 2.3070645
-4.4539723 -0.23268712 3.0617313
-4.0357308 0.19124845 3.255635
-2.7469637 0.014133893 2.1469262
-2.6105602 -0.077259347 1.9716597
-3.3554714 -0.19865915 2.4325669
-3.9364498 0.18663099 3.3237157
-4.0119638 0.046861205 3.2705832
-2.5161586 -0.081012249 1.9928316
-4.1670375 -0.24466203 3.1641772
-3.8510275 0.18393686 3.3990932
-2.4310801 0.0019750558 2.0867715
-2.5006378 -0.085545279 2.0744865
-2.7969961 -0.19134875 2.2381768
-1.8811332 0.058921892 1.7483906
-1.9178214 -0.012538696 1.7257771
-2.4279847 -0.088454545 2.1090856
-3.9554234 -0.25901508 3.304003
-1.8286226 0.057228953 1.775386
-1.8672354 -0.014296824 1.7568088
-1.8999429 -0.085753679 1.7331206
-3.8452084 -0.2656174 3.3688421
-1.9164813 0.063569315 1.9422022
-1.820559 -0.017130863 1.7928958
-1.8483422 -0.088533312 1.765115
-1.8830355 -0.16601816 1.7433555
-2.0806279 0.076578319 2.1995981
-1.9770873 -0.014823085 2.0319493
-1.8880997 -0.093552761 1.8858094
-1.8294541 -0.16878688 1.7743127
-3.3544996 0.16269611 3.692512
-2.1695378 -0.01241377 2.3286967
-2.0503252 -0.10054751 2.1428072
-1.9585077 -0.1841424 1.9885238
-3.2731137 0.16005248 3.7659655
-3.3294044 0.010962747 3.7263091
-2.2651823 -0.11066864 2.4737592
-2.1559353 -0.20481975 2.2909486
-3.184902 0.15654671 3.8302722
-3.2342577 0.0054864585 3.7874491
-3.2884657 -0.14168313 3.75179
-3.3487351 -0.29981124 3.7150455
-3.0830147 0.15229835 3.8773036
-3.1400883 0.00099550933 3.8496258
-3.1942627 -0.14721009 3.815948
-3.2426655 -0.30525464 3.7719805
-2.9977651 0.14876714 3.9436662
-3.0488811 -0.0035208613 3.9138584
-3.0941961 -0.15363181 3.8729777
-3.1464143 -0.3128427 3.8390639
-2.9066095 0.14530489 4.0049176
-2.9469564 -0.0078053772 3.9628892
-3.0019369 -0.15920585 3.9401724
-3.0511405 -0.31944543 3.9071836
-2.8145523 0.14092965 4.0611343
-2.856715 -0.013354164 4.0291219
-2.9038277 -0.16465673 3.9992566
-2.9460895 -0.32486719 3.9631379
-2.7243781 0.13745286 4.123404
-2.7645452 -0.017837949 4.0913358
-2.8086064 -0.17020538 4.0643954
-2.8547065 -0.33256394 4.037313
-2.6342602 0.13403037 4.1826754
-2.6704133 -0.022292718 4.1515131
-2.7154262 -0.17671049 4.1275549
-2.7546022 -0.33902183 4.0963416
-2.5373156 0.12974571 4.2327995
-2.5812092 -0.027801745 4.215765
-2.6182985 -0.18217587 4.1876583
-2.6554375 -0.34453055 4.1584063
-2.4511034 0.12624711 4.2971439
-2.4841905 -0.032158762 4.2698884
-2.5221145 -0.18769193 4.2507787
-2.5611448 -0.3511478 4.2275443
-2.3609295 0.12277035 4.3594136
-2.389096 -0.03658095 4.3280478
-2.4279115 -0.19321889 4.3149366
-2.4629655 -0.35767087 4.2906098
-2.2708113 0.11934783 4.418685
-2.3017232 -0.042245604 4.4013348
-2.3288405 -0.19863717 4.3720031
-2.359899 -0.36410335 4.3475833
-2.1796751 0.11590365 4.4789362
-2.2055917 -0.046707556 4.4614739
-2.2326422 -0.20517117 4.4361057
-2.2664604 -0.37186152 4.4247193
-2.0864868 0.1113982 4.5421319
-2.1095161 -0.051115245 4.5186152
-2.1383078 -0.21082476 4.5072618
-2.1653185 -0.37835914 4.4857292
-1.9923697 0.10796134 4.6013269
-2.0172379 -0.056707393 4.5868096
-2.0392034 -0.21727905 4.5663095
-2.0612149 -0.3848314 4.544683
-1.0324377 0.027532235 2.5281973
-1.9190692 -0.061212704 4.6489105
-1.9419447 -0.22287104 4.63341
-1.9648142 -0.39256418 4.6197639
-0.95706642 0.023839004 2.4947078
-1.8200357 -0.066594817 4.7039781
-1.8426865 -0.22847021 4.7004728
-1.8606546 -0.39909071 4.6817164
-0.86464638 0.017986149 2.4108434
-1.7228105 -0.071150802 4.7690973
-1.7405639 -0.23495337 4.7604637
-1.7555137 -0.40560272 4.742651
-0.78961998 0.012618862 2.3593242
-1.6245521 -0.076746404 4.8361793
-1.6374187 -0.24045837 4.821454
-1.652204 -0.41227031 4.8126197
-0.81080168 0.018097758 2.6149061
-1.5195197 -0.082150042 4.8911338
-1.5360525 -0.2471731 4.8944588
-1.5468426 -0.41999924 4.8855319
-0.73294431 0.012882516 2.5543337
-1.4136707 -0.086376548 4.9360905
-1.4307992 -0.25379363 4.9613914
-1.438646 -0.42657629 4.949409
-0.64407063 0.0065651685 2.4415174
-1.3179624 -0.092395522 5.0272207
-1.3226364 -0.25933468 5.0232868
-1.3321722 -0.43441731 5.0283003
-0.52603471 -0.0031526424 2.1780422
-1.2127389 -0.096980222 5.0921898
-1.2163085 -0.26603115 5.0941992
-1.2208866 -0.4420954 5.0971012
-0.46779144 -0.0066582318 2.1378748
-1.1073132 -0.10276373 5.1681371
-1.107906 -0.27280718 5.1690722
-1.1065826 -0.44980234 5.1668448
-0.42165792 -0.0089677032 2.1449716
-0.99900049 -0.10844948 5.2380304
-0.99559784 -0.2795071 5.2388721
-0.99405795 -0.45871899 5.2486053
-0.36369935 -0.013201786 2.0897911
-0.89048177 -0.1143342 5.3189192
-1.5301774 -0.45846972 9.2920179
-1.5082082 -0.76872522 9.2429771
-0.31156731 -0.016577305 2.0437384
-1.2766831 -0.16006365 8.9395504
-1.2453556 -0.44665337 8.8517494
-1.2204474 -0.73879611 8.7959805
-1.0579052 0.11812776 8.6063728
-1.0249031 -0.16409954 8.5536318
-0.99234837 -0.43585825 8.4750795
-0.96049488 -0.71291995 8.4134512
-0.83243722 0.10148531 8.2597322
-0.7948491 -0.16631009 8.1821594
-0.75996292 -0.42534947 8.1187983
-0.72718573 -0.6882906 8.0504055
-0.62556863 0.085531026 7.9344616
-0.58478022 -0.16942206 7.8650622
-0.54803443 -0.41628981 7.7918839
-0.50939059 -0.66507387 7.7136335
-0.43493617 0.071913674 7.649549
-0.39042756 -0.17274794 7.563261
-0.35278469 -0.40747657 7.4822826
-0.31212756 -0.64323395 7.4022298
-0.25815147 0.058201879 7.3728976
-0.2108997 -0.17518295 7.2707562
-0.16998954 -0.39914131 7.2019162
-0.13019939 -0.62498719 7.1270599
-0.092076063 0.046257883 7.1114836
-0.044339597 -0.17856263 7.0334964
-0.0017088056 -0.39222234 6.9478045
0.04013899 -0.60809523 6.8740907
0.063413262 0.033955388 6.8722682
0.10903958 -0.18071494 6.7865019
0.15291151 -0.38557875 6.7119498
0.1957383 -0.59240246 6.6353807
0.20634347 0.023283154 6.6563263
0.25607926 -0.18247539 6.5746455
0.29882911 -0.3801921 6.4922409
0.34270978 -0.57803905 6.4168148
0.33842939 0.013505541 6.448606
0.39010262 -0.18417111 6.3620334
0.43390241 -0.37391087 6.2807536
0.47964957 -0.56260371 6.1964555
0.46589065 0.0033840761 6.260973
0.51746428 -0.1861673 6.1675467
0.56212682 -0.36774921 6.0773954
0.60908842 -0.54962772 6.003201
0.58726335 -0.0056255683 6.0684724
0.63694358 -0.18724351 5.9792266
0.68374169 -0.36294216 5.8951435
0.73267436 -0.53777468 5.8180389
0.69861913 -0.014581248 5.8751602
0.75268197 -0.18955842 5.8049588
-0.02611593 -0.059798401 0.050936799
-0.02611593 -0.059798401 0.050936799
0.80784458 -0.022358589 5.7279243
-0.02611593 -0.059798401 0.050936799
0.16598725 -0.11997274 1.1836356
0.17553753 -0.15269548 1.1658589
-0.02611593 -0.059798401 0.050936799
0.18015176 -0.087064765 1.1859665
0.18744028 -0.1195271 1.154232
0.19803175 -0.15128981 1.1384538
0.19219643 -0.056040749 1.1823008
0.20046997 -0.087488756 1.1495661
0.20900564 -0.11919001 1.1308264
0.22065699 -0.15001072 1.1180463
1.1055639 -0.045619134 5.2887807
0.22538657 -0.088505954 1.1450796
0.23268294 -0.11896863 1.1133811
0.24435304 -0.14980744 1.1016009
0.29191253 -0.057985343 1.3794655
0.24376133 -0.088977039 1.1117157
0.25439808 -0.11877625 1.0979728
0.26816535 -0.14871286 1.0911713
1.2770875 -0.059059747 4.9982276
0.26654726 -0.089860424 1.1002692
0.27609447 -0.11856578 1.0815649
0.29302973 -0.14867595 1.0837039
0.35169861 -0.06201911 1.3682694
0.28823972 -0.090649784 1.0838432
0.3041603 -0.11973846 1.0850194
0.31998342 -0.14973649 1.0811791
0.37408739 -0.063522466 1.3358121
0.31217521 -0.09168148 1.0803753
0.33115146 -0.12083519 1.084494
0.3500489 -0.15091637 1.0845963
0.40714842 -0.065712914 1.3391545
0.34233433 -0.092951782 1.0887904
0.36023587 -0.12202954 1.0889294
0.37804377 -0.15101685 1.0840701
-0.02611593 -0.059798401 0.050936799
0.36938161 -0.094102785 1.0912641
0.39239454 -0.12330702 1.097307
0.41432887 -0.15343514 1.099352
0.38806477 -0.067732736 1.1224018
0.40678281 -0.095633358 1.1125435
0.42769855 -0.1257398 1.1136075
0.46103889 -0.1573052 1.1374204
1.7289551 -0.095293425 4.3018761
0.44523609 -0.09822163 1.1367849
1.8371115 -0.31781715 4.1387701
1.8839747 -0.42432851 4.0449343
1.797084 -0.099770896 4.202486
1.8520275 -0.20940092 4.1134439
1.8978946 -0.31490889 4.0196443
1.950016 -0.41767403 3.9387827
1.8631531 -0.10518677 4.1001163
1.9140009 -0.21069458 4.0052233
1.9682192 -0.31255755 3.9293399
2.0172443 -0.4112041 3.8426085
1.920074 -0.11042561 3.9899182
1.9771422 -0.21215464 3.9059813
2.0282834 -0.30991703 3.825228
2.0772681 -0.40451002 3.7355692
1.9864428 -0.1161309 3.9035432
2.0393775 -0.21370153 3.8117561
2.0925527 -0.3074899 3.7320368
2.147769 -0.40032175 3.6542974
2.043611 -0.12060507 3.8063588
2.1027288 -0.21436071 3.7235281
2.1569304 -0.30617112 3.6448259
2.2100689 -0.39490604 3.5621979
2.1080587 -0.12537572 3.7240381
2.1630769 -0.21600896 3.6353385
2.2172339 -0.30476561 3.5536916
2.2652581 -0.38935667 3.4642317
2.1663914 -0.13101611 3.635814
2.2224064 -0.21763554 3.5461681
2.2725048 -0.30230618 3.4606695
2.3235593 -0.38392657 3.3722072
2.2217135 -0.13462798 3.5466828
2.2756844 -0.21818648 3.4541295
2.3329437 -0.30002746 3.3765504
2.3881173 -0.37977111 3.2940471
2.2770512 -0.13925779 3.4585328
2.3351452 -0.21993971 3.3719566
2.3872857 -0.29863659 3.2875283
2.4373448 -0.37423638 3.1981931
2.3325005 -0.14399612 3.3763814
2.3895693 -0.22163877 3.2878783
2.4406695 -0.29627848 3.2005417
2.4989035 -0.3700701 3.1200893
2.383913 -0.14868391 3.2923055
2.4399791 -0.22230557 3.2028937
2.4992731 -0.29515523 3.1254396
2.5503182 -0.36472344 3.0341945
2.4373858 -0.15243334 3.2112088
2.4985709 -0.2241818 3.127737
2.5516903 -0.29382956 3.0404532
2.600733 -0.35937315 2.9483182
2.4899104 -0.15723325 3.1331124
2.5479956 -0.22586294 3.0437529
2.6001127 -0.29148969 2.9555604
2.6583071 -0.3562105 2.8712714
2.5424731 -0.16206935 3.0570149
2.5974619 -0.22658041 2.961786
2.6546795 -0.2903159 2.8785338
2.709815 -0.35095426 2.7903748
2.5929644 -0.16582608 2.9769747
2.6540916 -0.22848566 2.8886666
2.7010794 -0.28895059 2.7926605
2.7521527 -0.34650278 2.7006321
2.6445272 -0.1706586 2.9008958
2.7035916 -0.23023914 2.808681
2.7506132 -0.28672287 2.7137465
2.8128612 -0.34247762 2.6305447
2.6940713 -0.17546585 2.8238552
2.7541699 -0.23106876 2.7326934
2.8082919 -0.28566837 2.6426618
2.8593478 -0.33818522 2.5487242
2.735527 -0.17915411 2.7419844
2.797652 -0.23278262 2.6518207
2.8477116 -0.28429604 2.5579197
2.9465082 -0.33770514 2.5030854
2.7892206 -0.18412045 2.6728661
2.8431938 -0.2335581 2.5739276
2.9379194 -0.28588063 2.515188
3.0011053 -0.33354992 2.4271128
2.8347507 -0.1878954 2.594919
2.8988798 -0.235514 2.5038259
2.9996872 -0.28593078 2.449008
3.0516849 -0.32936227 2.3502154
2.8742259 -0.19159457 2.5140855
2.9952061 -0.24024627 2.4679246
3.0472028 -0.28367776 2.369132
3.1022601 -0.3261745 2.2733002
2.9786508 -0.19946355 2.4839778
3.0437434 -0.24203235 2.3899572
3.0937116 -0.28342083 2.2892389
3.1517835 -0.32192898 2.1934226
3.0252368 -0.20329639 2.4090109
3.0831926 -0.24269584 2.3071783
3.1463346 -0.28229415 2.2152488
3.2023401 -0.31872311 2.1155076
3.0707817 -0.20808928 2.3320453
3.135823 -0.24458672 2.2341342
3.1959586 -0.28115669 2.1413155
3.2549937 -0.31461498 2.0425713
3.1224754 -0.21304843 2.2629645
3.1885281 -0.24654996 2.1650884
3.2424893 -0.27991802 2.0624397
4.7015228 -0.41638294 2.7678936
3.1670246 -0.21683788 2.1860356
3.2370842 -0.24835414 2.0881207
4.6812496 -0.37083998 2.7981069
4.7704659 -0.41064864 2.6566687
3.2146437 -0.22171031 2.1130311
4.6569295 -0.328246 2.8263426
4.7482195 -0.36813417 2.6888652
4.5708394 -0.38637549 2.4077609
3.2662628 -0.22659707 2.0399516
4.723897 -0.33055741 2.7180102
4.801981 -0.36618254 2.5688531
4.6439462 -0.38181818 2.3054397
4.7017641 -0.30220336 2.7589512
4.7948604 -0.33388302 2.6095848
4.6156054 -0.34922621 2.3345699
4.7190337 -0.37724993 2.2020817
4.7728057 -0.30961874 2.655452
4.5731249 -0.31945688 2.3569112
-0.02611593 -0.059798401 0.050936799
5.0542107 -0.38972172 2.2105834
4.5842981 -0.30256307 2.4160275
4.6584411 -0.32317641 2.2672164
5.0260148 -0.3632915 2.2486024
5.128149 -0.38500518 2.099247
4.6232033 -0.30771923 2.3051686
4.9534035 -0.33930495 2.2654014
5.1019936 -0.36263576 2.1401551
13.525654 -0.89056373 5.067884
4.6923242 -0.31419995 2.2057235
5.0777841 -0.34423664 2.1789541
5.153718 -0.36064079 2.0181813
13.730273 -0.87812734 4.7771797
5.0547557 -0.33705631 2.2295325
5.1497097 -0.34752968 2.0685105
13.642301 -0.83960187 4.8785582
13.924711 -0.86447412 4.4766841
5.1135745 -0.34421158 2.1142628
13.577418 -0.8153013 4.9872494
13.830692 -0.8379252 4.5779591
14.105848 -0.85148472 4.1604209
13.498848 -0.81734413 5.1177268
13.762887 -0.82272089 4.6925426
14.033104 -0.83531696 4.2781143
14.318241 -0.8388598 3.8575695
13.682365 -0.83684492 4.8278408
13.953333 -0.8311401 4.3967242
14.222407 -0.83255357 3.9725173
14.525412 -0.82599998 3.5428169
13.876879 -0.85638517 4.5377474
14.149644 -0.84045404 4.0937777
14.435716 -0.83189404 3.6674321
14.704421 -0.81187695 3.2196114
14.071217 -0.8777622 4.2386208
14.34292 -0.84872127 3.7889061
14.62877 -0.82990968 3.3487453
13.462234 -0.7271831 2.6201973
14.254453 -0.89699167 3.9337382
14.554168 -0.85903454 3.4826605
13.447626 -0.75552356 2.7530034
12.827108 -0.67481804 2.183888
14.455696 -0.91830337 3.629482
14.747142 -0.86801219 3.1617763
13.123438 -0.72831625 2.3684347
12.290929 -0.63076216 1.7985929
14.662785 -0.9404918 3.3170974
13.283301 -0.78687322 2.5304372
12.478615 -0.68523937 1.9501449
11.734202 -0.5870651 1.4376845
13.464616 -0.8780607 2.7224581
12.607355 -0.74757576 2.1066599
11.815603 -0.64187229 1.5752157
10.958715 -0.53474617 1.0900322
12.945975 -0.85470414 2.3164535
11.993076 -0.71316594 1.7186519
11.464659 -0.61575836 1.2571509
6.0862451 -0.31467044 0.48503378
12.217008 -0.81819797 1.8926184
11.551759 -0.68936676 1.382231
6.1463618 -0.35310593 0.55123544
5.9974875 -0.30265 0.33686277
11.726376 -0.79591501 1.5400878
11.521565 -0.68726587 1.1057404
5.9614348 -0.34056005 0.39487171
6.0228434 -0.29518268 0.19447488
11.467626 -0.78739977 1.234983
6.0445271 -0.38909453 0.46146053
6.0278535 -0.33932933 0.25660354
3.8790967 -0.20618369 0.052173205
6.1267624 -0.4538216 0.53877634
6.0338244 -0.38846064 0.31762367
6.0661874 -0.33690783 0.11388126
-0.02611593 -0.059798401 0.050936799
5.9668636 -0.44741869 0.38483366
6.025178 -0.38788819 0.1767482
3.8790276 -0.2342598 0.00064917468
3.6159344 -0.18508787 -0.11757562
6.0162315 -0.45510733 0.24572316
3.8726366 -0.27095211 0.040118486
-0.02611593 -0.059798401 0.050936799
-0.02611593 -0.059798401 0.050936799
6.0695753 -0.46379203 0.10551979
-0.02611593 -0.059798401 0.050936799
3.6348798 -0.21826752 -0.16754746
-0.02611593 -0.059798401 0.050936799
3.887568 -0.32216859 -0.0071035381
3.6334386 -0.2579411 -0.13022548
-0.02611593 -0.059798401 0.050936799
3.7987709 -0.17578895 -0.39592493
-0.02611593 -0.059798401 0.050936799
-0.02611593 -0.059798401 0.050936799
-0.02611593 -0.059798401 0.050936799
3.8549335 -0.17222473 -0.49494556
-0.02611593 -0.059798401 0.050936799
-0.02611593 -0.059798401 0.050936799
3.8275628 -0.21889424 -0.45226285
-0.02611593 -0.059798401 0.050936799
4.9335637 -0.40467444 -0.37430429
3.8091416 -0.26855937 -0.41180262
1.9312798 -0.13905485 -0.25124699
3.8006828 -0.15985954 -0.66976541
4.156991 -0.35402918 -0.4068597
1.9385281 -0.16641907 -0.23287147
4.1998744 -0.22883132 -0.70349842
4.0161076 -0.16019957 -0.80885208
-0.02611593 -0.059798401 0.050936799
4.2871428 -0.29565692 -0.67733228
3.5175362 -0.19980074 -0.66718578
3.4915473 -0.14258945 -0.7837038
1.9289469 -0.19994684 -0.25730684
3.4601932 -0.25039807 -0.62201208
3.9600215 -0.21414264 -0.85579365
3.4362063 -0.13707583 -0.85559231
4.1104059 -0.36152545 -0.70222318
3.3878806 -0.24785911 -0.69163591
3.3779113 -0.18972352 -0.80743688
3.7141287 -0.13817146 -1.0218719
3.4431317 -0.31555161 -0.6658861
3.4022224 -0.24832438 -0.77994281
3.6727991 -0.19887881 -0.9741801
2.5958066 -0.11036061 -0.76734459
3.3638582 -0.31302372 -0.73337907
3.4702573 -0.25271139 -0.88433129
3.6750197 -0.1971747 -1.069223
2.3371811 -0.10272171 -0.74635708
3.7035654 -0.34224662 -0.90632653
3.7202048 -0.26777652 -1.0463384
2.052186 -0.13569413 -0.6305784
3.4684536 -0.11765167 -1.2189678
3.7455378 -0.34948558 -1.0132794
3.615 -0.26320988 -1.1103078
3.485708 -0.18620762 -1.1925219
-0.02611593 -0.059798401 0.050936799
3.6542325 -0.3458786 -1.0825282
3.5128734 -0.25772658 -1.1703169
-0.02611593 -0.059798401 0.050936799
0.17931788 -0.062075581 -0.033979442
2.0337353 -0.2225062 -0.63780582
-0.02611593 -0.059798401 0.050936799
0.18825915 -0.067070857 -0.036237966
-0.02611593 -0.059798401 0.050936799
3.4648297 -0.33883846 -1.2098981
0.19323859 -0.072087951 -0.036422014
-0.02611593 -0.059798401 0.050936799
0.15232675 -0.060978856 -0.033454083
-0.02611593 -0.059798401 0.050936799
-0.02611593 -0.059798401 0.050936799
0.16324894 -0.065963216 -0.036749855
-0.02611593 -0.059798401 0.050936799
0.17530106 -0.076095022 -0.032157224
0.17119038 -0.070954897 -0.0389896
-0.02611593 -0.059798401 0.050936799
0.1323304 -0.060907077 -0.033078272
-0.02611593 -0.059798401 0.050936799
-0.02611593 -0.059798401 0.050936799
0.14027578 -0.06489893 -0.035299987
-0.02611593 -0.059798401 0.050936799
0.15227176 -0.074976467 -0.033706341
0.15017942 -0.069861606 -0.039576638
-0.02611593 -0.059798401 0.050936799
0.11533745 -0.059846234 -0.032740813
-0.02611593 -0.059798401 0.050936799
-0.02611593 -0.059798401 0.050936799
0.1203021 -0.063845403 -0.033906505
-0.02611593 -0.059798401 0.050936799
0.13426027 -0.073893949 -0.034349758
0.13020575 -0.068808086 -0.038183149
-0.02611593 -0.059798401 0.050936799
0.098378003 -0.059821397 -0.030422054
-0.02611593 -0.059798401 0.050936799
-0.02611593 -0.059798401 0.050936799
0.10728575 -0.063780665 -0.034661882
-0.02611593 -0.059798401 0.050936799
0.11726728 -0.072833106 -0.034012299
0.11123186 -0.067758165 -0.03680845
-0.02611593 -0.059798401 0.050936799
0.087365218 -0.058764003 -0.031196997
-0.02611593 -0.059798401 0.050936799
-0.02611593 -0.059798401 0.050936799
0.094273336 -0.062716089 -0.035399251
-0.02611593 -0.059798401 0.050936799
0.10127414 -0.071775854 -0.03369363
0.10415825 -0.067660682 -0.040675558
-0.02611593 -0.059798401 0.050936799
0.078348137 -0.058713615 -0.032027543
-0.02611593 -0.059798401 0.050936799
-0.02611593 -0.059798401 0.050936799
0.079332247 -0.062716514 -0.032118406
-0.02611593 -0.059798401 0.050936799
0.09026137 -0.07071846 -0.034468573
0.088202551 -0.06663961 -0.038357567
-0.02611593 -0.059798401 0.050936799
0.068368688 -0.058695816 -0.03083998
-0.02611593 -0.059798401 0.050936799
-0.02611593 -0.059798401 0.050936799
0.070337817 -0.061684389 -0.031931274
-0.02611593 -0.059798401 0.050936799
0.080248408 -0.06966465 -0.035262313
0.074265204 -0.065643802 -0.035077497
-0.02611593 -0.059798401 0.050936799
0.057408147 -0.058692511 -0.028633963
-0.02611593 -0.059798401 0.050936799
-0.02611593 -0.059798401 0.050936799
0.059377275 -0.061681092 -0.029725257
-0.02611593 -0.059798401 0.050936799
0.065329969 -0.068683341 -0.03096379
0.06919124 -0.065553501 -0.03898219
-0.02611593 -0.059798401 0.050936799
0.050390705 -0.058649302 -0.02950209
-0.02611593 -0.059798401 0.050936799
-0.02611593 -0.059798401 0.050936799
0.053322211 -0.061605286 -0.0326115
-0.02611593 -0.059798401 0.050936799
0.05535052 -0.068665542 -0.029776227
0.058234621 -0.06455037 -0.036758155
-0.02611593 -0.059798401 0.050936799
0.045354173 -0.058595181 -0.031407453
-0.02611593 -0.059798401 0.050936799
-0.02611593 -0.059798401 0.050936799
0.047323309 -0.061583754 -0.032498758
-0.02611593 -0.059798401 0.050936799
0.049336821 -0.067626096 -0.030645125
0.052216988 -0.064510748 -0.037645072
-0.02611593 -0.059798401 0.050936799
0.038374178 -0.058588147 -0.030276261
-0.02611593 -0.059798401 0.050936799
-0.02611593 -0.059798401 0.050936799
0.040309798 -0.060540717 -0.033348858
-0.02611593 -0.059798401 0.050936799
0.044281568 -0.067553885 -0.033550147
0.043237362 -0.064496532 -0.036476295
-0.02611593 -0.059798401 0.050936799
0.033356376 -0.058552112 -0.031181969
-0.02611593 -0.059798401 0.050936799
-0.02611593 -0.059798401 0.050936799
0.033329796 -0.060533684 -0.032217674
-0.02611593 -0.059798401 0.050936799
0.036301754 -0.067543261 -0.032400172
0.039181925 -0.064427912 -0.039400119
-0.02611593 -0.059798401 0.050936799
-0.02611593 -0.059798401 0.050936799
-0.02611593 -0.059798401 0.050936799
-0.02611593 -0.059798401 0.050936799
-0.02611593 -0.059798401 0.050936799
-0.02611593 -0.059798401 0.050936799
-0.02611593 -0.059798401 0.050936799
0.030243669 -0.063450046 -0.036214001
-0.02611593 -0.059798401 0.050936799
-0.02611593 -0.059798401 0.050936799
-0.02611593 -0.059798401 0.050936799
-0.02611593 -0.059798401 0.050936799
-0.02611593 -0.059798401 0.050936799
-0.02611593 -0.059798401 0.050936799
-0.02611593 -0.059798401 0.050936799
0.024263494 -0.063446604 -0.0351016
-0.02611593 -0.059798401 0.050936799
-0.02611593 -0.059798401 0.050936799
-0.02611593 -0.059798401 0.050936799
-0.02611593 -0.059798401 0.050936799
-0.02611593 -0.059798401 0.050936799
-0.02611593 -0.059798401 0.050936799
-0.02611593 -0.059798401 0.050936799
0.020226778 -0.063396066 -0.037025753
-0.02611593 -0.059798401 0.050936799
-0.02611593 -0.059798401 0.050936799
-0.02611593 -0.059798401 0.050936799
-0.02611593 -0.059798401 0.050936799
-0.02611593 -0.059798401 0.050936799
-0.02611593 -0.059798401 0.050936799
-0.02611593 -0.059798401 0.050936799
-0.02611593 -0.059798401 0.050936799
-0.02611593 -0.059798401 0.050936799
-0.02611593 -0.059798401 0.050936799
-0.02611593 -0.059798401 0.050936799
-0.02611593 -0.059798401 0.050936799
-0.02611593 -0.059798401 0.050936799
-0.02611593 -0.059798401 0.050936799
-0.02611593 -0.059798401 0.050936799
-0.02611593 -0.059798401 0.050936799
-0.02611593 -0.059798401 0.050936799
-0.02611593 -0.059798401 0.050936799
-0.02611593 -0.059798401 0.050936799
-0.02611593 -0.059798401 0.050936799
-0.02611593 -0.059798401 0.050936799
-0.02611593 -0.059798401 0.050936799
-0.02611593 -0.059798401 0.050936799
-0.02611593 -0.059798401 0.050936799
-0.02611593 -0.059798401 0.050936799
-0.02611593 -0.059798401 0.050936799
-0.02611593 -0.059798401 0.050936799
-0.02611593 -0.059798401 0.050936799
-0.02611593 -0.059798401 0.050936799
-0.02611593 -0.059798401 0.050936799
-0.02611593 -0.059798401 0.050936799
-0.02611593 -0.059798401 0.050936799
-0.02611593 -0.059798401 0.050936799
-0.02611593 -0.059798401 0.050936799
-0.02611593 -0.059798401 0.050936799
-0.02611593 -0.059798401 0.050936799
-0.02611593 -0.059798401 0.050936799
-0.02611593 -0.059798401 0.050936799
-0.02611593 -0.059798401 0.050936799
-0.02611593 -0.059798401 0.050936799
-0.02611593 -0.059798401 0.050936799
-0.02611593 -0.059798401 0.050936799
-0.02611593 -0.059798401 0.050936799
-0.02611593 -0.059798401 0.050936799
-0.02611593 -0.059798401 0.050936799
-0.02611593 -0.059798401 0.050936799
-0.02611593 -0.059798401 0.050936799
-0.02611593 -0.059798401 0.050936799
-0.02611593 -0.059798401 0.050936799
-0.02611593 -0.059798401 0.050936799
-0.02611593 -0.059798401 0.050936799
-0.02611593 -0.059798401 0.050936799
-0.02611593 -0.059798401 0.050936799
-0.02611593 -0.059798401 0.050936799
-0.02611593 -0.059798401 0.050936799
-0.02611593 -0.059798401 0.050936799
-0.02611593 -0.059798401 0.050936799
-0.02611593 -0.059798401 0.050936799
-0.02611593 -0.059798401 0.050936799
-0.02611593 -0.059798401 0.050936799
-0.02611593 -0.059798401 0.050936799
-0.02611593 -0.059798401 0.050936799
-0.02611593 -0.059798401 0.050936799
-0.02611593 -0.059798401 0.050936799
-0.02611593 -0.059798401 0.050936799
-0.02611593 -0.059798401 0.050936799
-0.02611593 -0.059798401 0.050936799
-0.02611593 -0.059798401 0.050936799
-0.02611593 -0.059798401 0.050936799
-0.02611593 -0.059798401 0.050936799
-0.02611593 -0.059798401 0.050936799
-0.02611593 -0.059798401 0.050936799
-0.02611593 -0.059798401 0.050936799
-0.02611593 -0.059798401 0.050936799
-0.02611593 -0.059798401 0.050936799
-0.02611593 -0.059798401 0.050936799
-0.02611593 -0.059798401 0.050936799
-0.02611593 -0.059798401 0.050936799
-0.02611593 -0.059798401 0.050936799
-0.02611593 -0.059798401 0.050936799
-0.02611593 -0.059798401 0.050936799
-0.02611593 -0.059798401 0.050936799
-0.02611593 -0.059798401 0.050936799
-0.02611593 -0.059798401 0.050936799
-0.02611593 -0.059798401 0.050936799
-0.02611593 -0.059798401 0.050936799
-0.02611593 -0.059798401 0.050936799
-0.02611593 -0.059798401 0.050936799
-0.02611593 -0.059798401 0.050936799
-0.02611593 -0.059798401 0.050936799
-0.02611593 -0.059798401 0.050936799
-0.02611593 -0.059798401 0.050936799
-0.02611593 -0.059798401 0.050936799
-0.02611593 -0.059798401 0.050936799
-0.02611593 -0.059798401 0.050936799
-0.02611593 -0.059798401 0.050936799
-0.02611593 -0.059798401 0.050936799
-0.02611593 -0.059798401 0.050936799
-0.02611593 -0.059798401 0.050936799
-0.02611593 -0.059798401 0.050936799
-0.02611593 -0.059798401 0.050936799
-0.02611593 -0.059798401 0.050936799
-0.02611593 -0.059798401 0.050936799
-0.02611593 -0.059798401 0.050936799
-0.02611593 -0.059798401 0.050936799
-0.02611593 -0.059798401 0.050936799
-0.02611593 -0.059798401 0.050936799
-0.02611593 -0.059798401 0.050936799
-0.02611593 -0.059798401 0.050936799
-0.02611593 -0.059798401 0.050936799
-0.02611593 -0.059798401 0.050936799
-0.02611593 -0.059798401 0.050936799
-0.02611593 -0.059798401 0.050936799
-0.02611593 -0.059798401 0.050936799
-0.02611593 -0.059798401 0.050936799
-0.02611593 -0.059798401 0.050936799
-0.02611593 -0.059798401 0.050936799
-0.02611593 -0.059798401 0.050936799
-0.02611593 -0.059798401 0.050936799
-0.02611593 -0.059798401 0.050936799
-0.02611593 -0.059798401 0.050936799
-0.02611593 -0.059798401 0.050936799
-0.02611593 -0.059798401 0.050936799
-0.02611593 -0.059798401 0.050936799
-0.02611593 -0.059798401 0.050936799
-0.02611593 -0.059798401 0.050936799
-0.02611593 -0.059798401 0.050936799
-0.02611593 -0.059798401 0.050936799
-0.02611593 -0.059798401 0.050936799
-0.02611593 -0.059798401 0.050936799
-0.02611593 -0.059798401 0.050936799
-0.02611593 -0.059798401 0.050936799
-0.02611593 -0.059798401 0.050936799
-0.02611593 -0.059798401 0.050936799
-0.02611593 -0.059798401 0.050936799
-0.02611593 -0.059798401 0.050936799
-0.02611593 -0.059798401 0.050936799
-0.02611593 -0.059798401 0.050936799
-0.02611593 -0.059798401 0.050936799
-0.02611593 -0.059798401 0.050936799
-0.02611593 -0.059798401 0.050936799
-0.02611593 -0.059798401 0.050936799
-0.02611593 -0.059798401 0.050936799
-0.02611593 -0.059798401 0.050936799
-0.02611593 -0.059798401 0.050936799
-0.02611593 -0.059798401 0.050936799
-0.02611593 -0.059798401 0.050936799
-0.02611593 -0.059798401 0.050936799
-0.02611593 -0.059798401 0.050936799
-0.02611593 -0.059798401 0.050936799
-0.02611593 -0.059798401 0.050936799
-0.02611593 -0.059798401 0.050936799
-0.02611593 -0.059798401 0.050936799
-0.02611593 -0.059798401 0.050936799
-0.02611593 -0.059798401 0.050936799
-0.02611593 -0.059798401 0.050936799
-0.02611593 -0.059798401 0.050936799
-0.02611593 -0.059798401 0.050936799
-0.02611593 -0.059798401 0.050936799
-0.02611593 -0.059798401 0.050936799
-0.02611593 -0.059798401 0.050936799
-0.02611593 -0.059798401 0.050936799
-0.02611593 -0.059798401 0.050936799
-0.02611593 -0.059798401 0.050936799
-0.02611593 -0.059798401 0.050936799
-0.02611593 -0.059798401 0.050936799
-0.02611593 -0.059798401 0.050936799
-0.074808076 -0.062001023 -0.03822162
-0.02611593 -0.059798401 0.050936799
-0.02611593 -0.059798401 0.050936799
-0.02611593 -0.059798401 0.050936799
-0.02611593 -0.059798401 0.050936799
-0.02611593 -0.059798401 0.050936799
-0.02611593 -0.059798401 0.050936799
-0.02611593 -0.059798401 0.050936799
-0.079788439 -0.062001172 -0.037128009
-0.02611593 -0.059798401 0.050936799
-0.02611593 -0.059798401 0.050936799
-0.02611593 -0.059798401 0.050936799
-0.02611593 -0.059798401 0.050936799
-0.02611593 -0.059798401 0.050936799
-0.02611593 -0.059798401 0.050936799
-0.02611593 -0.059798401 0.050936799
-0.085787341 -0.06197964 -0.037015263
-0.02611593 -0.059798401 0.050936799
-0.02611593 -0.059798401 0.050936799
-0.02611593 -0.059798401 0.050936799
-0.02611593 -0.059798401 0.050936799
-0.083682321 -0.05907777 -0.032000478
-0.02611593 -0.059798401 0.050936799
-0.089700855 -0.064055391 -0.031977829
-0.090748981 -0.061997868 -0.034921985
-0.02611593 -0.059798401 0.050936799
-0.08465948 -0.058092441 -0.030964002
-0.02611593 -0.059798401 0.050936799
-0.02611593 -0.059798401 0.050936799
-0.087625414 -0.059117682 -0.028926332
-0.02611593 -0.059798401 0.050936799
-0.091606878 -0.064138651 -0.026941944
-0.099822223 -0.061893214 -0.038751516
-0.02611593 -0.059798401 0.050936799
-0.088621303 -0.058114264 -0.028889522
-0.02611593 -0.059798401 0.050936799
-0.02611593 -0.059798401 0.050936799
-0.096698657 -0.059013028 -0.03275587
-0.02611593 -0.059798401 0.050936799
-0.098624319 -0.064095445 -0.027810071
-0.10376532 -0.061933126 -0.035677366
-0.02611593 -0.059798401 0.050936799
-0.094601482 -0.058110818 -0.02777712
-0.02611593 -0.059798401 0.050936799
-0.02611593 -0.059798401 0.050936799
-0.10062303 -0.059071027 -0.028682053
-0.02611593 -0.059798401 0.050936799
-0.10764139 -0.064045049 -0.028640613
-0.11074532 -0.061926089 -0.034546174
-0.02611593 -0.059798401 0.050936799
-0.10060038 -0.058089286 -0.027664378
-0.02611593 -0.059798401 0.050936799
-0.02611593 -0.059798401 0.050936799
-0.10558467 -0.059089258 -0.026588783
-0.02611593 -0.059798401 0.050936799
-0.11767702 -0.063972987 -0.030452028
-0.11872513 -0.061915472 -0.033396192
-0.02611593 -0.059798401 0.050936799
-0.10659929 -0.058067754 -0.027551632
-0.02611593 -0.059798401 0.050936799
-0.02611593 -0.059798401 0.050936799
-0.11462047 -0.059020784 -0.028418988
-0.02611593 -0.059798401 0.050936799
-0.12261993 -0.064009309 -0.027359094
-0.12774222 -0.061865076 -0.034226734
-0.02611593 -0.059798401 0.050936799
-0.11052366 -0.058125749 -0.023477826
-0.02611593 -0.059798401 0.050936799
-0.02611593 -0.059798401 0.050936799
-0.12058586 -0.060035259 -0.026324946
-0.02611593 -0.059798401 0.050936799
-0.13565499 -0.063926473 -0.029114146
-0.13874021 -0.061825603 -0.03402004
-0.02611593 -0.059798401 0.050936799
-0.12155909 -0.058050096 -0.025270455
-0.02611593 -0.059798401 0.050936799
-0.02611593 -0.059798401 0.050936799
-0.13363965 -0.059934333 -0.029079653
-0.02611593 -0.059798401 0.050936799
-0.14563444 -0.063908674 -0.027926572
-0.14670129 -0.061833069 -0.031870395
-0.02611593 -0.059798401 0.050936799
-0.13361306 -0.057952762 -0.028043948
-0.02611593 -0.059798401 0.050936799
-0.02611593 -0.059798401 0.050936799
-0.14363781 -0.059898447 -0.028891746
-0.02611593 -0.059798401 0.050936799
-0.15763225 -0.063865609 -0.027701087
-0.16779499 -0.062667094 -0.036492117
-0.02611593 -0.059798401 0.050936799
-0.14157416 -0.057960227 -0.025894307
-0.02611593 -0.059798401 0.050936799
-0.02611593 -0.059798401 0.050936799
-0.15563561 -0.059855379 -0.028666262
-0.02611593 -0.059798401 0.050936799
-0.16961132 -0.063840628 -0.02647594
-0.17875552 -0.062663786 -0.034286097
-0.02611593 -0.059798401 0.050936799
-0.15863113 -0.058844782 -0.028591871
-0.02611593 -0.059798401 0.050936799
-0.02611593 -0.059798401 0.050936799
-0.1706368 -0.060801372 -0.028402418
-0.02611593 -0.059798401 0.050936799
-0.19366702 -0.06470006 -0.029041965
-0.19373406 -0.062628038 -0.033004578
-0.02611593 -0.059798401 0.050936799
-0.16961041 -0.058823392 -0.027385507
-0.02611593 -0.059798401 0.050936799
-0.02611593 -0.059798401 0.050936799
-0.18663386 -0.06074395 -0.028101768
-0.02611593 -0.059798401 0.050936799
-0.21666281 -0.064617515 -0.028609782
-0.21573003 -0.062549084 -0.032591186
-0.02611593 -0.059798401 0.050936799
-0.18559268 -0.059783891 -0.026103217
-0.02611593 -0.059798401 0.050936799
-0.02611593 -0.059798401 0.050936799
-0.21067086 -0.061621472 -0.029668134
-0.02611593 -0.059798401 0.050936799
-0.24568015 -0.065495178 -0.029082537
-0.23669268 -0.063509732 -0.030215286
-0.02611593 -0.059798401 0.050936799
-0.20862983 -0.060664993 -0.027688377
-0.02611593 -0.059798401 0.050936799
-0.02611593 -0.059798401 0.050936799
-0.23868446 -0.061502889 -0.030141667
-0.02611593 -0.059798401 0.050936799
-1.0584915 -0.085905507 -0.2733165
-0.26769093 -0.064398304 -0.0296508
-0.02611593 -0.059798401 0.050936799
-0.23564757 -0.061549831 -0.028198704
-1.0610188 -0.085347138 -0.2482506
-0.02611593 -0.059798401 0.050936799
-0.25761002 -0.062506884 -0.025804013
-0.02611593 -0.059798401 0.050936799
-1.0746006 -0.084695019 -0.22597697
-1.0619203 -0.079416923 -0.24412507
-0.02611593 -0.059798401 0.050936799
-0.25255084 -0.061579265 -0.022880968
-1.0720875 -0.083190933 -0.19898766
-1.0765244 -0.079742968 -0.22285032
-1.0517752 -0.075580113 -0.23724328
-0.02611593 -0.059798401 0.050936799
-1.0856731 -0.083538659 -0.17673205
-1.0760336 -0.079213448 -0.19684111
-1.0704013 -0.076873541 -0.21691103
-1.0567517 -0.074580431 -0.23613162
-1.0942183 -0.082940668 -0.15255307
-1.0835829 -0.079618871 -0.17269892
-1.0799689 -0.077253699 -0.19373094
-1.0753816 -0.076873682 -0.21581745
-1.1017594 -0.08134643 -0.12837483
-1.1062042 -0.079898112 -0.15227352
-1.0965579 -0.078590475 -0.17143697
-1.0748988 -0.078343824 -0.18984424
-1.1183257 -0.081701472 -0.10506319
-1.1137346 -0.080321625 -0.12713167
-1.0960937 -0.080042534 -0.14646345
-1.0905106 -0.080665939 -0.16858676
-1.1248525 -0.081128739 -0.079922102
-1.1353226 -0.08164046 -0.10474375
-1.1227182 -0.08130724 -0.1259809
-1.1020856 -0.083038583 -0.14540511
-1.1423959 -0.08049845 -0.055574007
-1.13885 -0.081078492 -0.079659037
-1.1192133 -0.081806414 -0.099046439
-1.1176561 -0.084397033 -0.12213027
-1.142905 -0.079965346 -0.029546
-1.14838 -0.081494838 -0.054479599
-1.1377831 -0.083154097 -0.075715229
-1.125213 -0.086802118 -0.098024115
-1.1554307 -0.079371087 -0.0042921752
-1.1488931 -0.081961565 -0.028469622
-1.1433178 -0.084584631 -0.050628968
-1.1387689 -0.08918567 -0.073805213
-1.1619387 -0.078816444 0.021848567
-1.164422 -0.082356371 -0.0031774491
-1.1418351 -0.086058356 -0.024674594
-1.1503253 -0.091576397 -0.049623899
-1.2044626 -0.079114348 0.047648087
-1.1799324 -0.08276926 0.023114387
-1.1593864 -0.087427728 -0.000362508
-1.1678617 -0.09396369 -0.024330184
-0.02611593 -0.059798401 0.050936799
-1.1994457 -0.084167629 0.049463365
-1.1798998 -0.088822499 0.026005261
-0.02611593 -0.059798401 0.050936799
-1.2004629 -0.078084171 0.10060979
-1.2169558 -0.084573343 0.075792782
-1.2074156 -0.091191992 0.052486539
-1.2139181 -0.099716701 0.027445592
-1.221931 -0.077511884 0.12903172
-1.2184498 -0.085054569 0.10282121
-1.2139314 -0.09263701 0.078591242
-0.02611593 -0.059798401 0.050936799
-1.2104234 -0.077039942 0.15583387
-1.221925 -0.08554671 0.13088688
-1.2204287 -0.094100125 0.10569561
-1.2229397 -0.10463885 0.080543466
-1.2268734 -0.076503679 0.18516152
-1.2263998 -0.086035252 0.15897135
-1.2139095 -0.095627978 0.13355535
-1.2364206 -0.10709476 0.108761
-1.239328 -0.076981604 0.21439597
-1.2348739 -0.086509444 0.18713097
-1.2653275 -0.098001771 0.16548592
-0.02611593 -0.059798401 0.050936799
-0.02611593 -0.059798401 0.050936799
-0.02611593 -0.059798401 0.050936799
-0.02611593 -0.059798401 0.050936799
-1.2932914 -0.11398902 0.17072207
-0.02611593 -0.059798401 0.050936799
-1.2497703 -0.088519104 0.24639359
-1.2672486 -0.10103983 0.2234866
-1.2947561 -0.11650608 0.19971378
-0.02611593 -0.059798401 0.050936799
-0.02611593 -0.059798401 0.050936799
-0.02611593 -0.059798401 0.050936799
-0.02611593 -0.059798401 0.050936799
-1.2899476 -0.076071128 0.34140322
-1.3004916 -0.090562373 0.31532967
-1.2950758 -0.10507486 0.28695613
-0.02611593 -0.059798401 0.050936799
-0.02611593 -0.059798401 0.050936799
-1.3606645 -0.093139023 0.36042494
-1.2686163 -0.10662023 0.31144106
-1.2751541 -0.12414341 0.28623796
-0.02611593 -0.059798401 0.050936799
-1.4954568 -0.097807951 0.42688668
-0.02611593 -0.059798401 0.050936799
-0.02611593 -0.059798401 0.050936799
-3.1032972 -0.097516611 0.98318362
-1.5256314 -0.099492446 0.47143626
-1.5024072 -0.11890588 0.43363747
-0.02611593 -0.059798401 0.050936799
-3.0958862 -0.096895166 1.0580814
-3.0923822 -0.14263889 0.98716432
-6.2281327 -0.3201783 1.8099414
-1.4636021 -0.14295134 0.42747387
-3.1610165 -0.097445689 1.158325
-3.1008866 -0.14504996 1.0673071
-3.090373 -0.19283654 0.99722213
-3.1604867 -0.24971077 0.94948989
-3.2319918 -0.09711957 1.2666963
-3.1719563 -0.14965062 1.1715899
-3.1177771 -0.19928727 1.0836478
-3.079457 -0.2520107 1.0039496
-3.3009155 -0.097854726 1.3780113
-3.2300251 -0.15329811 1.2756463
-3.1868408 -0.20691271 1.1888386
-3.1336884 -0.26354456 1.1007892
-3.3845928 -0.0987712 1.5026037
-3.3039072 -0.15806891 1.3899822
-3.2587953 -0.21563573 1.3000656
-3.1948063 -0.27516186 1.2037582
-3.4652145 -0.099752709 1.6301385
-3.3935282 -0.16403536 1.5185958
-3.3197515 -0.22439823 1.4110861
-3.2637627 -0.28891286 1.3158385
-5.1166749 -0.11848426 2.5300245
-3.4800751 -0.17008492 1.6511515
-3.4113357 -0.23541091 1.5426462
-3.3495133 -0.30380166 1.4392166
-4.9178381 -0.11702748 2.5723424
-5.1146688 -0.22688912 2.551033
-3.4899373 -0.24545234 1.6729803
-3.4143016 -0.31772989 1.5602187
-4.7746124 -0.11473165 2.6357238
-4.9891148 -0.2278538 2.6326926
-5.0867887 -0.34229565 2.5664287
-0.02611593 -0.059798401 0.050936799
-4.7670217 -0.11524623 2.7736192
-4.8676195 -0.22974968 2.7114103
-4.9602613 -0.34524548 2.6470337
-0.02611593 -0.059798401 0.050936799
-3.308568 -0.098669328 2.0353625
-4.7521019 -0.23064229 2.7912583
-4.8407326 -0.34817019 2.7277703
-0.02611593 -0.059798401 0.050936799
-3.2315443 -0.097937323 2.0889521
-4.6376586 -0.23145896 2.8671267
-4.7172804 -0.35103691 2.8044333
-0.02611593 -0.059798401 0.050936799
-3.1901021 -0.097474068 2.1652102
-4.510427 -0.23312314 2.9317362
-4.6038299 -0.35486755 2.8812656
-2.814425 -0.31573173 1.7070732
-3.1970553 -0.098413646 2.2743604
-3.5060844 -0.19850561 2.4013786
-3.5683048 -0.29645583 2.3557565
-2.7346573 -0.31777483 1.7475564
-2.642576 -0.092178129 1.97399
-4.2877483 -0.23553577 3.0725713
-3.4762394 -0.2988314 2.4120088
-2.6421123 -0.31864768 1.7758176
-2.5343666 -0.091782972 1.9839747
-2.6009834 -0.17022516 1.966797
-3.3388259 -0.29773951 2.4324627
-2.545639 -0.31846267 1.8000228
-2.4666452 -0.091729075 2.0217204
-2.5253191 -0.17014569 2.0013936
-2.8483493 -0.27014273 2.181694
-2.4601305 -0.31927425 1.8264161
-2.4383733 -0.0920562 2.0892081
-2.4792831 -0.17232001 2.0565109
-2.7873011 -0.2733888 2.2375112
-2.3805645 -0.32011855 1.8559213
-1.9240321 -0.085577101 1.7285732
-2.4519289 -0.17573348 2.1289618
-2.7331429 -0.27771813 2.2994397
-2.2724829 -0.31859693 1.8589262
-1.8616315 -0.08619757 1.7494007
-1.9002061 -0.15274228 1.7319133
-2.6583369 -0.27977943 2.3420162
-2.1979907 -0.3193509 1.8845266
-1.8238481 -0.086090282 1.7907093
-1.8495975 -0.15351866 1.7639625
-1.8802521 -0.22101958 1.7423081
-1.9148735 -0.29455936 1.7236198
-1.9725701 -0.08964739 2.0205071
-1.8913583 -0.15953077 1.8846767
-1.8335756 -0.22385362 1.7783952
-1.8622544 -0.29736066 1.756595
-2.1729155 -0.094334796 2.3242764
-2.0585732 -0.17354259 2.1436415
-1.9656258 -0.24321578 1.9935904
-1.8784368 -0.30908519 1.8557197
-3.3399723 -0.11490758 3.7202282
-2.2744761 -0.19064084 2.4734864
-2.1601896 -0.26979434 2.2898526
-2.0604918 -0.34527457 2.1275656
-3.2438288 -0.11637004 3.7804217
-3.2961116 -0.25845721 3.7398169
-3.3502812 -0.40064573 3.7052472
-2.2558484 -0.38610041 2.4375896
-3.1477602 -0.11776016 3.836617
-3.2038629 -0.26201352 3.8060474
-3.2540746 -0.4051801 3.7693858
-3.3052962 -0.56037712 3.7345257
-3.0585558 -0.11825194 3.8999596
-3.1087232 -0.26447225 3.8662424
-3.1539435 -0.40965635 3.8294501
-3.2119846 -0.56700891 3.8046823
-2.9683552 -0.11974715 3.9632652
-3.0106628 -0.2678692 3.922364
-3.0597408 -0.41518337 3.8936081
-3.1108577 -0.57248861 3.8647099
-2.8733048 -0.12111558 4.0184793
-2.919414 -0.27142191 3.9886136
-2.9664626 -0.42077905 3.9617839
-3.0126405 -0.57904786 3.9297745
-2.7841079 -0.12360702 4.0817862
-2.8233123 -0.27384803 4.0467906
-2.8693688 -0.42520845 4.0199056
-2.9154084 -0.5866214 3.9958396
-2.6920013 -0.12501895 4.1400557
-2.7301571 -0.27731746 4.1080041
-2.7751803 -0.42971748 4.0830822
-2.8172481 -0.59312642 4.0579052
-2.5989323 -0.1263983 4.1963072
-2.6399868 -0.2817941 4.1702561
-2.6799965 -0.43522996 4.1462216
-2.7161624 -0.5995698 4.1159153
-2.5097542 -0.12887165 4.2586141
-2.5458136 -0.2852852 4.232451
-2.5829062 -0.44065917 4.2043252
-2.6238546 -0.60719776 4.1860728
-2.418576 -0.13135219 4.3208828
-2.4507339 -0.28868946 4.2896285
-2.4896472 -0.44623679 4.2715006
-2.5237312 -0.61367375 4.2461019
-2.3254883 -0.13274962 4.3781343
-2.3604887 -0.29323846 4.3558788
-2.3925047 -0.45272008 4.3325853
-2.4255185 -0.62123281 4.3111482
-2.2352355 -0.13529892 4.4444213
-2.2672446 -0.29779816 4.4220729
-2.2933962 -0.45817456 4.3916512
-2.3263242 -0.62877738 4.3751764
-2.1411891 -0.13766359 4.4996357
-2.1691689 -0.30221304 4.479176
-2.2000847 -0.46480629 4.4618082
-2.2300396 -0.63740158 4.444241
-2.047997 -0.14116922 4.562849
-2.0759621 -0.30673656 4.5433712
-2.1019053 -0.47132936 4.5248737
-2.1288834 -0.64491707 4.5062323
-1.9520071 -0.14348681 4.6150279
-1.9807554 -0.31126732 4.6075282
-2.0028529 -0.47672957 4.5809402
-2.028712 -0.65344691 4.5692239
-1.8607209 -0.14707571 4.6832771
-1.8816619 -0.31570387 4.6656132
-1.9064523 -0.48446238 4.6560211
-1.9265559 -0.6609661 4.631196
-1.7626193 -0.149509 4.7414155
-1.7835305 -0.320173 4.7257152
-1.8034234 -0.49085864 4.7109947
-1.8242952 -0.67059344 4.6991301
-1.6664462 -0.15300731 4.8035731
-1.6852533 -0.32578668 4.7937965
-1.7031505 -0.49747932 4.7790208
-1.7190874 -0.67917752 4.7640276
-1.5691984 -0.15658155 4.8697104
-1.5831455 -0.33125189 4.8528056
-1.6009381 -0.50505275 4.8439922
-1.6167516 -0.68887722 4.8359599
-1.4691198 -0.16000378 4.9267941
-1.4847786 -0.33795583 4.9258676
-1.4975989 -0.51375622 4.9159241
-1.5067468 -0.69628036 4.8897848
-1.3707451 -0.16470806 4.9998913
-1.3816859 -0.34240675 4.9838767
-1.3914955 -0.52023566 4.9748406
-1.4042693 -0.70812446 4.9696789
-1.2705166 -0.168275 5.0649729
-1.2764325 -0.34902731 5.0508089
-1.2890064 -0.52908021 5.0547886
-1.2949201 -0.71886718 5.0424623
-1.1663865 -0.17276567 5.1249623
-1.1711419 -0.35568404 5.1197405
-1.1787994 -0.53768224 5.1195917
-1.1854774 -0.72970045 5.1202435
-1.0619942 -0.17750959 5.1989474
-1.0666451 -0.36253613 5.1996875
-1.0684426 -0.54642892 5.1923923
-1.0731289 -0.7404539 5.1929703
-0.95463997 -0.18222809 5.2708759
-0.95539314 -0.36917818 5.2665071
-0.95694017 -0.55632371 5.2731528
-0.9566204 -0.75338423 5.2745829
-1.4399369 -0.28047827 9.1635046
-1.4268862 -0.60382581 9.121397
-1.4205977 -0.92436582 9.0914707
-1.4066238 -1.257679 9.0471649
-1.1791832 -0.27649355 8.7745619
-1.1623553 -0.58458668 8.7176552
-1.1472863 -0.88889039 8.6728525
-1.1330252 -1.2064233 8.640831
-0.94406909 -0.27275926 8.4051027
-0.9221682 -0.56689072 8.3493538
-0.90306401 -0.85719311 8.3037291
-0.88309664 -1.1584066 8.2528896
