# .PCD v0.7 - Point Cloud Data file format
VERSION 0.7
FIELDS x y z
SIZE 4 4 4
TYPE F F F
COUNT 1 1 1
WIDTH 1402
HEIGHT 1
VIEWPOINT 0 0 0 1 0 0 0
POINTS 1402
DATA ascii
0.40681598 0.59599686 1.1950816
0.23021275 0.60518903 1.0565075
0.29703534 0.6021384 1.100216
0.36279801 0.59814596 1.1409262
0.43468371 0.59702289 1.1875759
0.25317109 0.60514265 1.054076
0.32197851 0.60310286 1.0967652
0.38972211 0.59912127 1.1364384
0.41209868 0.5313493 1.0627683
0.27508825 0.60413623 1.0496458
0.34689906 0.60308552 1.0922968
0.4134852 0.59725255 1.1239554
0.4820483 0.59043062 1.1545587
0.29905033 0.60508615 1.0472136
0.36867732 0.60020602 1.0808331
0.410999 0.55854726 1.0522774
0.51409262 0.59829634 1.1551012
0.32094878 0.60409772 1.0417839
0.39358303 0.60120654 1.0753831
0.45898512 0.59154069 1.0979915
0.53882194 0.59746003 1.1406182
0.34282452 0.60212761 1.0353364
0.40591475 0.58474165 1.0428432
0.48902586 0.59841371 1.0985534
0.56461126 0.59756577 1.1291333
0.3677904 0.60407376 1.0329034
0.43816197 0.59642571 1.0534545
0.51068783 0.59464294 1.0810736
0.59034431 0.59772569 1.1146495
0.39069259 0.60408169 1.027473
0.46519932 0.6023097 1.054055
0.53862351 0.59861416 1.0766211
0.61405909 0.59791088 1.0992036
0.41255355 0.60312945 1.0200438
0.48798132 0.6004265 1.0425905
0.56137198 0.59776694 1.0631753
0.63883382 0.59903806 1.086756
0.43645948 0.60413361 1.0146126
0.5118311 0.60148489 1.0341603
0.58307934 0.5959596 1.0477309
0.66354835 0.59921962 1.0712912
0.45932421 0.60417771 1.0071828
0.53255332 0.59866333 1.0197163
0.60893655 0.59901059 1.039299
0.68724447 0.59942293 1.0548457
0.48323014 0.60518187 1.0017517
0.55742556 0.6006999 1.0122849
0.63167018 0.59918129 1.0248717
0.70788091 0.59869146 1.0354395
0.50607616 0.60524404 0.99332207
0.58123392 0.60079467 1.0018374
0.65335876 0.59739202 1.0084276
0.72644991 0.59502184 1.0130179
0.5288769 0.60334271 0.98285729
0.60506886 0.60287094 0.99242544
0.67713755 0.59952265 0.9960168
0.74915004 0.59622854 0.99660921
0.55068558 0.60344464 0.97244728
0.62781739 0.60202378 0.97897965
0.69987118 0.59969336 0.98158938
0.77080905 0.59647518 0.97820187
0.57351285 0.60352486 0.96301818
0.64956993 0.60217994 0.96557069
0.7226088 0.60086387 0.96717989
0.79761779 0.60157645 0.96678841
0.59323531 0.60070693 0.94859308
0.67234498 0.60331428 0.95316058
0.74430913 0.60207415 0.95078999
0.81315374 0.59895366 0.94244176
0.6181075 0.60274345 0.94116163
0.6920526 0.60151422 0.93775386
0.76396459 0.60132819 0.93240231
0.83685756 0.60115665 0.92603225
0.6419425 0.60481977 0.93174976
0.71480894 0.60266662 0.92434406
0.78668344 0.60251677 0.9169932
0.85750192 0.6024248 0.90666211
0.66165018 0.60301965 0.91634303
0.73343801 0.59994268 0.90493947
0.8073613 0.60274893 0.89960438
0.87510157 0.60174024 0.88531291
0.6854437 0.60413229 0.90491378
0.75211233 0.59918219 0.88757014
0.82293475 0.60008997 0.87725711
0.89166385 0.60109544 0.8619833
0.7071963 0.60428846 0.89150476
0.77280891 0.59939623 0.87118095
0.84257531 0.60036188 0.85788774
0.91026729 0.60140711 0.84063345
0.72792637 0.60346657 0.87709695
0.79250175 0.59861398 0.85479254
0.86223853 0.60161555 0.83953601
0.93093818 0.60465682 0.82229894
0.74863786 0.6026628 0.86168939
0.81115735 0.5978716 0.83642364
0.88292432 0.60384732 0.82218325
0.94750446 0.60501182 0.79898733
0.77139801 0.60481501 0.84829766
0.83083928 0.59910715 0.81907159
0.89850157 0.60218829 0.79985404
0.95698142 0.60146505 0.7717365
0.79415441 0.60596746 0.83488786
0.85051739 0.59934294 0.80170155
0.91510147 0.60150725 0.77852362
0.97356641 0.60180199 0.74942446
0.81280607 0.60422522 0.8165009
0.87119913 0.60057491 0.78433073
0.93272758 0.6028043 0.75821024
0.99118167 0.60511678 0.72814751
0.82943928 0.60250825 0.79715192
0.88781768 0.59987581 0.764
0.94830889 0.60214502 0.73589897
1.006752 0.60647517 0.70487267
0.85215825 0.60369682 0.78174287
0.9064585 0.60015136 0.74464941
0.96896499 0.60641259 0.71658289
1.0182779 0.60588455 0.67963755
0.87385857 0.60490716 0.76535285
0.93121135 0.60531396 0.73027456
0.98354638 0.60575688 0.69429046
1.0338708 0.60822475 0.65738046
0.89249939 0.60518265 0.74600232
0.94679266 0.60465473 0.70796329
0.99913555 0.60709727 0.67201531
1.0403297 0.60470682 0.62918633
0.909114 0.6034838 0.72565365
0.96339637 0.60497355 0.68665105
1.0126984 0.60646325 0.64874208
1.0569266 0.60804319 0.60692835
0.9277547 0.60375929 0.70630306
0.97797781 0.6043179 0.66435862
1.0262465 0.60684717 0.62448704
1.0674565 0.60845596 0.58173013
0.95551109 0.60991102 0.69188976
0.99863005 0.60758567 0.64502454
1.0408359 0.60819107 0.60223079
1.0800085 0.60984331 0.55751204
0.96906608 0.60727727 0.66858041
1.0152377 0.60890436 0.62373018
1.0543878 0.60957485 0.57799381
1.0824455 0.60535794 0.52837539
0.98364359 0.60562181 0.64626998
1.0227112 0.60436487 0.59649891
1.0598615 0.60504252 0.55080014
1.0919795 0.60677415 0.503214
1.0002286 0.6059587 0.62395799
1.0423486 0.6086542 0.57620192
1.0734364 0.60740799 0.52758092
1.1015096 0.60719049 0.47803456
1.0158099 0.60529947 0.60164678
1.0559156 0.60901999 0.55294669
1.0839622 0.60682094 0.50236464
1.1120474 0.60960287 0.45287237
1.0455174 0.61349785 0.58423299
1.0684412 0.60842574 0.52769291
1.0904475 0.60528457 0.47520623
1.1215814 0.61101902 0.42771095
1.0560356 0.61091119 0.55898064
1.0809894 0.60881329 0.50345671
1.1060297 0.60964251 0.45198542
1.1290971 0.61246049 0.40158746
1.0655314 0.6073463 0.53272951
1.0904928 0.60724807 0.47724158
1.1145601 0.61006242 0.42682481
1.135609 0.61290568 0.37546474
1.0831054 0.60969734 0.50943512
1.1080934 0.61158073 0.45498288
1.1200455 0.60852969 0.3996852
1.1421248 0.61435074 0.34936002
1.0956309 0.60910308 0.48418131
1.1186045 0.61201155 0.428785
1.1326057 0.61191654 0.37550309
1.1405891 0.61186123 0.32133424
1.109179 0.60948706 0.4599264
1.1301342 0.61242074 0.40356797
1.1340653 0.60841662 0.3474029
1.1471237 0.61328822 0.29622918
1.1226897 0.60990709 0.4336721
1.1346161 0.60989171 0.37642914
1.1415809 0.60985804 0.32127944
1.1496177 0.61376584 0.26918197
1.136223 0.61130887 0.40843552
1.1491573 0.61328959 0.35120982
1.1521189 0.61227047 0.29611725
1.1531301 0.61422175 0.24311565
1.1467115 0.61075795 0.38121998
1.1596721 0.61472028 0.32502994
1.1556125 0.61274451 0.26905122
1.1596684 0.61664861 0.2180286
1.1612486 0.61315608 0.35598263
1.1631396 0.61321265 0.29692823
1.1621286 0.61418945 0.24294654
1.1430892 0.60723227 0.18915892
1.1767666 0.61556864 0.32972682
1.1676252 0.61168349 0.2698074
1.1646144 0.6126675 0.21586327
0.7259081 0.3690289 0.12263826
1.1822146 0.61407197 0.30058783
1.1791294 0.61512834 0.24264511
1.0485861 0.54685134 0.17483118
0.72458607 0.36834022 0.10564478
1.1947107 0.61551362 0.27337074
1.1836189 0.61459893 0.21554229
0.71981758 0.36010626 0.11958984
0.72729367 0.37061852 0.089629874
1.2061882 0.61697686 0.24517277
0.88378483 0.44587335 0.15308273
0.72051787 0.36039212 0.10357647
0.68085909 0.34411383 0.07201384
1.197574 0.60856783 0.21417144
0.7187528 0.35314721 0.11748318
0.72420281 0.3616851 0.086525097
0.63845819 0.32157597 0.055394378
-0.02611593 -0.059798401 0.050936799
0.71339709 0.34849164 0.099493146
0.72488827 0.36298883 0.069530085
0.63220412 0.31883317 0.042457473
0.71565008 0.3412143 0.11432435
0.72712243 0.35572961 0.083361626
0.70953739 0.35435173 0.05265554
0.63192326 0.31910449 0.027462555
0.71630901 0.3405365 0.096293643
0.72978491 0.35604444 0.065311357
0.69322014 0.34468222 0.037781086
0.63667595 0.3233391 0.013445418
0.7199713 0.34084776 0.078224584
0.73447359 0.35833368 0.048259206
0.68290275 0.34000835 0.021884322
0.62439245 0.31763646 -0.00043245777
0.72164869 0.34014824 0.061174743
0.73415536 0.35864121 0.031264968
0.70162421 0.35124579 0.004731264
0.64113295 0.32886299 -0.016548268
0.72232628 0.33945233 0.044143695
0.73383313 0.35794884 0.014252707
0.73534077 0.37146404 -0.014540806
0.70786989 0.37001354 -0.039061021
0.72799993 0.34275588 0.026091108
0.73949188 0.36227036 -0.0047815219
0.7350077 0.3727895 -0.032516681
0.74354166 0.39327839 -0.0613156
0.73565453 0.34607035 0.0070012733
0.7401734 0.36257428 -0.021794554
0.74269283 0.37908536 -0.0505528
0.74623859 0.39757445 -0.078294143
0.7363174 0.34639236 -0.011011414
0.74382877 0.36590311 -0.040809225
0.74436337 0.38140345 -0.068548247
0.74992049 0.40288484 -0.096273109
0.73996872 0.34872139 -0.030044101
0.74349177 0.36622873 -0.058803122
0.74603772 0.38472137 -0.086525671
0.75358367 0.40821335 -0.11525173
0.74161655 0.35005772 -0.049057227
0.74715108 0.37055737 -0.077799767
0.75170052 0.39004266 -0.10554188
0.75726557 0.4135237 -0.13323072
0.74526799 0.35238668 -0.06808991
0.75479478 0.37588954 -0.097853221
0.75736731 0.39636382 -0.12454007
0.76093268 0.41985205 -0.15219131
0.74890459 0.35573363 -0.088104233
0.75544673 0.37822935 -0.11682953
0.76000798 0.40071416 -0.14451759
0.76558083 0.42619488 -0.17217039
0.7545408 0.35907334 -0.10815614
0.75509489 0.37957287 -0.13580509
0.76066381 0.40405372 -0.16347589
0.76624453 0.43153411 -0.19109264
0.76016611 0.36443084 -0.12917167
0.76072419 0.38593018 -0.15680259
0.77228904 0.41440693 -0.18551373
0.7689079 0.43686622 -0.21005248
0.76278424 0.36779946 -0.1501669
0.76933819 0.39329466 -0.17883813
0.77491498 0.41977519 -0.2064729
0.21089049 0.089805409 -0.03282281
0.77039438 0.37416765 -0.17220163
0.77197886 0.39764497 -0.19881564
0.21388902 0.084777392 -0.031969607
0.19784662 0.082871325 -0.033704311
0.61356127 0.29029322 -0.14577354
0.21289915 0.077745996 -0.030077621
0.2008491 0.078843154 -0.032833107
-0.02611593 -0.059798401 0.050936799
0.19198208 0.059679717 -0.022010066
0.21279466 0.07985419 -0.036039561
-0.02611593 -0.059798401 0.050936799
0.16782279 0.065945722 -0.031447589
0.2088123 0.069815978 -0.033145595
-0.02611593 -0.059798401 0.050936799
0.17277658 0.063964292 -0.033576902
-0.02611593 -0.059798401 0.050936799
0.1887954 0.059871372 -0.031950302
0.17576031 0.059954207 -0.033705346
-0.02611593 -0.059798401 0.050936799
0.1497533 0.057048023 -0.033270843
-0.02611593 -0.059798401 0.050936799
-0.02611593 -0.059798401 0.050936799
0.14975239 0.052030794 -0.032361284
-0.02611593 -0.059798401 0.050936799
0.15974572 0.045977823 -0.031657636
0.15568726 0.050063856 -0.035509054
-0.02611593 -0.059798401 0.050936799
0.13072143 0.048117749 -0.033075992
-0.02611593 -0.059798401 0.050936799
-0.02611593 -0.059798401 0.050936799
0.13368645 0.044125751 -0.034204107
-0.02611593 -0.059798401 0.050936799
0.14069512 0.03706564 -0.032462448
0.1376365 0.041148085 -0.036332648
-0.02611593 -0.059798401 0.050936799
0.11173787 0.037133545 -0.029918198
-0.02611593 -0.059798401 0.050936799
-0.02611593 -0.059798401 0.050936799
0.11270326 0.033148717 -0.03100872
-0.02611593 -0.059798401 0.050936799
0.12065951 0.02713912 -0.032266822
0.11862333 0.032199711 -0.035138134
-0.02611593 -0.059798401 0.050936799
0.094761804 0.02814181 -0.026761938
-0.02611593 -0.059798401 0.050936799
-0.02611593 -0.059798401 0.050936799
0.094727375 0.024160583 -0.027833682
-0.02611593 -0.059798401 0.050936799
0.10166507 0.018172663 -0.030072641
0.099647634 0.023215163 -0.031944294
-0.02611593 -0.059798401 0.050936799
0.088680148 0.026236046 -0.030683879
-0.02611593 -0.059798401 0.050936799
-0.02611593 -0.059798401 0.050936799
0.086660877 0.021244071 -0.030736387
-0.02611593 -0.059798401 0.050936799
0.088662609 0.012202245 -0.028936818
0.092580959 0.020295069 -0.034865804
-0.02611593 -0.059798401 0.050936799
0.076696232 0.020243958 -0.028567184
-0.02611593 -0.059798401 0.050936799
-0.02611593 -0.059798401 0.050936799
0.076661803 0.016262725 -0.029638916
-0.02611593 -0.059798401 0.050936799
0.076645173 0.0072461665 -0.028801423
0.077608451 0.01229599 -0.031729106
-0.02611593 -0.059798401 0.050936799
0.066697143 0.015262605 -0.02746971
-0.02611593 -0.059798401 0.050936799
-0.02611593 -0.059798401 0.050936799
0.066643983 0.01129946 -0.029541105
-0.02611593 -0.059798401 0.050936799
0.066631287 0.003282733 -0.028685592
0.069564626 0.010361219 -0.03361414
-0.02611593 -0.059798401 0.050936799
0.06163796 0.014334985 -0.030392755
-0.02611593 -0.059798401 0.050936799
-0.02611593 -0.059798401 0.050936799
0.059633482 0.0083250981 -0.029463623
-0.02611593 -0.059798401 0.050936799
0.057635948 -0.00070237846 -0.027588893
0.061554302 0.0073904456 -0.033517867
-0.02611593 -0.059798401 0.050936799
0.054623537 0.010360785 -0.030333295
-0.02611593 -0.059798401 0.050936799
-0.02611593 -0.059798401 0.050936799
0.054574307 0.0073974789 -0.032386668
-0.02611593 -0.059798401 0.050936799
0.050591931 -0.0026407321 -0.029492714
0.051573943 0.0023910033 -0.031420738
-0.02611593 -0.059798401 0.050936799
0.044680618 0.0053251721 -0.026236836
-0.02611593 -0.059798401 0.050936799
-0.02611593 -0.059798401 0.050936799
0.046582714 0.0044086091 -0.031290751
-0.02611593 -0.059798401 0.050936799
0.042600334 -0.0056296019 -0.028396785
0.046514761 0.0014633844 -0.03434379
-0.02611593 -0.059798401 0.050936799
0.039654955 0.0033615446 -0.027178586
-0.02611593 -0.059798401 0.050936799
-0.02611593 -0.059798401 0.050936799
0.041542251 0.0034629011 -0.03321413
-0.02611593 -0.059798401 0.050936799
0.037574671 -0.0075932294 -0.029338527
0.040489282 -0.00049665454 -0.035266742
-0.02611593 -0.059798401 0.050936799
0.035599522 0.0034301674 -0.030102402
-0.02611593 -0.059798401 0.050936799
-0.02611593 -0.059798401 0.050936799
0.034565266 -0.00054747716 -0.031155355
-0.02611593 -0.059798401 0.050936799
0.030586816 -0.0095858574 -0.028243374
0.033516224 -0.0035071983 -0.033189937
-0.02611593 -0.059798401 0.050936799
0.030592576 0.0014484506 -0.030044489
-0.02611593 -0.059798401 0.050936799
-0.02611593 -0.059798401 0.050936799
0.027596137 -0.0025581867 -0.029060531
-0.02611593 -0.059798401 0.050936799
0.026531387 -0.0095172348 -0.031167198
0.030427082 -0.002406152 -0.038113859
-0.02611593 -0.059798401 0.050936799
0.025589567 0.00046656828 -0.029968556
-0.02611593 -0.059798401 0.050936799
-0.02611593 -0.059798401 0.050936799
0.022570476 -0.0045218146 -0.030002274
-0.02611593 -0.059798401 0.050936799
0.018573303 -0.013542105 -0.028089959
0.024439054 -0.0044023688 -0.037037484
-0.02611593 -0.059798401 0.050936799
0.020582624 -0.0015151484 -0.029910635
-0.02611593 -0.059798401 0.050936799
-0.02611593 -0.059798401 0.050936799
0.018567279 -0.0055072894 -0.029945131
-0.02611593 -0.059798401 0.050936799
-0.02611593 -0.059798401 0.050936799
0.017503444 -0.0074490951 -0.032961361
-0.02611593 -0.059798401 0.050936799
0.015613131 -0.0035330434 -0.027853403
-0.02611593 -0.059798401 0.050936799
-0.02611593 -0.059798401 0.050936799
0.012579244 -0.0075035067 -0.028868765
-0.02611593 -0.059798401 0.050936799
-0.02611593 -0.059798401 0.050936799
0.012481702 -0.0084128883 -0.033885095
-0.02611593 -0.059798401 0.050936799
0.010606186 -0.0055147563 -0.02779549
-0.02611593 -0.059798401 0.050936799
-0.02611593 -0.059798401 0.050936799
0.0085947718 -0.0085070664 -0.027811963
-0.02611593 -0.059798401 0.050936799
-0.02611593 -0.059798401 0.050936799
0.0094300155 -0.0073480271 -0.036809683
-0.02611593 -0.059798401 0.050936799
0.0075880163 -0.0054859007 -0.028738778
-0.02611593 -0.059798401 0.050936799
-0.02611593 -0.059798401 0.050936799
-0.02611593 -0.059798401 0.050936799
-0.02611593 -0.059798401 0.050936799
-0.02611593 -0.059798401 0.050936799
0.0034567737 -0.01036216 -0.034751676
-0.02611593 -0.059798401 0.050936799
-0.02611593 -0.059798401 0.050936799
-0.02611593 -0.059798401 0.050936799
-0.02611593 -0.059798401 0.050936799
0.0024726675 -0.0063592521 -0.034660809
-0.02611593 -0.059798401 0.050936799
-0.02611593 -0.059798401 0.050936799
-0.0015087918 -0.011380224 -0.032676414
-0.02611593 -0.059798401 0.050936799
-0.02611593 -0.059798401 0.050936799
-0.02611593 -0.059798401 0.050936799
-0.02611593 -0.059798401 0.050936799
-0.02611593 -0.059798401 0.050936799
-0.02611593 -0.059798401 0.050936799
-0.02611593 -0.059798401 0.050936799
-0.0055267829 -0.011347779 -0.033600919
-0.02611593 -0.059798401 0.050936799
-0.02611593 -0.059798401 0.050936799
-0.02611593 -0.059798401 0.050936799
-0.02611593 -0.059798401 0.050936799
-0.02611593 -0.059798401 0.050936799
-0.02611593 -0.059798401 0.050936799
-0.02611593 -0.059798401 0.050936799
-0.0095447749 -0.011315335 -0.034525417
-0.02611593 -0.059798401 0.050936799
-0.02611593 -0.059798401 0.050936799
-0.02611593 -0.059798401 0.050936799
-0.02611593 -0.059798401 0.050936799
-0.02611593 -0.059798401 0.050936799
-0.02611593 -0.059798401 0.050936799
-0.02611593 -0.059798401 0.050936799
-0.013562765 -0.01128289 -0.035449915
-0.02611593 -0.059798401 0.050936799
-0.02611593 -0.059798401 0.050936799
-0.02611593 -0.059798401 0.050936799
-0.02611593 -0.059798401 0.050936799
-0.02611593 -0.059798401 0.050936799
-0.02611593 -0.059798401 0.050936799
-0.02611593 -0.059798401 0.050936799
-0.02611593 -0.059798401 0.050936799
-0.02611593 -0.059798401 0.050936799
-0.02611593 -0.059798401 0.050936799
-0.02611593 -0.059798401 0.050936799
-0.02611593 -0.059798401 0.050936799
-0.02611593 -0.059798401 0.050936799
-0.02611593 -0.059798401 0.050936799
-0.02611593 -0.059798401 0.050936799
-0.02611593 -0.059798401 0.050936799
-0.02611593 -0.059798401 0.050936799
-0.02611593 -0.059798401 0.050936799
-0.02611593 -0.059798401 0.050936799
-0.02611593 -0.059798401 0.050936799
-0.02611593 -0.059798401 0.050936799
-0.02611593 -0.059798401 0.050936799
-0.02611593 -0.059798401 0.050936799
-0.02611593 -0.059798401 0.050936799
-0.02611593 -0.059798401 0.050936799
-0.02611593 -0.059798401 0.050936799
-0.02611593 -0.059798401 0.050936799
-0.02611593 -0.059798401 0.050936799
-0.02611593 -0.059798401 0.050936799
-0.02611593 -0.059798401 0.050936799
-0.02611593 -0.059798401 0.050936799
-0.02611593 -0.059798401 0.050936799
-0.02611593 -0.059798401 0.050936799
-0.02611593 -0.059798401 0.050936799
-0.02611593 -0.059798401 0.050936799
-0.02611593 -0.059798401 0.050936799
-0.02611593 -0.059798401 0.050936799
-0.02611593 -0.059798401 0.050936799
-0.02611593 -0.059798401 0.050936799
-0.02611593 -0.059798401 0.050936799
-0.02611593 -0.059798401 0.050936799
-0.02611593 -0.059798401 0.050936799
-0.02611593 -0.059798401 0.050936799
-0.02611593 -0.059798401 0.050936799
-0.02611593 -0.059798401 0.050936799
-0.02611593 -0.059798401 0.050936799
-0.02611593 -0.059798401 0.050936799
-0.02611593 -0.059798401 0.050936799
-0.02611593 -0.059798401 0.050936799
-0.02611593 -0.059798401 0.050936799
-0.02611593 -0.059798401 0.050936799
-0.02611593 -0.059798401 0.050936799
-0.02611593 -0.059798401 0.050936799
-0.02611593 -0.059798401 0.050936799
-0.02611593 -0.059798401 0.050936799
-0.040591344 -0.010149981 -0.036923878
-0.02611593 -0.059798401 0.050936799
-0.02611593 -0.059798401 0.050936799
-0.02611593 -0.059798401 0.050936799
-0.02611593 -0.059798401 0.050936799
-0.02611593 -0.059798401 0.050936799
-0.02611593 -0.059798401 0.050936799
-0.02611593 -0.059798401 0.050936799
-0.044538371 -0.011189722 -0.033867747
-0.02611593 -0.059798401 0.050936799
-0.02611593 -0.059798401 0.050936799
-0.02611593 -0.059798401 0.050936799
-0.02611593 -0.059798401 0.050936799
-0.02611593 -0.059798401 0.050936799
-0.02611593 -0.059798401 0.050936799
-0.02611593 -0.059798401 0.050936799
-0.04957097 -0.01013577 -0.035755098
-0.02611593 -0.059798401 0.050936799
-0.02611593 -0.059798401 0.050936799
-0.02611593 -0.059798401 0.050936799
-0.02611593 -0.059798401 0.050936799
-0.02611593 -0.059798401 0.050936799
-0.02611593 -0.059798401 0.050936799
-0.02611593 -0.059798401 0.050936799
-0.053551521 -0.010139503 -0.034680277
-0.02611593 -0.059798401 0.050936799
-0.02611593 -0.059798401 0.050936799
-0.02611593 -0.059798401 0.050936799
-0.02611593 -0.059798401 0.050936799
-0.02611593 -0.059798401 0.050936799
-0.02611593 -0.059798401 0.050936799
-0.02611593 -0.059798401 0.050936799
-0.056513522 -0.010164915 -0.032624587
-0.02611593 -0.059798401 0.050936799
-0.02611593 -0.059798401 0.050936799
-0.02611593 -0.059798401 0.050936799
-0.02611593 -0.059798401 0.050936799
-0.02611593 -0.059798401 0.050936799
-0.02611593 -0.059798401 0.050936799
-0.02611593 -0.059798401 0.050936799
-0.061512612 -0.01014697 -0.032530632
-0.02611593 -0.059798401 0.050936799
-0.02611593 -0.059798401 0.050936799
-0.02611593 -0.059798401 0.050936799
-0.02611593 -0.059798401 0.050936799
-0.02611593 -0.059798401 0.050936799
-0.02611593 -0.059798401 0.050936799
-0.02611593 -0.059798401 0.050936799
-0.06447462 -0.010172381 -0.030474927
-0.02611593 -0.059798401 0.050936799
-0.02611593 -0.059798401 0.050936799
-0.02611593 -0.059798401 0.050936799
-0.02611593 -0.059798401 0.050936799
-0.02611593 -0.059798401 0.050936799
-0.02611593 -0.059798401 0.050936799
-0.072439641 -0.011179678 -0.028343301
-0.072565854 -0.0050359857 -0.03623249
-0.02611593 -0.059798401 0.050936799
-0.02611593 -0.059798401 0.050936799
-0.02611593 -0.059798401 0.050936799
-0.02611593 -0.059798401 0.050936799
-0.02611593 -0.059798401 0.050936799
-0.02611593 -0.059798401 0.050936799
-0.07643497 -0.010165492 -0.028250124
-0.07652767 -0.005057808 -0.034158003
-0.02611593 -0.059798401 0.050936799
-0.065439999 -0.0061875624 -0.029384408
-0.02611593 -0.059798401 0.050936799
-0.02611593 -0.059798401 0.050936799
-0.073472053 -0.0051228423 -0.031215388
-0.02611593 -0.059798401 0.050936799
-0.081392691 -0.0091838986 -0.026138831
-0.080489501 -0.0050796308 -0.032083519
-0.02611593 -0.059798401 0.050936799
-0.071464568 -0.0031303624 -0.031216931
-0.02611593 -0.059798401 0.050936799
-0.02611593 -0.059798401 0.050936799
-0.075385928 -0.0072057713 -0.026215538
-0.02611593 -0.059798401 0.050936799
-0.086383916 -0.0071662925 -0.026008841
-0.087513871 -0.0020188382 -0.033897247
-0.02611593 -0.059798401 0.050936799
-0.07339716 -0.0051951986 -0.027216744
-0.02611593 -0.059798401 0.050936799
-0.02611593 -0.059798401 0.050936799
-0.081410497 -0.0041485676 -0.028048057
-0.02611593 -0.059798401 0.050936799
-0.093412228 -0.0051053311 -0.027840592
-0.093504921 2.3491448e-06 -0.03374847
-0.02611593 -0.059798401 0.050936799
-0.080421545 -0.002134406 -0.029030476
-0.02611593 -0.059798401 0.050936799
-0.02611593 -0.059798401 0.050936799
-0.086386926 -0.003148885 -0.026936427
-0.02611593 -0.059798401 0.050936799
-0.10039916 -0.0020807167 -0.027654998
-0.098462641 0.0009839501 -0.031637181
-0.02611593 -0.059798401 0.050936799
-0.084402092 -0.0021381392 -0.027955648
-0.02611593 -0.059798401 0.050936799
-0.02611593 -0.059798401 0.050936799
-0.090348758 -0.0031707073 -0.024861947
-0.02611593 -0.059798401 0.050936799
-0.10637149 -7.7618402e-05 -0.026506562
-0.10648291 0.0050481586 -0.033414099
-0.02611593 -0.059798401 0.050936799
-0.090374418 -0.00013504107 -0.026807211
-0.02611593 -0.059798401 0.050936799
-0.02611593 -0.059798401 0.050936799
-0.10040218 0.0019366877 -0.028582595
-0.02611593 -0.059798401 0.050936799
-0.11537285 0.0039720936 -0.027265031
-0.11040729 0.0049901577 -0.029340286
-0.02611593 -0.059798401 0.050936799
-0.093340345 -0.0011602793 -0.024769537
-0.02611593 -0.059798401 0.050936799
-0.02611593 -0.059798401 0.050936799
-0.10739303 0.0039614714 -0.028415021
-0.02611593 -0.059798401 0.050936799
-0.12132645 0.0059571103 -0.025116935
-0.1214418 0.010083056 -0.032042488
-0.02611593 -0.059798401 0.050936799
-0.10337504 0.0039290264 -0.027490515
-0.02611593 -0.059798401 0.050936799
-0.02611593 -0.059798401 0.050936799
-0.1164092 0.0090291034 -0.030155133
-0.02611593 -0.059798401 0.050936799
-0.13234225 0.011031913 -0.026819464
-0.13042836 0.013114842 -0.031819317
-0.02611593 -0.059798401 0.050936799
-0.10631833 0.0038855262 -0.024435166
-0.02611593 -0.059798401 0.050936799
-0.02611593 -0.059798401 0.050936799
-0.12033751 0.0079712719 -0.026099347
-0.02611593 -0.059798401 0.050936799
-0.14332059 0.016070545 -0.026522674
-0.14040691 0.018149877 -0.031541321
-0.02611593 -0.059798401 0.050936799
-0.11733806 0.0079605049 -0.026155718
-0.02611593 -0.059798401 0.050936799
-0.02611593 -0.059798401 0.050936799
-0.13133459 0.013027985 -0.026802216
-0.02611593 -0.059798401 0.050936799
-0.15428415 0.020091256 -0.025244247
-0.15340362 0.023213774 -0.03220661
-0.02611593 -0.059798401 0.050936799
-0.12632069 0.01199212 -0.025914527
-0.02611593 -0.059798401 0.050936799
-0.02611593 -0.059798401 0.050936799
-0.14029849 0.017041519 -0.02556137
-0.02611593 -0.059798401 0.050936799
-0.16827282 0.027158398 -0.025854707
-0.16334863 0.02721281 -0.029947311
-0.02611593 -0.059798401 0.050936799
-0.13632187 0.016045421 -0.02665421
-0.02611593 -0.059798401 0.050936799
-0.02611593 -0.059798401 0.050936799
-0.15329129 0.023105241 -0.026208639
-0.02611593 -0.059798401 0.050936799
-0.19127765 0.03929317 -0.028205287
-0.17933691 0.034287129 -0.030520193
-0.02611593 -0.059798401 0.050936799
-0.14831875 0.021105731 -0.027338296
-0.02611593 -0.059798401 0.050936799
-0.02611593 -0.059798401 0.050936799
-0.16929831 0.030197646 -0.027781181
-0.02611593 -0.059798401 0.050936799
-0.20924293 0.047356397 -0.02772291
-0.19831291 0.044371706 -0.030982647
-0.02611593 -0.059798401 0.050936799
-0.16229263 0.027154952 -0.026967116
-0.02611593 -0.059798401 0.050936799
-0.02611593 -0.059798401 0.050936799
-0.18325344 0.036228787 -0.026410349
-0.02611593 -0.059798401 0.050936799
-0.22714813 0.056365207 -0.024223529
-0.21323042 0.050370254 -0.027593695
-0.02611593 -0.059798401 0.050936799
-0.17222285 0.03013606 -0.023726173
-0.02611593 -0.059798401 0.050936799
-0.02611593 -0.059798401 0.050936799
-0.20524366 0.047342047 -0.027798072
-0.02611593 -0.059798401 0.050936799
-0.25610265 0.071484819 -0.024407994
-0.2391746 0.063461348 -0.026870899
-0.02611593 -0.059798401 0.050936799
-0.19724604 0.042296108 -0.027038824
-0.02611593 -0.059798401 0.050936799
-0.02611593 -0.059798401 0.050936799
-0.22616702 0.056379709 -0.025241986
-0.02611593 -0.059798401 0.050936799
-0.95527846 0.46361086 -0.20828673
-0.26408547 0.075512856 -0.024185598
-0.02611593 -0.059798401 0.050936799
-0.21720704 0.051366344 -0.026500847
-0.97693956 0.47239882 -0.1917166
-0.02611593 -0.059798401 0.050936799
-0.25813577 0.072527997 -0.026351713
-0.02611593 -0.059798401 0.050936799
-0.9805308 0.47101542 -0.16966687
-0.96916658 0.46756995 -0.20295323
-0.02611593 -0.059798401 0.050936799
-0.24515085 0.064464621 -0.025740467
-1.0061754 0.48381713 -0.1529495
-0.97878247 0.46924379 -0.1827361
-0.96742213 0.46479845 -0.21604051
-0.02611593 -0.059798401 0.050936799
-1.007771 0.4814266 -0.13095543
-0.99442285 0.4739747 -0.16435146
-0.9770419 0.4654724 -0.19584134
-0.95265919 0.45292753 -0.22653517
-1.0253806 0.4891462 -0.11147949
-1.0060306 0.47765529 -0.14406067
-0.98967206 0.46817479 -0.17654943
-0.9693073 0.45566252 -0.20816782
-1.0409758 0.4958407 -0.091059491
-1.0126321 0.47830042 -0.12291825
-0.99927312 0.46883076 -0.15535066
-0.98393703 0.45837206 -0.18883832
-1.0575668 0.50353849 -0.070602678
-1.0282351 0.48299518 -0.10253428
-1.0098701 0.47048995 -0.13411504
-0.99653363 0.46003851 -0.16756512
-1.0611314 0.50413668 -0.0475173
-1.0388055 0.48663601 -0.080262959
-1.025473 0.47518477 -0.11373106
-1.0041243 0.45866942 -0.14544027
-1.0777037 0.51181638 -0.026060827
-1.0544045 0.49233064 -0.059860982
-1.0380657 0.47785103 -0.09243986
-1.0187166 0.46134293 -0.12411147
-1.0952721 0.52049965 -0.0045675486
-1.075968 0.50202805 -0.038274527
-1.0456296 0.4784635 -0.069279306
-1.0302945 0.46298763 -0.10185739
-1.1068156 0.52612549 0.01875826
-1.0925256 0.50868988 -0.01583641
-1.0622098 0.48414361 -0.047858879
-1.0458828 0.46666449 -0.080491796
-1.1213508 0.53376204 0.042176466
-1.104073 0.51331604 0.0074713752
-1.0747612 0.4877736 -0.024550319
-1.0504365 0.4652485 -0.056424007
-1.135886 0.54139847 0.065594681
-1.1136062 0.51691711 0.031723216
-1.0943141 0.49544603 -0.0020378083
-1.0769991 0.47496384 -0.034743592
-1.1543939 0.55103081 0.09012375
-1.1291264 0.52353919 0.056141868
-1.1148295 0.50308597 0.022492804
-1.085544 0.4755618 -0.010564588
-1.2267367 0.59081566 0.11820739
-1.1456425 0.53116471 0.080597326
-1.1263622 0.50669414 0.046782222
-0.02611593 -0.059798401 0.050936799
-1.333886 0.64961439 0.15328902
-1.1601591 0.53878301 0.10501519
-1.1448368 0.51529044 0.073292606
-1.1215727 0.48680624 0.039330274
-1.3283707 0.64709026 0.18114954
-1.182606 0.5493753 0.13263643
-1.159361 0.52090919 0.097674444
-0.02611593 -0.059798401 0.050936799
-1.3348027 0.6525898 0.21037936
-1.2409307 0.5800572 0.16329381
-1.1838077 0.53150856 0.12533325
-1.1645392 0.50403851 0.09146411
-1.3213193 0.64705563 0.23703584
-1.3619454 0.64379674 0.20472655
-1.1922848 0.53505182 0.15256529
-1.1680329 0.50356448 0.11853012
-1.3187954 0.64654189 0.26498875
-1.3673483 0.64725691 0.23590088
-1.2146944 0.54560792 0.18218584
-1.193446 0.5131315 0.14818904
-1.3152678 0.64702451 0.29294091
-1.3598145 0.6447075 0.26472348
-1.2440498 0.56015223 0.21400933
-1.2138638 0.52168077 0.17773597
-1.3167088 0.65050638 0.32204074
-1.3642213 0.64716417 0.29586098
-1.3798923 0.62880003 0.26381132
-1.2372358 0.53220427 0.20937464
-1.2982714 0.64299077 0.34656793
-1.3586606 0.64660352 0.32575685
-1.4131228 0.64624977 0.30176198
-1.254602 0.53968865 0.24184617
-1.296717 0.6454621 0.37559333
-1.3570765 0.64703906 0.35674557
-1.4115238 0.64566731 0.33373237
-1.272964 0.54817647 0.27435452
-1.282267 0.64096034 0.40024972
-1.3376245 0.63850194 0.38223562
-1.4079103 0.64405978 0.3666468
-1.3619175 0.59066004 0.32280487
-1.2836853 0.64542401 0.43036723
-1.3350365 0.63993359 0.41322353
-1.3267976 0.60450447 0.37941694
-1.4587187 0.63804489 0.37849325
-1.2563404 0.63394904 0.45065457
-1.327495 0.63938391 0.44208217
-1.4026675 0.64485121 0.43258527
-1.3556906 0.58744854 0.3886525
-1.2647042 0.64240098 0.48297501
-1.3209343 0.63881969 0.47195926
-1.3940779 0.64224398 0.4643881
-1.4722576 0.64572245 0.45491153
-1.2453007 0.63591778 0.5055021
-1.3104198 0.63627774 0.49972585
-1.3854841 0.64063656 0.49620891
-1.4665885 0.6440534 0.49078736
-1.2437382 0.64038873 0.53456354
-1.3028594 0.63570988 0.52958417
-1.3768902 0.63902926 0.52802974
-1.4609153 0.64338428 0.52668118
-1.2263077 0.6358943 0.55816388
-1.2923409 0.63416773 0.55736876
-1.3682965 0.63742179 0.55985051
-1.4562422 0.64271873 0.56259382
-1.2217724 0.6383729 0.5861333
-1.2877494 0.63659203 0.58833706
-1.3606946 0.63781774 0.59172618
-1.4446006 0.63904661 0.59732127
-1.2004067 0.63191873 0.60662353
-1.2752353 0.63404286 0.6160661
-1.3491054 0.63519967 0.62347263
-1.4408818 0.64034814 0.635288
-1.1948717 0.63439375 0.63457412
-1.2636944 0.63347876 0.6448496
-1.3454578 0.63757342 0.65745878
-1.4312096 0.63966465 0.67110664
-1.1774558 0.63091719 0.65719283
-1.253172 0.63293636 0.67265218
-1.3318876 0.63496631 0.68816793
-1.4185829 0.63700682 0.70483369
-1.1689439 0.63239974 0.68406934
-1.237677 0.63039446 0.69932508
-1.3212862 0.63535142 0.71998721
-1.4108689 0.63729417 0.74270725
-1.154501 0.63091552 0.70778018
-1.225155 0.6298449 0.72709012
-1.3067163 0.63274074 0.75067759
-1.3972199 0.63561457 0.77743316
-1.1449893 0.63239443 0.73463792
-1.2136101 0.63028073 0.75589168
-1.2960963 0.63310772 0.7834965
-1.385548 0.63492393 0.81321418
-1.1266114 0.62895054 0.75523853
-1.1971341 0.62775326 0.78154618
-1.2815411 0.63151503 0.81320524
-1.368922 0.63225174 0.84686601
-1.1239811 0.63636315 0.78733426
-1.1836123 0.62720013 0.80929232
-1.2639866 0.62991148 0.8428576
-1.3592005 0.63453156 0.88473809
-1.0947449 0.62598938 0.80160403
-1.1730406 0.62962109 0.8391484
-1.2484128 0.62829709 0.87354726
-1.3415748 0.63185591 0.91837108
-1.0842482 0.62848276 0.82746142
-1.1545838 0.62710458 0.86376566
-1.2328539 0.62770063 0.90325522
-1.321987 0.62920922 0.94996715
-1.067843 0.62702751 0.84913528
-1.1371039 0.62557334 0.88941938
-1.2231658 0.63101637 0.93914598
-1.3063118 0.62950397 0.98569113
-1.057305 0.6304844 0.87700993
-1.119643 0.62406033 0.91407347
-1.1947825 0.62451887 0.96050429
-1.2837245 0.62684655 1.0172309
-1.0300791 0.6221357 0.89035374
-1.0962696 0.61959863 0.93456209
-1.1831362 0.62686396 0.99434006
-1.2641327 0.62519968 1.0488449
-1.0215142 0.62758136 0.91930169
-1.0846756 0.6229977 0.96541697
-1.1626196 0.62528586 1.0219368
-1.2425228 0.62352747 1.0814211
-0.99526161 0.62121773 0.93369997
-1.0642564 0.62051022 0.98799723
-1.140126 0.62271875 1.0484782
-1.2209127 0.62185532 1.1139973
-0.98667783 0.62664533 0.96364754
-1.0437961 0.61898637 1.0125949
-1.1176325 0.62015176 1.0750196
-1.1993175 0.62120116 1.1455919
-0.96142513 0.62028527 0.9780646
-1.0253273 0.6194694 1.0372663
-1.1010244 0.62251502 1.1067623
-1.17181 0.6175983 1.1730211
-0.9518376 0.6267091 1.0080115
-1.0039045 0.61797816 1.0598459
-1.0795039 0.6219331 1.1343582
-1.1472565 0.61596966 1.2025419
-0.91975564 0.61546952 1.0142095
-0.98641694 0.61844665 1.0855356
-1.0560067 0.62036228 1.1608987
-1.1275783 0.61724991 1.2382087
-0.91110396 0.62384236 1.0472102
-0.96203595 0.61598098 1.1060416
-1.0335051 0.61979496 1.1874762
-1.1000628 0.61564672 1.2656739
-0.88294935 0.61656213 1.0565546
-0.93863225 0.61450058 1.1275839
-1.0090266 0.61823869 1.2129985
-1.0745057 0.61501431 1.2951939
-0.86744952 0.62003732 1.0823359
-0.92109925 0.61693269 1.1553091
-0.98258603 0.61671144 1.2364836
-1.0469717 0.61339295 1.3236588
-0.84223032 0.61471325 1.0947717
-0.89575595 0.61449957 1.1737968
-0.95908076 0.61714029 1.2630605
-1.0203922 0.61373872 1.3541777
-0.82379127 0.61723214 1.1174798
-0.8733294 0.61400455 1.1963755
-0.93164033 0.61560941 1.2865268
-0.98993731 0.61117917 1.3785695
-0.80050373 0.61486048 1.1330061
-0.84798217 0.61257124 1.2148813
-0.90521836 0.61410028 1.3090125
-0.96139956 0.6105541 1.4070334
-0.78593969 0.62028462 1.1618413
-0.82263494 0.61113805 1.2333871
-0.877774 0.61356926 1.3324971
-0.92994106 0.60899079 1.4314244
-0.75584173 0.61305153 1.168149
-0.79729158 0.60870498 1.2518749
-0.85034829 0.61305624 1.3549819
-0.89750147 0.60744202 1.454797
-0.74323207 0.62044638 1.1990572
-0.77385741 0.61020607 1.274471
-0.81998718 0.61058718 1.3743753
-0.86893708 0.6087985 1.4842968
-0.71411115 0.61419857 1.2064015
-0.75234383 0.61264175 1.3011212
-0.79347855 0.61200517 1.4009137
-0.83645612 0.60821331 1.5096867
-0.69656646 0.6196301 1.2341807
-0.72214043 0.60831773 1.3124813
-0.76025701 0.60765219 1.4132172
-0.8049711 0.60863161 1.5351133
-0.6664871 0.61241508 1.2394888
-0.6986835 0.6108005 1.3360951
-0.73372567 0.61005187 1.4407731
-0.77056932 0.60711175 1.5564489
-0.64893854 0.61884636 1.2672861
-0.67232859 0.61136335 1.3546182
-0.70145857 0.60766602 1.4551307
-0.73328835 0.60369003 1.5716943
-0.61504406 0.60778046 1.26345
-0.64403808 0.60997361 1.3700686
-0.67298776 0.60911292 1.4796321
-0.70078087 0.60508645 1.5981199
-0.5983938 0.61612457 1.2963003
-0.61474782 0.60858023 1.3855002
-0.63970208 0.60670543 1.4949706
-0.66447312 0.60364991 1.6144197
-0.5664537 0.60702932 1.2945371
-0.58548015 0.60620517 1.3999141
-0.60641247 0.60529774 1.510327
-0.62521112 0.60023916 1.6286277
-0.5478639 0.61442065 1.3243328
-0.55907989 0.60873151 1.4204725
-0.57408136 0.60485733 1.5277196
-0.58890337 0.59880263 1.6449274
-0.51492012 0.60632169 1.3225689
-0.52978569 0.608338 1.4359223
-0.53982943 0.60348219 1.5410581
-0.55063337 0.59739506 1.6591902
-0.49532658 0.61470926 1.3523639
-0.49861196 0.60604614 1.4453003
-0.50655842 0.60209256 1.5554149
-0.51423901 0.5988856 1.6795427
-0.46344659 0.6046685 1.3475838
-0.46933639 0.60567075 1.4597503
-0.47230652 0.60071748 1.5687532
-0.47407088 0.59556168 1.6887337
-0.43906474 0.60722011 1.3671801
-0.43812135 0.60434258 1.4711456
-0.43806934 0.60036033 1.5811099
-0.43673667 0.59610319 1.7060504
-0.41090924 0.6049571 1.3756149
-0.40688363 0.60399622 1.4835588
-0.40285498 0.5990178 1.5924301
-0.3975004 0.59572804 1.7183131
-0.38548225 0.60946864 1.3972278
-0.37666836 0.60267162 1.4949729
-0.36855775 0.59960622 1.6078038
-0.35830554 0.59438926 1.7285585
-0.35551131 0.60336202 1.3965559
-0.34444952 0.60233968 1.5063677
-0.33239973 0.5983144 1.6161064
-0.31808817 0.59402859 1.7398028
-0.32643479 0.60016799 1.4009553
-0.31235093 0.60011673 1.5117283
-0.29715884 0.59895343 1.6284623
-0.27797231 0.59175879 1.7460127
-0.29912841 0.60278118 1.4164966
-0.28109056 0.600752 1.525159
-0.26195928 0.59862888 1.638801
-0.23776975 0.59241605 1.7562754
-0.26999179 0.60053277 1.4239129
-0.24792811 0.60047072 1.5335358
-0.22486158 0.59638792 1.6440676
-0.19663139 0.59112436 1.7634842
-0.24086994 0.59930217 1.4303477
-0.21582945 0.59824783 1.5388964
-0.18863954 0.59704143 1.655405
-0.15641011 0.59176356 1.7747467
-0.21254109 0.60289347 1.4468879
-0.18254681 0.59985763 1.5533073
-0.15153401 0.59680009 1.6607078
-0.11448967 0.58766776 1.7708864
-0.18254355 0.59876841 1.4472517
-0.14948188 0.59866703 1.5566679
-0.11443235 0.595559 1.6659924
-0.074301906 0.58934301 1.7801673
-0.15331633 0.60044694 1.4587387
-0.11639823 0.59745836 1.5610281
-0.077428252 0.59340841 1.666261
-0.032215986 0.58910185 1.7843765
-0.12325479 0.59826726 1.4621375
-0.082232013 0.59817332 1.5694041
-0.040303968 0.59314895 1.6725633
0.0087913126 0.58793682 1.7845877
-0.093069121 0.59897852 1.4715885
-0.049189754 0.59600091 1.5717471
-0.0023148488 0.59201276 1.6718313
0.048780061 0.58679342 1.783818
-0.063003644 0.59779865 1.4750055
-0.01418528 0.59385759 1.572053
0.034790721 0.59177142 1.6771339
0.090832479 0.58758825 1.7860459
-0.031979728 0.59565151 1.4763862
0.018823475 0.59272122 1.5724145
0.072821215 0.59159887 1.6784192
0.13176095 0.58549571 1.7822404
-0.00080904178 0.59737718 1.4848367
0.052974891 0.59445411 1.579809
0.10977306 0.59050244 1.6757066
0.11691248 0.40333742 1.2930576
0.029279083 0.597179 1.4892713
0.086960815 0.59233248 1.579134
0.14655943 0.58555138 1.6649246
0.14679074 0.40233845 1.2864779
0.060302995 0.59503192 1.490652
0.12205195 0.59311622 1.5834928
-0.02611593 -0.059798401 0.050936799
0.25666711 0.58611917 1.7759111
0.092413411 0.59580833 1.4960666
-0.02611593 -0.059798401 0.050936799
0.22378963 0.59005713 1.6755638
0.29417941 0.57841831 1.751061
0.1108523 0.53798622 1.370633
0.19208051 0.59382862 1.5841947
0.26168907 0.59001124 1.6698514
0.32618916 0.56218916 1.7011511
0.12547614 0.48401499 1.2543435
0.2270741 0.59370303 1.583537
0.27291638 0.53543085 1.5326074
0.37920612 0.58409417 1.7505716
0.18973358 0.6001519 1.5113283
0.25861707 0.58398789 1.5607631
0.3374801 0.58791971 1.6583908
0.42006758 0.58407366 1.7428035
0.22274625 0.6000154 1.5117079
0.29581717 0.58867335 1.5701545
0.37540215 0.58885556 1.6536961
0.45986912 0.58311117 1.7320372
0.25461629 0.59700966 1.5050546
0.33293843 0.59243131 1.5755293
0.41330162 0.58880961 1.6479838
0.49965584 0.5831666 1.7202895
0.28767037 0.59783673 1.5074517
0.36779708 0.59143251 1.5678558
0.44906247 0.58689779 1.6352752
0.53941995 0.58224028 1.7075238
0.32166803 0.59871453 1.5068308
0.4027532 0.5913431 1.565199
0.48692057 0.58588815 1.6275456
0.57816935 0.58233547 1.6937953
0.35247818 0.59476674 1.497179
0.43861163 0.59034073 1.5575069
0.52476776 0.58689636 1.6188523
0.61689621 0.58144891 1.6790494
0.38753578 0.59658659 1.4995565
0.47349289 0.59032363 1.5508512
0.56047249 0.58503878 1.6031449
-0.02611593 -0.059798401 0.050936799
0.42039084 0.59459502 1.4919028
0.5072729 0.5884009 1.5391799
0.41824955 0.39874366 1.1492839
0.6168682 0.51306462 1.4777445
0.45220864 0.59264338 1.4822685
0.54421777 0.59032208 1.5355219
0.39689663 0.35391816 1.0328333
0.71950459 0.57136184 1.6059209
0.48512772 0.59259731 1.4776498
-0.02611593 -0.059798401 0.050936799
0.58818716 0.50977236 1.3891919
0.7676475 0.58107936 1.611197
0.51900911 0.59258384 1.4710129
0.42604575 0.39886925 1.0851185
0.70240086 0.58152121 1.5454044
0.80326247 0.58031213 1.5905094
-0.02611593 -0.059798401 0.050936799
0.58801144 0.53202182 1.3755932
0.73919207 0.58258718 1.5337309
0.83889627 0.57952672 1.5708214
0.41573897 0.41124678 1.066529
0.68031973 0.58766288 1.4869092
0.77388602 0.58275104 1.5170786
0.87451518 0.57975936 1.5501516
0.58926016 0.56188643 1.3831125
0.71510738 0.58773631 1.4752551
0.80962133 0.58387488 1.502425
0.91011548 0.58001 1.5284824
0.6492728 0.58778381 1.4314739
0.74883509 0.58686775 1.460603
0.84633368 0.5840134 1.4867349
0.94473851 0.58124608 1.5078496
0.68518049 0.58974469 1.425835
0.78256667 0.58699894 1.4459687
0.87790811 0.58229697 1.4641049
0.9762193 0.57961994 1.4802213
0.71798724 0.58980715 1.4152184
0.81421596 0.58521003 1.4273376
0.90950906 0.58256197 1.4425106
1.0098011 0.57989591 1.4575899
0.74969268 0.58796394 1.399586
0.847929 0.58535933 1.4117038
0.94416559 0.58276194 1.4238591
1.0433495 0.58120775 1.4329771
0.78660405 0.59092116 1.3939465
0.88168323 0.58647233 1.3980874
0.9757666 0.58302701 1.402265
1.0738531 0.58056706 1.4063854
0.82033181 0.59005249 1.3792944
0.91123533 0.58378124 1.3744774
1.0083447 0.58230662 1.3796344
1.1064017 0.58188254 1.3817915
0.8510226 0.58923084 1.3626994
0.94699323 0.58588678 1.3608414
1.0420094 0.58450985 1.3610375
1.1348494 0.58130324 1.3522384
0.88579547 0.59032214 1.3500638
0.9775905 0.58515561 1.3392479
1.0694683 0.58191639 1.3324668
1.1653383 0.58168042 1.3246651
0.91848594 0.58949327 1.333431
1.0071652 0.58344626 1.3166556
1.1041138 0.58413416 1.3128518
1.1958498 0.58303922 1.2981094
0.9501766 0.58866805 1.3168172
1.0398262 0.58465332 1.2980597
1.1326219 0.58450037 1.2863156
1.2243016 0.58345973 1.2685742
0.9859345 0.5907737 1.3031812
1.0755278 0.58681309 1.2814248
1.1611257 0.58386678 1.2597613
1.2537946 0.58484036 1.2410377
1.013487 0.58808976 1.2796087
1.1030506 0.58616501 1.2558891
1.1926932 0.58516783 1.2361859
1.2792054 0.58430791 1.2095417
1.0461439 0.58829689 1.2609948
1.1366926 0.58738655 1.2362747
1.2201639 0.58557385 1.2076693
1.3056426 0.58575362 1.1790625
1.0788008 0.58850408 1.2423807
1.163197 0.5867601 1.2097582
1.2517165 0.58789271 1.1831123
1.3300576 0.58622462 1.1476032
1.107361 0.58781618 1.2188257
1.1937606 0.58706486 1.1861833
1.2792059 0.58828062 1.1555952
1.3554726 0.58669209 1.1161251
1.1379582 0.58708501 1.1972321
1.2222648 0.58643132 1.1596292
1.3076991 0.58966482 1.1280775
1.3758096 0.58624995 1.0807245
1.1675221 0.5873934 1.1736764
1.2497728 0.58680117 1.133112
1.3280507 0.58820486 1.0936583
1.39921 0.58774251 1.0483023
1.2011453 0.58863294 1.1530623
1.2772809 0.58717096 1.1065946
1.3524805 0.58765793 1.0631807
1.418547 0.587304 1.0129204
1.2306865 0.58795959 1.1284887
1.3098334 0.5894863 1.0820187
1.3789366 0.58908546 1.0337012
1.4389067 0.58784372 0.97853726
1.2602319 0.5882861 1.1039331
1.3332634 0.588943 1.0515598
1.39727 0.58765072 0.99832004
1.4592662 0.58838332 0.94415414
1.2897582 0.58863068 1.0783777
1.3617752 0.59030908 1.0250417
1.4247484 0.59005642 0.96983939
1.4765849 0.58797008 0.90781015
1.3243704 0.59188437 1.0567813
1.3872088 0.59075844 0.99456334
1.4451041 0.58959621 0.93543833
1.4939302 0.58953846 0.87250179
1.351837 0.59129053 1.0282466
1.4126424 0.5912078 0.96408492
1.4644638 0.59013951 0.90107405
1.51329 0.59008169 0.83813751
1.3803076 0.59169298 0.99971116
1.4330316 0.58971167 0.93166518
1.4878832 0.59161395 0.86965156
1.5255723 0.58972263 0.79988807
1.4077783 0.59209895 0.97119457
1.4604726 0.59215349 0.90118521
1.5052207 0.59118265 0.83430719
1.5429176 0.59129095 0.76457977
1.4321893 0.59157014 0.93971729
1.4788245 0.59070069 0.86680371
1.5245656 0.59274381 0.79896122
1.5552186 0.59091377 0.72732997
1.4566004 0.59104139 0.90824002
1.4981804 0.59024411 0.83242142
1.5419071 0.59331232 0.76363492
1.5695457 0.592511 0.69107836
1.4809927 0.59053069 0.87576306
1.5225806 0.59173304 0.79998046
1.5572261 0.5929063 0.72732842
1.5818505 0.59313357 0.65384662
1.5104522 0.59294724 0.84624517
1.5449586 0.59224743 0.76655948
1.573549 0.5934965 0.6910212
1.5931369 0.59377795 0.61563396
1.5348445 0.59243655 0.81376827
1.5643036 0.59380859 0.73121357
1.5878721 0.59409386 0.65475148
1.6064643 0.59537876 0.57940114
1.5582036 0.59296548 0.77932882
1.585667 0.59534448 0.69682968
1.6031952 0.59468758 0.6184631
1.6227989 0.59896845 0.54314792
1.5856032 0.59444362 0.74683154
1.6039855 0.59492767 0.66046685
1.619522 0.59627765 0.58217388
1.6321044 0.59960186 0.50597262
1.6069252 0.59501588 0.71043032
1.6243342 0.59748513 0.62512016
1.6338304 0.59789294 0.54492259
1.6423949 0.60124958 0.4677968
1.628266 0.59557003 0.67502886
1.6426607 0.59906793 0.58879334
1.6461353 0.59851557 0.50769085
1.649686 0.60290802 0.42967737
1.6485881 0.59614587 0.63864642
1.6579611 0.59868002 0.55148721
1.6614476 0.60112709 0.47043878
1.647944 0.60061759 0.39065531
1.6749357 0.59868175 0.60318702
1.6732506 0.60030979 0.51321751
1.6707156 0.60179663 0.43126407
1.6431614 0.59737432 0.34967229
1.6911985 0.59832644 0.56386268
1.6885362 0.60093975 0.47492972
1.685028 0.60441178 0.39403078
-0.02611593 -0.059798401 0.050936799
1.7135055 0.599913 0.52646112
1.7018223 0.60157692 0.43667951
1.6802413 0.60016865 0.35302973
1.014133 0.34869957 0.18889663
1.7327756 0.60154647 0.48711652
1.7150934 0.60323191 0.39744771
1.06674 0.36196789 0.21816161
1.006673 0.34615934 0.16498224
1.7429941 0.59924918 0.44586968
1.7243201 0.60293788 0.35625568
1.0381511 0.34959519 0.18946335
0.87379622 0.2943114 0.12952016
1.7642677 0.60187536 0.40650555
-0.02611593 -0.059798401 0.050936799
0.99955219 0.33425888 0.16089891
0.78716898 0.26011437 0.10351464
1.2117833 0.39454085 0.26605147
1.0430813 0.34161475 0.18722591
0.87370473 0.28536719 0.12635902
0.76578182 0.25153497 0.084753521
-0.02611593 -0.059798401 0.050936799
1.00346 0.32530031 0.1576626
0.8041206 0.2580899 0.10115984
0.75140905 0.24692976 0.065932937
1.1263014 0.3581512 0.19496956
0.8726055 0.27442691 0.1231806
0.77971131 0.24853952 0.081437409
0.74408412 0.24526273 0.049034189
0.96722955 0.29856071 0.15085493
0.81606132 0.25308385 0.098844945
0.7713452 0.24591239 0.062540121
0.75978649 0.25151181 0.031847414
0.86347342 0.25953412 0.1190808
0.82971865 0.25737661 0.079660393
0.76700109 0.2442527 0.044585347
0.75045806 0.2488521 0.014968239
0.8640722 0.25791073 0.098033085
0.82133007 0.25376779 0.05974542
0.76167583 0.24257852 0.027649023
0.75415075 0.25214478 -0.0020471066
0.86167145 0.25629809 0.077041753
0.79794317 0.24519555 0.041021876
0.77335632 0.24786019 0.009519726
0.75982451 0.25544834 -0.020099692
0.84323144 0.24876206 0.055243295
0.81759256 0.25248438 0.020778971
0.76801234 0.24620409 -0.0084162541
0.7724939 0.26274416 -0.0392114
0.82983583 0.24317148 0.035386238
0.8162331 0.25183183 0.0017861836
0.76867908 0.24752592 -0.02641093
0.86406457 0.30095017 -0.070245266
0.8074488 0.23459564 0.016643899
0.78786194 0.24225958 -0.015861765
0.8073042 0.26379928 -0.049847666
0.8087675 0.28036824 -0.081586108
0.8210727 0.23992443 -0.0045219585
0.78950971 0.24359596 -0.034874886
0.90584409 0.30401602 -0.082976349
0.79145145 0.27571955 -0.097351342
0.81669116 0.23830092 -0.024476051
0.93800962 0.29972097 -0.073653102
0.82456857 0.27347481 -0.09100984
0.77515382 0.27104914 -0.11213569
0.98518044 0.29737177 -0.064575687
0.93259084 0.29813725 -0.095587745
0.80224556 0.26684436 -0.10671715
0.71794689 0.24938405 -0.11845867
0.97872448 0.29582775 -0.088490859
0.82336009 0.25862569 -0.099258617
0.75101173 0.24819344 -0.11509813
0.68972945 0.24066697 -0.12809132
0.88442469 0.26335162 -0.097315751
0.78206527 0.24401048 -0.11175406
0.74966019 0.24954054 -0.13405488
0.69140381 0.24398488 -0.14606872
0.82811302 0.24379112 -0.10961945
0.78868651 0.24836458 -0.13280642
0.73138165 0.24485923 -0.147802
0.7687968 0.27940449 -0.18589053
0.82173181 0.24217479 -0.12953597
0.86307925 0.27877769 -0.17166227
0.81473613 0.28029349 -0.18973586
0.79931104 0.29581511 -0.21517491
0.96489865 0.294626 -0.18528655
0.83674902 0.27016199 -0.18733045
0.79742008 0.27564475 -0.20550108
0.20479272 0.040744826 -0.028594658
0.89767081 0.27201506 -0.19243927
0.81943291 0.26551324 -0.20309567
0.78211141 0.27298856 -0.22126788
0.2086688 0.042856745 -0.035631411
0.8334651 0.25037509 -0.19863072
0.79512894 0.25887191 -0.21776578
0.20868661 0.037821423 -0.033722185
-0.02611593 -0.059798401 0.050936799
0.83803046 0.25479063 -0.22264448
0.21366999 0.03380416 -0.033888213
0.19663173 0.032901518 -0.035586111
0.17466141 0.029944811 -0.033227459
0.19479091 0.020711755 -0.024768479
0.20362258 0.030876741 -0.035753682
-0.02611593 -0.059798401 0.050936799
-0.02611593 -0.059798401 0.050936799
0.19766715 0.022827273 -0.031786442
-0.02611593 -0.059798401 0.050936799
0.17158614 0.02501069 -0.036260165
0.15560387 0.024050195 -0.034977868
-0.02611593 -0.059798401 0.050936799
