# .PCD v0.7 - Point Cloud Data file format
VERSION 0.7
FIELDS x y z
SIZE 4 4 4
TYPE F F F
COUNT 1 1 1
WIDTH 1358
HEIGHT 1
VIEWPOINT 0 0 0 1 0 0 0
POINTS 1358
DATA ascii
0.21009399 0.1367829 -0.030957479
0.19107388 0.13085212 -0.030708574
0.17405345 0.12491415 -0.030497245
0.20610766 0.12574488 -0.028081544
0.19603856 0.12685294 -0.031874266
-0.02611593 -0.059798401 0.050936799
-0.02611593 -0.059798401 0.050936799
0.19502211 0.11783997 -0.031017974
-0.02611593 -0.059798401 0.050936799
0.16799259 0.11395564 -0.03158237
0.14801708 0.10497468 -0.02836974
-0.02611593 -0.059798401 0.050936799
0.16199881 0.10092511 -0.028704882
-0.02611593 -0.059798401 0.050936799
-0.02611593 -0.059798401 0.050936799
0.16197132 0.093926303 -0.028831013
-0.02611593 -0.059798401 0.050936799
0.14294127 0.095030516 -0.030455291
0.13195415 0.093052223 -0.029284973
-0.02611593 -0.059798401 0.050936799
0.13993999 0.085006796 -0.028579786
-0.02611593 -0.059798401 0.050936799
-0.02611593 -0.059798401 0.050936799
0.14389004 0.082029134 -0.03070832
-0.02611593 -0.059798401 0.050936799
0.12491222 0.082079232 -0.02935164
0.11691763 0.083107769 -0.029183298
-0.02611593 -0.059798401 0.050936799
0.12685479 0.077109091 -0.03147864
-0.02611593 -0.059798401 0.050936799
-0.02611593 -0.059798401 0.050936799
0.12483852 0.068099707 -0.030603558
-0.02611593 -0.059798401 0.050936799
0.10985698 0.072152853 -0.030249629
0.1058547 0.076184615 -0.031102058
-0.02611593 -0.059798401 0.050936799
0.10982949 0.065154046 -0.03037576
-0.02611593 -0.059798401 0.050936799
-0.02611593 -0.059798401 0.050936799
0.10779843 0.057162575 -0.030482322
-0.02611593 -0.059798401 0.050936799
0.09981259 0.065208025 -0.031187519
0.091855429 0.06620039 -0.029019851
-0.02611593 -0.059798401 0.050936799
0.09579277 0.05520599 -0.030292876
-0.02611593 -0.059798401 0.050936799
-0.02611593 -0.059798401 0.050936799
0.092799343 0.047181942 -0.028381333
-0.02611593 -0.059798401 0.050936799
0.086798348 0.056238119 -0.03010574
0.081829764 0.059237465 -0.028958075
-0.02611593 -0.059798401 0.050936799
0.083782271 0.04723233 -0.029211875
-0.02611593 -0.059798401 0.050936799
-0.02611593 -0.059798401 0.050936799
0.079770304 0.039229952 -0.028281204
-0.02611593 -0.059798401 0.050936799
0.072799079 0.046253882 -0.028023541
0.071804106 0.052274548 -0.028896298
-0.02611593 -0.059798401 0.050936799
0.073745742 0.04228716 -0.030113723
-0.02611593 -0.059798401 0.050936799
-0.02611593 -0.059798401 0.050936799
0.06875962 0.031252712 -0.027218997
-0.02611593 -0.059798401 0.050936799
0.064780906 0.041283455 -0.027963307
0.063804649 0.047286019 -0.027836405
-0.02611593 -0.059798401 0.050936799
0.063738801 0.035306148 -0.029052287
-0.02611593 -0.059798401 0.050936799
-0.02611593 -0.059798401 0.050936799
0.058756612 0.025271527 -0.026139535
-0.02611593 -0.059798401 0.050936799
0.056762733 0.036313012 -0.027903076
0.05480146 0.041301254 -0.026775744
-0.02611593 -0.059798401 0.050936799
0.055724554 0.031335544 -0.028974038
-0.02611593 -0.059798401 0.050936799
-0.02611593 -0.059798401 0.050936799
0.051727388 0.022315245 -0.027061723
-0.02611593 -0.059798401 0.050936799
0.05073332 0.033353142 -0.028844047
0.04780183 0.036309134 -0.025734637
-0.02611593 -0.059798401 0.050936799
0.045751132 0.023318522 -0.025931291
-0.02611593 -0.059798401 0.050936799
-0.02611593 -0.059798401 0.050936799
0.042742912 0.016312391 -0.025001392
-0.02611593 -0.059798401 0.050936799
0.042752597 0.028346522 -0.026784495
0.041791134 0.033331174 -0.025675945
-0.02611593 -0.059798401 0.050936799
0.040710676 0.022372814 -0.027854685
-0.02611593 -0.059798401 0.050936799
-0.02611593 -0.059798401 0.050936799
0.038702268 0.015363094 -0.026943576
-0.02611593 -0.059798401 0.050936799
0.039696973 0.028411556 -0.029727101
0.036761552 0.030367725 -0.026635718
-0.02611593 -0.059798401 0.050936799
0.036670033 0.021423515 -0.029796861
-0.02611593 -0.059798401 0.050936799
-0.02611593 -0.059798401 0.050936799
0.031691767 0.012388724 -0.026866097
-0.02611593 -0.059798401 0.050936799
0.030746019 0.021372695 -0.025685474
0.028814336 0.024325095 -0.022594862
-0.02611593 -0.059798401 0.050936799
0.028708026 0.016398814 -0.026737653
-0.02611593 -0.059798401 0.050936799
-0.02611593 -0.059798401 0.050936799
0.025695877 0.0083928537 -0.025825761
-0.02611593 -0.059798401 0.050936799
0.026724104 0.020405315 -0.026627999
0.014978729 0.0081609953 -0.010624148
-0.02611593 -0.059798401 0.050936799
0.025633685 0.016481938 -0.030679926
-0.02611593 -0.059798401 0.050936799
-0.02611593 -0.059798401 0.050936799
0.018737612 0.0043643862 -0.022767324
-0.02611593 -0.059798401 0.050936799
0.023657614 0.022488091 -0.03053423
-0.02611593 -0.059798401 0.050936799
-0.02611593 -0.059798401 0.050936799
0.018690215 0.01143555 -0.026639838
-0.02611593 -0.059798401 0.050936799
-0.02611593 -0.059798401 0.050936799
0.015667202 0.0054473397 -0.026691578
-0.02611593 -0.059798401 0.050936799
0.015725201 0.01542755 -0.025511727
0.0099234786 0.0082332073 -0.013529178
-0.02611593 -0.059798401 0.050936799
0.013698073 0.0084359208 -0.025600273
-0.02611593 -0.059798401 0.050936799
-0.02611593 -0.059798401 0.050936799
0.01067898 0.0034475341 -0.025633994
-0.02611593 -0.059798401 0.050936799
0.012688302 0.015474495 -0.027454682
0.0088605518 0.011308637 -0.017454978
-0.02611593 -0.059798401 0.050936799
0.0077248337 0.0054217838 -0.02354227
-0.02611593 -0.059798401 0.050936799
-0.02611593 -0.059798401 0.050936799
0.0066570668 0.0024801481 -0.026576519
-0.02611593 -0.059798401 0.050936799
0.00868118 0.01348919 -0.027415555
0.0068126069 0.013369744 -0.020380344
-0.02611593 -0.059798401 0.050936799
0.004687937 0.005468729 -0.025485218
-0.02611593 -0.059798401 0.050936799
-0.02611593 -0.059798401 0.050936799
0.0026055565 0.0035486016 -0.029482313
-0.02611593 -0.059798401 0.050936799
0.0037077575 0.010471463 -0.025376331
0.0037757084 0.013416688 -0.022323295
-0.02611593 -0.059798401 0.050936799
0.0016549672 0.0065154969 -0.02741015
-0.02611593 -0.059798401 0.050936799
-0.02611593 -0.059798401 0.050936799
-0.0013828442 0.0015452069 -0.02844353
-0.02611593 -0.059798401 0.050936799
0.0016262919 0.013568579 -0.030283004
0.0016981694 0.017513627 -0.027211946
-0.02611593 -0.059798401 0.050936799
-0.0023669503 0.0055481186 -0.028352667
-0.02611593 -0.059798401 0.050936799
-0.02611593 -0.059798401 0.050936799
-0.02611593 -0.059798401 0.050936799
-0.02611593 -0.059798401 0.050936799
-0.0033432017 0.011550684 -0.028225765
-0.002275435 0.01449232 -0.025191516
-0.02611593 -0.059798401 0.050936799
-0.0063810134 0.0065803863 -0.029259145
-0.02611593 -0.059798401 0.050936799
-0.02611593 -0.059798401 0.050936799
-0.02611593 -0.059798401 0.050936799
-0.02611593 -0.059798401 0.050936799
-0.0063613756 0.01157954 -0.029169053
-0.0053379936 0.017574929 -0.029079732
-0.02611593 -0.059798401 0.050936799
-0.010369414 0.0045769988 -0.028220363
-0.02611593 -0.059798401 0.050936799
-0.02611593 -0.059798401 0.050936799
-0.013436817 0.001642541 -0.031217024
-0.02611593 -0.059798401 0.050936799
-0.010349777 0.0095761521 -0.028130271
-0.0083561689 0.017603783 -0.030023027
-0.02611593 -0.059798401 0.050936799
-0.014387405 0.0046094437 -0.029144861
-0.02611593 -0.059798401 0.050936799
-0.02611593 -0.059798401 0.050936799
-0.017421288 0.00063898083 -0.030160226
-0.02611593 -0.059798401 0.050936799
-0.014367768 0.0096085975 -0.029054768
-0.013285204 0.011532306 -0.025038876
-0.02611593 -0.059798401 0.050936799
-0.018371878 0.0036058798 -0.028088052
-0.02611593 -0.059798401 0.050936799
-0.02611593 -0.059798401 0.050936799
-0.02611593 -0.059798401 0.050936799
-0.02611593 -0.059798401 0.050936799
-0.017367221 0.0096193636 -0.028998394
-0.015362741 0.015629252 -0.029927533
-0.02611593 -0.059798401 0.050936799
-0.021386124 0.0046345661 -0.029013325
-0.02611593 -0.059798401 0.050936799
-0.02611593 -0.059798401 0.050936799
-0.02611593 -0.059798401 0.050936799
-0.02611593 -0.059798401 0.050936799
-0.021366488 0.0096337199 -0.028923232
-0.019362008 0.015643608 -0.029852368
-0.02611593 -0.059798401 0.050936799
-0.025404116 0.0046670111 -0.02993783
-0.02611593 -0.059798401 0.050936799
-0.02611593 -0.059798401 0.050936799
-0.02611593 -0.059798401 0.050936799
-0.02611593 -0.059798401 0.050936799
-0.02535096 0.0086301556 -0.027866427
-0.022361461 0.015654374 -0.029795997
-0.02611593 -0.059798401 0.050936799
-0.027370231 0.00363818 -0.027918939
-0.02611593 -0.059798401 0.050936799
-0.02611593 -0.059798401 0.050936799
-0.02611593 -0.059798401 0.050936799
-0.02611593 -0.059798401 0.050936799
-0.02611593 -0.059798401 0.050936799
-0.026316343 0.01261497 -0.026775904
-0.02611593 -0.059798401 0.050936799
-0.031354707 0.0026346161 -0.026862137
-0.02611593 -0.059798401 0.050936799
-0.02611593 -0.059798401 0.050936799
-0.02611593 -0.059798401 0.050936799
-0.02611593 -0.059798401 0.050936799
-0.03138338 0.0096876975 -0.029734995
-0.028315978 0.012622149 -0.026738323
-0.02611593 -0.059798401 0.050936799
-0.035353974 0.0026489715 -0.026786976
-0.02611593 -0.059798401 0.050936799
-0.02611593 -0.059798401 0.050936799
-0.02611593 -0.059798401 0.050936799
-0.02611593 -0.059798401 0.050936799
-0.034349311 0.0086624557 -0.027697314
-0.031348947 0.013668924 -0.028663252
-0.02611593 -0.059798401 0.050936799
-0.038349494 0.0036595692 -0.026712582
-0.02611593 -0.059798401 0.050936799
-0.02611593 -0.059798401 0.050936799
-0.043427397 0.0027500391 -0.030635286
-0.02611593 -0.059798401 0.050936799
-0.038363378 0.0096947309 -0.028603792
-0.035299901 0.011629351 -0.025625151
-0.02611593 -0.059798401 0.050936799
-0.042348765 0.0036739246 -0.02663742
-0.02611593 -0.059798401 0.050936799
-0.02611593 -0.059798401 0.050936799
-0.047422737 0.0037642254 -0.030542105
-0.02611593 -0.059798401 0.050936799
-0.041344106 0.0096874088 -0.027547762
-0.038314149 0.012658037 -0.026550416
-0.02611593 -0.059798401 0.050936799
-0.046344101 0.0046881111 -0.026544243
-0.02611593 -0.059798401 0.050936799
-0.02611593 -0.059798401 0.050936799
-0.02611593 -0.059798401 0.050936799
-0.02611593 -0.059798401 0.050936799
-0.045358166 0.010719677 -0.02845424
-0.042328209 0.013690313 -0.027456895
-0.02611593 -0.059798401 0.050936799
-0.050372962 0.0067382986 -0.028432362
-0.02611593 -0.059798401 0.050936799
-0.02611593 -0.059798401 0.050936799
-0.055398628 0.0047746785 -0.029374115
-0.02611593 -0.059798401 0.050936799
-0.04935351 0.011733863 -0.02836106
-0.046386655 0.01777634 -0.031308305
-0.02611593 -0.059798401 0.050936799
-0.054334786 0.0067164763 -0.026357882
-0.02611593 -0.059798401 0.050936799
-0.02611593 -0.059798401 0.050936799
-0.059360452 0.0047528557 -0.027299624
-0.02611593 -0.059798401 0.050936799
-0.053334054 0.01173013 -0.027286239
-0.050367203 0.017772608 -0.030233476
-0.02611593 -0.059798401 0.050936799
-0.059378259 0.0097881872 -0.029208858
-0.02611593 -0.059798401 0.050936799
-0.02611593 -0.059798401 0.050936799
-0.063351862 0.0067668655 -0.027188424
-0.02611593 -0.059798401 0.050936799
-0.058358803 0.014783745 -0.029137559
-0.053333141 0.016747372 -0.028195806
-0.02611593 -0.059798401 0.050936799
-0.063369669 0.011802197 -0.029097658
-0.02611593 -0.059798401 0.050936799
-0.02611593 -0.059798401 0.050936799
-0.069376431 0.0098240767 -0.029020954
-0.02611593 -0.059798401 0.050936799
-0.061339535 0.014776422 -0.028081518
-0.056313865 0.01674005 -0.027139775
-0.02611593 -0.059798401 0.050936799
-0.067331485 0.011780375 -0.02702317
-0.02611593 -0.059798401 0.050936799
-0.02611593 -0.059798401 0.050936799
-0.069246277 0.0046802107 -0.021113757
-0.02611593 -0.059798401 0.050936799
-0.065320075 0.014772689 -0.027006697
-0.060275689 0.016718227 -0.025065292
-0.02611593 -0.059798401 0.050936799
-0.071308106 0.012776472 -0.02593033
-0.02611593 -0.059798401 0.050936799
-0.02611593 -0.059798401 0.050936799
-0.077314869 0.010798343 -0.025853626
-0.02611593 -0.059798401 0.050936799
-0.070330031 0.016808383 -0.027876366
-0.065319158 0.01978993 -0.027916264
-0.02611593 -0.059798401 0.050936799
-0.074270114 0.012751061 -0.023874633
-0.02611593 -0.059798401 0.050936799
-0.02611593 -0.059798401 0.050936799
-0.083316781 0.014837289 -0.026668467
-0.02611593 -0.059798401 0.050936799
-0.075317331 0.01982582 -0.02772836
-0.068251573 0.017728673 -0.023897283
-0.02611593 -0.059798401 0.050936799
-0.079261348 0.014768667 -0.023744643
-0.02611593 -0.059798401 0.050936799
-0.02611593 -0.059798401 0.050936799
-0.08421997 0.01073302 -0.020723786
-0.02611593 -0.059798401 0.050936799
-0.078279331 0.01980041 -0.02567267
-0.073276319 0.020782296 -0.025748603
-0.02611593 -0.059798401 0.050936799
-0.085267186 0.017807772 -0.02457751
-0.02611593 -0.059798401 0.050936799
-0.02611593 -0.059798401 0.050936799
-0.09326572 0.017836485 -0.024427187
-0.02611593 -0.059798401 0.050936799
-0.085303716 0.022861194 -0.027486395
-0.074179515 0.016678028 -0.019803915
-0.02611593 -0.059798401 0.050936799
-0.092283718 0.022868227 -0.026355203
-0.02611593 -0.059798401 0.050936799
-0.02611593 -0.059798401 0.050936799
-0.10129686 0.023918446 -0.027167726
-0.02611593 -0.059798401 0.050936799
-0.088247001 0.022817694 -0.024431046
-0.085288003 0.026860517 -0.027414322
-0.02611593 -0.059798401 0.050936799
-0.099266723 0.026892671 -0.026151597
-0.02611593 -0.059798401 0.050936799
-0.02611593 -0.059798401 0.050936799
-0.10826508 0.026924973 -0.02598248
-0.02611593 -0.059798401 0.050936799
-0.095248736 0.026860228 -0.0252271
-0.089264624 0.027856614 -0.026321482
-0.02611593 -0.059798401 0.050936799
-0.10221393 0.025849342 -0.023114257
-0.02611593 -0.059798401 0.050936799
-0.02611593 -0.059798401 0.050936799
-0.11421474 0.029909812 -0.023816366
-0.02611593 -0.059798401 0.050936799
-0.10225046 0.030902762 -0.026023149
-0.095251746 0.030877639 -0.026154686
-0.02611593 -0.059798401 0.050936799
-0.11122224 0.032916628 -0.024818338
-0.02611593 -0.059798401 0.050936799
-0.02611593 -0.059798401 0.050936799
-0.12219364 0.034937676 -0.023575947
-0.02611593 -0.059798401 0.050936799
-0.10720424 0.032884181 -0.023893841
-0.10223868 0.033902243 -0.025969092
-0.02611593 -0.059798401 0.050936799
-0.12121556 0.038969591 -0.025521979
-0.02611593 -0.059798401 0.050936799
-0.02611593 -0.059798401 0.050936799
-0.13218305 0.04199047 -0.024261571
-0.02611593 -0.059798401 0.050936799
-0.11619776 0.038933557 -0.024616275
-0.10922169 0.037926689 -0.025765486
-0.02611593 -0.059798401 0.050936799
-0.12917967 0.042979535 -0.024299923
-0.02611593 -0.059798401 0.050936799
-0.02611593 -0.059798401 0.050936799
-0.14317225 0.049046844 -0.024928402
-0.02611593 -0.059798401 0.050936799
-0.12217008 0.040936653 -0.023467835
-0.11922981 0.044997565 -0.027450781
-0.02611593 -0.059798401 0.050936799
-0.14117958 0.05205724 -0.025911592
-0.02611593 -0.059798401 0.050936799
-0.02611593 -0.059798401 0.050936799
-0.15513471 0.05808837 -0.024540752
-0.02611593 -0.059798401 0.050936799
-0.1371951 0.053060811 -0.026968401
-0.12820852 0.050029021 -0.027191572
-0.02611593 -0.059798401 0.050936799
-0.15820028 0.0651884 -0.029356565
-0.02611593 -0.059798401 0.050936799
-0.02611593 -0.059798401 0.050936799
-0.17011143 0.068158604 -0.025078367
-0.02611593 -0.059798401 0.050936799
-0.14514047 0.057052657 -0.024746675
-0.13515802 0.053017452 -0.025006656
-0.02611593 -0.059798401 0.050936799
-0.16511233 0.068140656 -0.025172319
-0.02611593 -0.059798401 0.050936799
-0.02611593 -0.059798401 0.050936799
-0.18807578 0.081239082 -0.025505565
-0.02611593 -0.059798401 0.050936799
-0.16011718 0.067122892 -0.025284294
-0.14412193 0.057030983 -0.023765806
-0.02611593 -0.059798401 0.050936799
-0.18308063 0.080221303 -0.02561754
-0.02611593 -0.059798401 0.050936799
-0.02611593 -0.059798401 0.050936799
-0.2039922 0.092258453 -0.023007385
-0.02611593 -0.059798401 0.050936799
-0.17307945 0.076168016 -0.02487785
-0.16112785 0.069144227 -0.026229132
-0.02611593 -0.059798401 0.050936799
-0.19801597 0.091255188 -0.02413781
-0.02611593 -0.059798401 0.050936799
-0.02611593 -0.059798401 0.050936799
-0.22692123 0.1093381 -0.022268888
-0.02611593 -0.059798401 0.050936799
-0.19505396 0.091280594 -0.0261935
-0.17708173 0.080199763 -0.025730282
-0.02611593 -0.059798401 0.050936799
-0.22196351 0.10835651 -0.024380188
-0.02611593 -0.059798401 0.050936799
-0.02611593 -0.059798401 0.050936799
-0.26286086 0.13751681 -0.024086893
-0.02611593 -0.059798401 0.050936799
-0.2139807 0.10432848 -0.024602585
-0.1910103 0.088212475 -0.023323737
-0.02611593 -0.059798401 0.050936799
-0.24987593 0.12945344 -0.023475662
-0.02611593 -0.059798401 0.050936799
-0.02611593 -0.059798401 0.050936799
-0.88709611 0.64788663 -0.18122074
-0.02611593 -0.059798401 0.050936799
-0.23790953 0.12141173 -0.0238453
-0.21597247 0.10633532 -0.024528969
-0.89173949 0.64756089 -0.16213322
-0.88032889 0.65109622 -0.19429378
-0.02611593 -0.059798401 0.050936799
-0.02611593 -0.059798401 0.050936799
-0.89336848 0.6462065 -0.14212044
-0.88597208 0.650774 -0.17518748
-0.02611593 -0.059798401 0.050936799
-0.24289684 0.12442915 -0.023697291
-0.89802271 0.6478985 -0.12399653
-0.89161533 0.65045184 -0.15608118
-0.8852039 0.65400511 -0.18814783
-0.02611593 -0.059798401 0.050936799
-0.8996706 0.64656216 -0.10498341
-0.89825433 0.65113312 -0.13693808
-0.89284277 0.65468997 -0.16898593
-0.87844557 0.65019774 -0.20034738
-0.90630174 0.64924306 -0.085804254
-0.89488524 0.64474356 -0.11610967
-0.89647937 0.65134299 -0.1489716
-0.88808411 0.65088969 -0.18114789
-0.90493929 0.6458782 -0.065883882
-0.9035309 0.64844954 -0.097874604
-0.90212256 0.65102088 -0.12986529
-0.89471614 0.64855343 -0.16105917
-0.90458745 0.64453465 -0.046908364
-0.90717834 0.64712036 -0.078823887
-0.90575522 0.64867377 -0.10983295
-0.89935261 0.64521015 -0.14102605
-0.90722728 0.64520156 -0.027840398
-0.90982211 0.64678741 -0.059773959
-0.90938789 0.64632666 -0.089800604
-0.90898722 0.64690197 -0.12180855
-0.90587562 0.6438545 -0.0088836551
-0.90744501 0.6424011 -0.038890734
-0.91702282 0.64801139 -0.070620678
-0.91860706 0.64757586 -0.10160939
-0.90751565 0.64451778 0.010165513
-0.91108459 0.64307159 -0.019803986
-0.92363924 0.6496743 -0.050459892
-0.92323554 0.64623219 -0.081540227
-0.9081558 0.64517748 0.029195882
-0.91472423 0.64374208 -0.00071724504
-0.92328054 0.64531326 -0.03053873
-0.93384725 0.64890939 -0.061286263
-0.90781879 0.64485186 0.04718978
-0.91734529 0.64439088 0.019350376
-0.9318887 0.64898306 -0.010304324
-0.94144875 0.64955807 -0.040125042
-0.90646327 0.64450461 0.066164553
-0.9169935 0.64304733 0.038325906
-0.93150342 0.64660358 0.01065252
-0.94605857 0.64819628 -0.019056223
-0.90513039 0.6431756 0.084121644
-0.92061049 0.64469957 0.058430336
-0.93413234 0.6452527 0.030684099
-0.95465195 0.65084821 0.0021598265
-0.89878744 0.63981092 0.1029484
-0.92125452 0.64435941 0.077442683
-0.93773443 0.64588708 0.051770158
-0.95824325 0.64946485 0.024209518
-0.89745063 0.63948172 0.12092351
-0.91990292 0.64301234 0.096399441
-0.94035554 0.64653581 0.071837775
-0.96183455 0.64808136 0.046259206
-0.90007871 0.64314806 0.14004552
-0.91753668 0.64064384 0.11631903
-0.93799329 0.64316744 0.091739364
-0.96043456 0.64468032 0.0681789
-0.89375454 0.6398015 0.15787262
-0.91618115 0.64029652 0.13529381
-0.94159544 0.64380175 0.11282542
-0.96503657 0.64531827 0.089283749
-0.8903994 0.63944703 0.17680982
-0.91779453 0.64294136 0.15537867
-0.94618952 0.64643925 0.13396631
-0.96563244 0.64292419 0.11125906
-0.88706291 0.63911068 0.19474734
-0.91741616 0.64357942 0.17538992
-0.94380456 0.64405257 0.15488558
-0.97019303 0.64452577 0.13438125
-0.88472241 0.63977772 0.21272168
-0.90609384 0.63519764 0.19403261
-0.94041985 0.6416623 0.17578605
-0.97178072 0.644135 0.15641138
-0.88138592 0.63944137 0.2306592
-0.90970302 0.6388495 0.21417308
-0.94499129 0.64528155 0.19794461
-0.98031014 0.6487323 0.18066245
-0.8780455 0.64010477 0.24861474
-0.91031259 0.64249063 0.23425716
-0.94260234 0.64389467 0.21888191
-0.9798795 0.64831626 0.20365465
-0.87071764 0.63775438 0.26644111
-0.90396976 0.63912588 0.25308391
-0.94119072 0.64349318 0.24085566
-0.9754613 0.64488631 0.22651763
-0.86043561 0.63342977 0.28217566
-0.90159178 0.6397568 0.27305758
-0.94176674 0.64609826 0.26292104
-0.97403485 0.64346689 0.24947304
-0.85906821 0.63608199 0.3012045
-0.90020961 0.6413911 0.29306805
-0.93837816 0.64470786 0.28383952
-0.9736042 0.64305085 0.27246523
-0.85771573 0.63975209 0.31925166
-0.89485484 0.64102948 0.31196764
-0.93498546 0.64431721 0.30477607
-0.96718657 0.63961375 0.29529065
-0.84940678 0.63741624 0.33605954
-0.88553905 0.63567239 0.32970235
-0.93256998 0.64491189 0.32674903
-0.96872503 0.64218628 0.31937414
-0.84407067 0.63707268 0.35395953
-0.88115752 0.6372959 0.34965646
-0.92915863 0.64450312 0.3486852
-0.96529889 0.64075971 0.34229198
-0.83280361 0.63376236 0.36869365
-0.87580663 0.63593447 0.36853802
-0.9188205 0.64012426 0.36741877
-0.96085423 0.63931131 0.36619064
-0.8284595 0.63542211 0.38664842
-0.87341684 0.63956475 0.38856572
-0.91540521 0.6407153 0.38937294
-0.9534514 0.63688856 0.38801563
-0.82214236 0.63509309 0.40352994
-0.8640933 0.63620746 0.40633646
-0.90702134 0.63830709 0.4101795
-0.95099461 0.63844693 0.41200596
-0.81382549 0.6347568 0.42037386
-0.85773474 0.63684201 0.4252353
-0.90262496 0.63891274 0.43111524
-0.94654602 0.6379984 0.43592262
-0.8035543 0.63244987 0.43514481
-0.85136133 0.63645869 0.4451158
-0.8922829 0.63553369 0.44986683
-0.94109756 0.63754636 0.45982057
-0.79722929 0.63412058 0.45206237
-0.83907568 0.63312668 0.46083084
-0.88489491 0.63412887 0.47071019
-0.93269104 0.63611984 0.48164475
-0.78893125 0.63380241 0.46790659
-0.83172125 0.6327579 0.47969288
-0.8764993 0.63472015 0.49157077
-0.92524302 0.63566059 0.50550508
-0.77668697 0.62950671 0.48160434
-0.82930887 0.63737005 0.50073826
-0.87305737 0.63729274 0.51456064
-0.91681778 0.63421601 0.52832896
-0.77133906 0.63216269 0.4995583
-0.81405431 0.63104576 0.51534319
-0.8646844 0.63690227 0.53440356
-0.91136146 0.63576359 0.5522629
-0.76106399 0.63085556 0.51434731
-0.8086651 0.63466543 0.53531456
-0.85629272 0.63649374 0.55524611
-0.89995944 0.63332653 0.5740127
-0.75078493 0.63054836 0.5291543
-0.79635686 0.63231528 0.55204725
-0.84887421 0.63807023 0.57714313
-0.8915264 0.63388157 0.59687263
-0.74149102 0.6292268 0.54496175
-0.78211689 0.62701261 0.56568933
-0.83652854 0.63568383 0.59587514
-0.88305581 0.63440043 0.62173182
-0.73120809 0.62991941 0.5597868
-0.77178174 0.62665111 0.58349532
-0.82122874 0.63132322 0.61251545
-0.86576414 0.62803292 0.63829857
-0.72093302 0.6286124 0.57457578
-0.76441544 0.6292817 0.60241139
-0.8098563 0.63092196 0.63230205
-0.85533148 0.62858081 0.66112089
-0.70869571 0.62733436 0.58732784
-0.75112611 0.62694597 0.61812574
-0.79652947 0.62854993 0.65001565
-0.84390289 0.62812525 0.68390638
-0.69938993 0.62901223 0.60318935
-0.73685968 0.62362492 0.6328035
-0.78222162 0.62619257 0.66671073
-0.83346623 0.62967306 0.7067467
-0.69008809 0.62969041 0.61903286
-0.72751254 0.62626654 0.65068233
-0.77477664 0.62975079 0.68964344
-0.8171252 0.62627244 0.72538555
-0.67685497 0.62740892 0.63174814
-0.71424198 0.62394887 0.66539693
-0.75947285 0.62638992 0.70630181
-0.80175745 0.62485701 0.74507886
-0.66168618 0.62317491 0.6413908
-0.69899434 0.6206423 0.67905623
-0.74613428 0.62701744 0.72406948
-0.79032481 0.62540126 0.76788247
-0.65139931 0.62486732 0.65623379
-0.68767023 0.62229496 0.69587988
-0.73278087 0.62662709 0.74281871
-0.77102578 0.62102628 0.78444755
-0.63913935 0.62457103 0.67000365
-0.67242271 0.61898839 0.70953918
-0.71746933 0.6252659 0.75951308
-0.75760847 0.62258136 0.80623186
-0.62687951 0.62427467 0.6837734
-0.66009873 0.62063748 0.72634399
-0.70215768 0.62390476 0.77620745
-0.74221408 0.62314743 0.82696092
-0.61072963 0.62005514 0.69239759
-0.64584309 0.61933416 0.74005818
-0.68684608 0.62254363 0.79290181
-0.72486538 0.62174296 0.845617
-0.60237443 0.62469995 0.71033126
-0.63451892 0.62098682 0.75688171
-0.67150789 0.62316394 0.81063187
-0.71044821 0.62329435 0.86738253
-0.58815628 0.62343282 0.72204614
-0.61826366 0.61967629 0.77055836
-0.65326089 0.61984664 0.82423484
-0.69114125 0.62091905 0.88398373
-0.5739795 0.62120205 0.73174369
-0.60691297 0.62331057 0.78841758
-0.63791877 0.62146688 0.84198296
-0.67474306 0.62248135 0.90471196
-0.56168896 0.62388712 0.74656707
-0.58776766 0.61808044 0.79696745
-0.62162602 0.62012017 0.8576588
-0.65350062 0.61815345 0.91824055
-0.54747081 0.62261999 0.75828195
-0.57153106 0.61678803 0.80964434
-0.60528409 0.62173682 0.87538815
-0.6351403 0.61974484 0.93693197
-0.53229028 0.62138546 0.76797867
-0.5582034 0.61943334 0.82644838
-0.58702916 0.6204192 0.88902712
-0.61580676 0.61935103 0.9545688
-0.51904923 0.62110358 0.78073001
-0.54294401 0.61912626 0.8401618
-0.5678159 0.61813426 0.90063006
-0.59745044 0.61994255 0.9732421
-0.50484586 0.62085438 0.79146326
-0.52476788 0.61688107 0.84978414
-0.55049676 0.61876553 0.91732281
-0.5742417 0.61664343 0.98475188
-0.48964268 0.62060159 0.80217767
-0.51045913 0.61954087 0.86556965
-0.53319246 0.62041479 0.933034
-0.55777162 0.62215084 1.0085512
-0.47446212 0.61936706 0.81187439
-0.49128714 0.6162923 0.87515521
-0.51197952 0.61812264 0.94459927
-0.5326274 0.61689919 1.0169883
-0.45925891 0.61911422 0.8225888
-0.47504276 0.61699957 0.88786817
-0.493698 0.61878657 0.95927405
-0.5113278 0.61753422 1.0326062
-0.44309726 0.61789411 0.83126712
-0.456844 0.61573619 0.89850825
-0.47539389 0.62043214 0.97496641
-0.48905098 0.61718398 1.0471878
-0.42693561 0.61667413 0.83994532
-0.43863747 0.61647236 0.90918428
-0.45328254 0.61622733 0.98147857
-0.46679288 0.61685175 1.0607697
-0.41170585 0.61840284 0.85169548
-0.42139715 0.61617625 0.92186046
-0.43302014 0.61690211 0.995116
-0.44264054 0.61360329 1.0692616
-0.39649871 0.61914986 0.86242789
-0.40419042 0.61691612 0.93255532
-0.41090491 0.61369699 1.0016462
-0.4193787 0.61426735 1.0828426
-0.38029176 0.61989331 0.87314153
-0.38407084 0.61471802 0.93914109
-0.38872561 0.61243737 1.0112114
-0.39326814 0.61004806 1.0892798
-0.36319429 0.61672419 0.87876606
-0.36490977 0.61348724 0.94776303
-0.3694365 0.61509728 1.0259033
-0.3710022 0.61171556 1.1028975
-0.34602889 0.61650044 0.88744354
-0.34572601 0.61323816 0.95740259
-0.34727597 0.61385572 1.0344689
-0.3458195 0.61144495 1.1124244
-0.32985941 0.61728007 0.89615786
-0.32656097 0.61300719 0.96604252
-0.32511538 0.61261415 1.0430344
-0.32255375 0.61310881 1.1260235
-0.31173557 0.61608893 0.90279925
-0.30826771 0.61667055 0.98077124
-0.30292827 0.61335409 1.0526357
-0.2974351 0.61089277 1.1325153
-0.29365706 0.61293447 0.9074052
-0.28724983 0.61255974 0.98230386
-0.28078252 0.61313045 1.0602195
-0.27131668 0.60867321 1.1389884
-0.27648771 0.61371052 0.91610074
-0.26617181 0.60939437 0.9868536
-0.25768223 0.61093974 1.0657493
-0.24610351 0.61138397 1.149569
-0.25838259 0.6125375 0.92174244
-0.24691622 0.61309034 0.99956417
-0.23451798 0.61069441 1.074314
-0.22098096 0.6101678 1.1560788
-0.24123199 0.61333168 0.92943835
-0.22591704 0.60899758 1.0000972
-0.21143249 0.60952151 1.0788622
-0.19485465 0.60994792 1.1625879
-0.22405875 0.61510742 0.9381519
-0.20574826 0.60976279 1.0087364
-0.18830562 0.60931236 1.0854276
-0.16876973 0.60876429 1.1670796
-0.20495382 0.61393094 0.94377482
-0.18468116 0.60861528 1.0123223
-0.16511083 0.61204839 1.0950462
-0.14266215 0.60856247 1.1725891
-0.18680343 0.61472142 0.9514519
-0.1644444 0.61232573 1.0240146
-0.14198004 0.6128391 1.1016296
-0.11565623 0.60644782 1.1730454
-0.1677773 0.61261743 0.95305824
-0.14246416 0.60824746 1.0235291
-0.11795485 0.61071712 1.1031419
-0.089507267 0.60720956 1.180572
-0.14869109 0.6114589 0.95768148
-0.1222235 0.61295772 1.0352393
-0.09380161 0.61248595 1.1107242
-0.062474765 0.60707653 1.1820641
-0.12960096 0.61130029 0.96232277
-0.10023931 0.60987926 1.0347719
-0.069772474 0.61136377 1.1122546
-0.036468662 0.60496545 1.1825391
-0.1104921 0.61112356 0.9679637
-0.078104429 0.61167336 1.0413921
-0.045765996 0.6092599 1.1127672
-0.0093908552 0.60679579 1.1860664
-0.091462053 0.61001939 0.96958792
-0.056142889 0.60761327 1.039907
-0.021732945 0.60913759 1.1143155
0.016660554 0.60664827 1.1885769
-0.072367981 0.61086059 0.97424734
-0.035131939 0.60651994 1.0404941
0.0022360831 0.60706991 1.1128289
0.04263315 0.60557318 1.1870707
-0.052278031 0.61069834 0.97886974
-0.013034496 0.60835022 1.045115
0.026269138 0.6069476 1.1143773
0.069692232 0.60742176 1.1895983
-0.033244066 0.61059397 0.98051208
0.0080631301 0.61018401 1.0497547
0.051347308 0.60878515 1.1179422
0.09770976 0.60830301 1.1900898
-0.013191555 0.61046791 0.98313522
0.03113774 0.61102891 1.0533392
0.075320274 0.60771722 1.1164734
0.12466737 0.60824227 1.1875832
0.0059025101 0.61130911 0.98779452
0.053047039 0.60802287 1.0488731
0.10033835 0.60860932 1.1170214
0.15062124 0.60718536 1.1850773
0.025849624 0.60827404 0.98536533
0.075016432 0.6059624 1.0474241
0.12533376 0.60851961 1.1165516
0.17647758 0.60521895 1.1775552
0.046924599 0.60912615 0.98898739
0.097053789 0.60684705 1.0490279
0.14816406 0.60458249 1.1080501
0.2022886 0.60128909 1.1679975
0.066984959 0.61099982 0.99164665
0.12009488 0.60872799 1.0506312
0.17209959 0.60355073 1.1045821
0.23035535 0.60513371 1.1705425
0.087954529 0.60894281 0.99021637
0.14200418 0.60572195 1.0461651
0.19702013 0.60353333 1.1001136
0.25511038 0.60126168 1.1580048
0.10792823 0.60788935 0.98882276
0.16500783 0.60763901 1.045769
0.22204211 0.60542524 1.1006798
0.27997079 0.60029876 1.1505194
0.12898842 0.60975927 0.99146324
0.1879849 0.60757452 1.044337
0.24488026 0.60348773 1.0922141
0.30689493 0.60127401 1.1460313
0.1499432 0.6087203 0.98905134
0.20989813 0.60556829 1.039889
0.26877835 0.60249215 1.0867469
0.3337816 0.60228556 1.1395439
0.17093936 0.6086449 0.98865676
0.23181528 0.60456187 1.0354589
0.29372153 0.60345656 1.0832962
0.35760474 0.60136229 1.1300781
0.19189414 0.60760593 0.98624474
0.25471747 0.60456979 1.0300285
0.31651834 0.60055542 1.0728134
0.38346893 0.60139567 1.122592
0.21176636 0.60464317 0.97981691
0.27665728 0.60454506 1.0266161
0.34150678 0.60348332 1.0713979
0.40935969 0.60341054 1.1161414
0.23381156 0.60752755 0.98145688
0.29960081 0.60551661 1.0232029
0.36433011 0.60256368 1.0619508
0.40891841 0.5666616 1.0464612
0.25474763 0.60650671 0.97804534
0.32252172 0.60550642 1.0187721
0.386067 0.59872055 1.0484697
0.45895344 0.60261118 1.0941908
0.27675143 0.60842735 0.97766799
0.3433415 0.60359418 1.0093445
0.4036766 0.59100103 1.0289937
0.48170191 0.6017639 1.0807451
0.29867253 0.60842073 0.97325593
0.36520249 0.602642 1.0019155
0.43280023 0.599805 1.0336093
0.50445038 0.60091668 1.0672994
0.31959379 0.60841775 0.96886265
0.38708612 0.60267162 0.99550414
0.45771381 0.6028052 1.0281953
0.52924377 0.60202581 1.0558513
0.34049633 0.60843277 0.9634698
0.40995088 0.60271567 0.98807436
0.47845873 0.60096532 1.0147691
0.55305612 0.60312039 1.0454217
0.3603085 0.60452443 0.95402491
0.43181577 0.60276335 0.9806633
0.50228977 0.60204178 1.0053391
0.57683098 0.60425121 1.0329928
0.38225222 0.60549968 0.95063055
0.4526208 0.60186911 0.97025412
0.52407974 0.60216188 0.99392945
0.59645587 0.60052371 1.0135515
0.40413979 0.60652912 0.94423723
0.47342581 0.6009748 0.95984483
0.54584712 0.60130012 0.98150218
0.61714852 0.599738 0.99714422
0.42291465 0.60266054 0.93281192
0.49631712 0.60300034 0.95345074
0.56865966 0.60239828 0.97109139
0.63990486 0.6008904 0.98373449
0.44690722 0.60659188 0.93143326
0.52229846 0.60894221 0.95107096
0.58837122 0.60159802 0.9557026
0.65751535 0.5981881 0.96334898
0.46775362 0.60666114 0.92304146
0.54099846 0.60514611 0.93564695
0.61220622 0.60367435 0.94629073
0.68438417 0.60423493 0.95495242
0.48755488 0.60477054 0.912633
0.56178862 0.60526967 0.92425609
0.63296288 0.60483396 0.93291861
0.70303577 0.60249263 0.93656552
0.50944245 0.60579997 0.90623963
0.5794701 0.60149527 0.90785122
0.65165198 0.60305554 0.91653091
0.7237137 0.60272479 0.91917664
0.53129643 0.60786545 0.897865
0.60130149 0.60257888 0.8984589
0.6682775 0.59933895 0.89714587
0.73521984 0.59713495 0.89385152
0.55314267 0.6079312 0.88945431
0.62105441 0.60274225 0.88508749
0.68901545 0.60051662 0.88277406
0.75592434 0.59934872 0.87749833
0.57190663 0.60608041 0.8770653
0.64080739 0.60290563 0.87171608
0.7107985 0.60365427 0.87041873
0.77868849 0.6025008 0.86412466
0.59474182 0.60816032 0.8676722
0.66053766 0.60208726 0.85732692
0.73153645 0.60483187 0.85604686
0.79326606 0.60084528 0.84181422
0.61040097 0.60341126 0.85028726
0.68233556 0.60420698 0.84595335
0.75123715 0.60604942 0.8396945
0.80884337 0.59918612 0.81948501
0.63119113 0.60353488 0.83889633
0.69798392 0.6014756 0.82760471
0.7648257 0.60237974 0.81836653
0.83059281 0.60335976 0.80514842
0.65507144 0.6075747 0.83151984
0.71669561 0.60067898 0.81223482
0.78248543 0.60264075 0.80003434
0.84314811 0.60072964 0.78185791
0.67073447 0.60382545 0.8141529
0.7374562 0.60283846 0.79888064
0.80016381 0.60288364 0.78270191
0.85774821 0.60005581 0.7605651
0.69048744 0.60398889 0.80078149
0.75617182 0.60304159 0.78352875
0.81275648 0.60021734 0.76141065
0.8713299 0.59940374 0.73829144
0.71126288 0.60513031 0.78840899
0.77589524 0.60524076 0.76819402
0.83141994 0.60147458 0.74307781
0.89102364 0.60363883 0.72099352
0.72895211 0.60335553 0.77204007
0.79459614 0.60646176 0.75186044
0.85012478 0.60369551 0.72676229
0.90258294 0.6020121 0.69773984
0.75073129 0.60549331 0.7596668
0.81024832 0.60473037 0.73352981
0.85965788 0.60009438 0.70251042
0.91212004 0.59941089 0.67350596
0.76945084 0.60669625 0.74433291
0.82793063 0.60597306 0.71621543
0.87529927 0.60038072 0.68321621
0.92775047 0.60171491 0.65324813
0.78407675 0.60298675 0.72498542
0.84663546 0.60819399 0.69989985
0.891967 0.60264492 0.66493887
0.94135869 0.60304439 0.63201016
0.80584109 0.60614252 0.7116304
0.86327666 0.6084767 0.68058681
0.90859336 0.60394555 0.6446442
0.9569931 0.60634822 0.61177033
0.82452327 0.60738164 0.69429725
0.87080234 0.60288316 0.65633655
0.92119783 0.60427874 0.62340707
0.96551549 0.60476846 0.58657366
0.84220165 0.60762453 0.67696476
0.8894884 0.60512215 0.63902128
0.93582451 0.60558659 0.60315001
0.97507918 0.60414881 0.56337559
0.85988009 0.60786742 0.65963227
0.90613347 0.6064046 0.6197263
0.94842893 0.60591978 0.58191288
0.986669 0.6055035 0.54117554
0.87754375 0.6091283 0.6413182
0.91873395 0.60573798 0.59847116
0.96001482 0.60627472 0.55969483
0.99623656 0.60588372 0.51799548
0.89418101 0.60841113 0.62198716
0.93436056 0.60704219 0.57819527
0.97160071 0.60662955 0.53747678
1.0078303 0.60823822 0.49581346
0.91184461 0.60967201 0.6036731
0.94796479 0.60737181 0.55693936
0.98621267 0.60895526 0.51623809
1.0143757 0.60764748 0.47167206
0.92442244 0.60802364 0.58140022
0.96359134 0.60867602 0.53666353
0.99477649 0.60833919 0.49305874
1.0259548 0.61101985 0.44850838
0.94004506 0.60832798 0.56110632
0.97417355 0.60803467 0.51444626
1.0073701 0.61069006 0.47085795
1.0284743 0.60846186 0.42340645
0.95464516 0.60765421 0.53981358
0.98776293 0.60938215 0.49220866
1.0138929 0.60911757 0.44569886
1.0340012 0.60789269 0.39828414
0.97430158 0.61192548 0.52051628
1.0013711 0.61071157 0.47097069
1.0254868 0.61147207 0.42351687
1.0425768 0.6102761 0.37515885
0.98990935 0.61324775 0.49924079
1.0109348 0.61009192 0.44777259
1.0340317 0.61087412 0.39933789
1.0461042 0.60971415 0.35007417
1.0014687 0.61162102 0.47598705
1.0255282 0.61243576 0.42553422
1.0415996 0.61126143 0.37619534
1.0617315 0.61603564 0.32888877
1.0140357 0.61199045 0.45275056
1.0320508 0.61086321 0.4003751
1.0521789 0.61463755 0.3530505
1.0612557 0.61448818 0.3038612
1.0276024 0.61235625 0.42949528
1.0476704 0.61518496 0.37915367
1.0617354 0.61703545 0.32890677
1.0658056 0.61490434 0.27977538
1.0331177 0.6087876 0.40431893
1.0521711 0.61263782 0.35301447
1.0582258 0.61151755 0.30286384
1.0683367 0.61534578 0.25472745
1.0507181 0.61312032 0.38206023
1.0576938 0.6110689 0.32787415
1.0748382 0.61885327 0.28067797
1.0769202 0.61972886 0.23163821
1.060263 0.61251867 0.35786244
1.0712764 0.61543405 0.30469096
1.0783654 0.61829132 0.25559327
1.0764481 0.61918128 0.20662868
1.0697933 0.61293501 0.332683
1.0838553 0.61880285 0.28150851
1.0738372 0.61279511 0.22856949
0.96947032 0.55227876 0.16840842
1.0783008 0.61237317 0.3065047
1.0843337 0.61528838 0.25442681
1.0783907 0.61421114 0.20450167
0.63264358 0.34554768 0.11395672
1.094864 0.61674571 0.28226545
1.092872 0.61770797 0.22930223
1.0387341 0.58889812 0.1747762
0.60828561 0.32992598 0.098124817
1.101372 0.61619103 0.25612473
1.0994065 0.61913496 0.20419717
0.63460875 0.34155926 0.1128474
0.62205625 0.33912742 0.084028661
1.1068764 0.61464012 0.22998473
1.0115097 0.56412601 0.16783544
0.6353277 0.34182703 0.097833693
0.59471363 0.32249856 0.069234774
1.1163915 0.61607444 0.20382367
0.67569458 0.36039081 0.113419
0.61798811 0.33117932 0.08196035
0.61151016 0.33367079 0.056117948
0.83162183 0.44522294 0.14504488
0.63224071 0.33389345 0.094746932
0.59765977 0.31852466 0.067107007
0.59022361 0.3219834 0.043300729
0.71676475 0.37522301 0.11391852
0.62091172 0.32622367 0.078814909
0.59839755 0.31877431 0.05309296
0.6070016 0.33317375 0.029184235
0.68431365 0.35470325 0.094148219
0.61561608 0.32251364 0.063841864
0.59515077 0.3180204 0.040135719
0.58671468 0.32148275 0.016348235
0.63484901 0.32522789 0.075534835
0.61032045 0.31880361 0.048868831
0.59088153 0.31628832 0.026179591
0.6255101 0.34762779 8.9306384e-05
0.63053453 0.32153231 0.059543349
0.61105812 0.31905326 0.034854788
0.59863365 0.32051218 0.012106083
0.60023499 0.33393696 -0.011689119
0.62024283 0.31382284 0.04559185
0.61879545 0.32429501 0.019799637
0.5943684 0.31977996 -0.001832027
0.59197736 0.33020151 -0.024606466
0.62194681 0.3151049 0.02957771
0.62051821 0.32555902 0.0047851577
0.6101051 0.33001027 -0.01794707
0.60074103 0.33742124 -0.038644712
0.63266486 0.32035398 0.01346653
0.62123722 0.32582676 -0.010228548
0.6178503 0.33725169 -0.032966182
0.61546719 0.34967291 -0.055704579
0.64336812 0.326621 -0.0036262907
0.64796209 0.3430526 -0.028423481
0.64156783 0.35248861 -0.051140781
0.73209292 0.426873 -0.091503784
0.72009629 0.37075326 -0.027272556
0.73063767 0.39323458 -0.056073025
0.74717891 0.42071167 -0.085895792
0.75374377 0.44418913 -0.11360341
0.74074632 0.38305572 -0.048443828
0.74929214 0.40654406 -0.077188678
0.74885339 0.42402956 -0.10387322
0.7564258 0.44950312 -0.13156359
0.74139434 0.3843956 -0.067438155
0.75693971 0.4128761 -0.097224116
0.76049727 0.43436468 -0.12491141
0.76009691 0.45683125 -0.15050617
0.74803436 0.3887316 -0.087490842
0.75159574 0.41121998 -0.11516009
0.76117188 0.43768618 -0.14287002
0.76476371 0.46315601 -0.16948558
0.75467825 0.39406738 -0.1075255
0.75824362 0.41755563 -0.13517675
0.76582396 0.44502881 -0.16283108
0.77140468 0.47250921 -0.19044784
0.75531143 0.39642525 -0.12750149
0.76287311 0.42391658 -0.15615547
0.76646113 0.44838658 -0.18278903
0.77106863 0.47785208 -0.2093513
0.75893331 0.4007901 -0.14849745
0.76551384 0.42826685 -0.17613301
0.76710218 0.45274398 -0.20272896
0.21193741 0.10179978 -0.032625373
0.76752847 0.40817264 -0.17153263
0.76713198 0.43163905 -0.1971094
0.21692474 0.098782346 -0.032773387
0.19591981 0.091840804 -0.031505246
0.76716191 0.41053408 -0.19148982
0.20995769 0.087736964 -0.028841406
0.19890746 0.088830553 -0.031615674
-0.02611593 -0.059798401 0.050936799
0.76477307 0.41192096 -0.21242709
0.20587568 0.08582402 -0.032800928
-0.02611593 -0.059798401 0.050936799
0.16288866 0.072926298 -0.029228188
0.20685193 0.07982146 -0.03292783
-0.02611593 -0.059798401 0.050936799
0.17084582 0.071933925 -0.031395853
-0.02611593 -0.059798401 0.050936799
-0.02611593 -0.059798401 0.050936799
0.17082618 0.066934779 -0.031485945
-0.02611593 -0.059798401 0.050936799
0.14581896 0.064025022 -0.031070236
0.1777796 0.064946167 -0.033652835
-0.02611593 -0.059798401 0.050936799
0.148784 0.06003302 -0.032198347
-0.02611593 -0.059798401 0.050936799
-0.02611593 -0.059798401 0.050936799
0.15076792 0.056026518 -0.032308005
-0.02611593 -0.059798401 0.050936799
0.127783 0.054091312 -0.030912191
0.15172938 0.051041868 -0.033416539
-0.02611593 -0.059798401 0.050936799
0.1297482 0.050102901 -0.032021515
-0.02611593 -0.059798401 0.050936799
-0.02611593 -0.059798401 0.050936799
0.13173211 0.046096403 -0.032131169
-0.02611593 -0.059798401 0.050936799
0.11078426 0.044117849 -0.028773621
0.13070482 0.039101183 -0.03223851
-0.02611593 -0.059798401 0.050936799
0.11174572 0.039133199 -0.029882163
-0.02611593 -0.059798401 0.050936799
-0.02611593 -0.059798401 0.050936799
0.11369614 0.036162712 -0.031973124
-0.02611593 -0.059798401 0.050936799
0.097759157 0.037165698 -0.028655469
0.1136765 0.031163564 -0.032063216
-0.02611593 -0.059798401 0.050936799
0.099709556 0.034195203 -0.030746426
-0.02611593 -0.059798401 0.050936799
-0.02611593 -0.059798401 0.050936799
0.099671192 0.02921414 -0.031836186
-0.02611593 -0.059798401 0.050936799
0.087737426 0.031202611 -0.028575674
0.093711838 0.020164857 -0.027886964
-0.02611593 -0.059798401 0.050936799
0.08669924 0.026225135 -0.029646635
-0.02611593 -0.059798401 0.050936799
-0.02611593 -0.059798401 0.050936799
0.087649837 0.023258232 -0.031718805
-0.02611593 -0.059798401 0.050936799
0.080674686 0.02928233 -0.031479165
0.086630374 0.018262675 -0.031790107
-0.02611593 -0.059798401 0.050936799
0.077666447 0.0222762 -0.030549254
-0.02611593 -0.059798401 0.050936799
-0.02611593 -0.059798401 0.050936799
0.073677137 0.015255571 -0.028600905
-0.02611593 -0.059798401 0.050936799
0.068705544 0.022272324 -0.028380822
0.075612746 0.013302999 -0.031673506
-0.02611593 -0.059798401 0.050936799
0.066667549 0.017298436 -0.02943299
-0.02611593 -0.059798401 0.050936799
-0.02611593 -0.059798401 0.050936799
0.065648101 0.012302879 -0.029504292
-0.02611593 -0.059798401 0.050936799
0.060676508 0.019319639 -0.029284213
0.066579953 0.0093540736 -0.032576121
-0.02611593 -0.059798401 0.050936799
0.060623351 0.015356494 -0.031355612
-0.02611593 -0.059798401 0.050936799
-0.02611593 -0.059798401 0.050936799
0.059589099 0.01137885 -0.032408547
-0.02611593 -0.059798401 0.050936799
0.05366601 0.01634527 -0.029206734
0.057584621 0.005368962 -0.031479426
-0.02611593 -0.059798401 0.050936799
0.054612666 0.012378535 -0.031296924
-0.02611593 -0.059798401 0.050936799
-0.02611593 -0.059798401 0.050936799
0.050627276 0.006357729 -0.029330548
-0.02611593 -0.059798401 0.050936799
0.045685276 0.011338649 -0.027147181
0.051525634 0.0044449316 -0.034383688
-0.02611593 -0.059798401 0.050936799
0.044632301 0.0073791007 -0.029199783
-0.02611593 -0.059798401 0.050936799
-0.02611593 -0.059798401 0.050936799
0.043598056 0.0034014559 -0.030252725
-0.02611593 -0.059798401 0.050936799
0.041644633 0.010389352 -0.029089358
0.04156398 -0.00057259959 -0.031286888
-0.02611593 -0.059798401 0.050936799
0.039610565 0.0064152963 -0.030123509
-0.02611593 -0.059798401 0.050936799
-0.02611593 -0.059798401 0.050936799
0.038557597 0.0024557482 -0.032176111
-0.02611593 -0.059798401 0.050936799
0.032701533 0.0053501502 -0.025011692
0.037508551 -0.00050397683 -0.034210712
-0.02611593 -0.059798401 0.050936799
0.032614861 0.0024230145 -0.029064391
-0.02611593 -0.059798401 0.050936799
-0.02611593 -0.059798401 0.050936799
0.030618239 -0.0015872157 -0.028099224
-0.02611593 -0.059798401 0.050936799
0.028660893 0.0044008535 -0.026953876
0.028584173 -0.005561268 -0.029133379
-0.02611593 -0.059798401 0.050936799
0.029577965 0.0024699594 -0.031007346
-0.02611593 -0.059798401 0.050936799
-0.02611593 -0.059798401 0.050936799
0.026562808 -0.0015185928 -0.031023048
-0.02611593 -0.059798401 0.050936799
0.024638979 0.0034334674 -0.027896389
0.024528738 -0.0054926449 -0.032057196
-0.02611593 -0.059798401 0.050936799
0.023571208 0.00049183529 -0.030930638
-0.02611593 -0.059798401 0.050936799
-0.02611593 -0.059798401 0.050936799
0.020570841 -0.0045146369 -0.029964693
-0.02611593 -0.059798401 0.050936799
0.020617057 0.0024660814 -0.028838903
0.0204733 -0.0054240222 -0.034981024
-0.02611593 -0.059798401 0.050936799
0.018568194 -0.00049005437 -0.030854706
-0.02611593 -0.059798401 0.050936799
-0.02611593 -0.059798401 0.050936799
0.014597602 -0.0075287735 -0.027906686
-0.02611593 -0.059798401 0.050936799
0.014643817 -0.00054805505 -0.0267809
0.012548738 -0.010484906 -0.029922482
-0.02611593 -0.059798401 0.050936799
0.013594773 -0.0035077767 -0.028815482
-0.02611593 -0.059798401 0.050936799
-0.02611593 -0.059798401 0.050936799
0.010560886 -0.0074782399 -0.029830843
-0.02611593 -0.059798401 0.050936799
0.011606921 -0.00050111033 -0.028723847
0.0094970511 -0.0094200447 -0.032847077
-0.02611593 -0.059798401 0.050936799
0.010543078 -0.002442908 -0.031740069
-0.02611593 -0.059798401 0.050936799
-0.02611593 -0.059798401 0.050936799
0.0055913939 -0.0094961347 -0.027773611
-0.02611593 -0.059798401 0.050936799
0.0076037277 -0.0014865818 -0.028666701
0.0045127594 -0.010420016 -0.031771477
-0.02611593 -0.059798401 0.050936799
0.0055587902 -0.0034428868 -0.030664485
-0.02611593 -0.059798401 0.050936799
-0.02611593 -0.059798401 0.050936799
0.0025397013 -0.0084312661 -0.030698203
-0.02611593 -0.059798401 0.050936799
0.0045855539 -0.0014577259 -0.029609989
0.00045732269 -0.010351393 -0.034695305
-0.02611593 -0.059798401 0.050936799
0.0025031716 -0.003377853 -0.033607095
-0.02611593 -0.059798401 0.050936799
-0.02611593 -0.059798401 0.050936799
-0.02611593 -0.059798401 0.050936799
-0.02611593 -0.059798401 0.050936799
-0.02611593 -0.059798401 0.050936799
-0.0045082448 -0.011369457 -0.032620043
-0.02611593 -0.059798401 0.050936799
-0.02611593 -0.059798401 0.050936799
-0.02611593 -0.059798401 0.050936799
-0.02611593 -0.059798401 0.050936799
-0.0055150017 -0.0083482871 -0.033546865
-0.02611593 -0.059798401 0.050936799
-0.0024841297 -0.00036042021 -0.03345909
-0.0075786598 -0.010286503 -0.036544301
-0.02611593 -0.059798401 0.050936799
-0.02611593 -0.059798401 0.050936799
-0.02611593 -0.059798401 0.050936799
-0.02611593 -0.059798401 0.050936799
-0.02611593 -0.059798401 0.050936799
-0.02611593 -0.059798401 0.050936799
-0.02611593 -0.059798401 0.050936799
-0.012596467 -0.010250471 -0.037450016
-0.02611593 -0.059798401 0.050936799
-0.02611593 -0.059798401 0.050936799
-0.02611593 -0.059798401 0.050936799
-0.02611593 -0.059798401 0.050936799
-0.02611593 -0.059798401 0.050936799
-0.02611593 -0.059798401 0.050936799
-0.02611593 -0.059798401 0.050936799
-0.02611593 -0.059798401 0.050936799
-0.02611593 -0.059798401 0.050936799
-0.02611593 -0.059798401 0.050936799
-0.02611593 -0.059798401 0.050936799
-0.02611593 -0.059798401 0.050936799
-0.02611593 -0.059798401 0.050936799
-0.02611593 -0.059798401 0.050936799
-0.02611593 -0.059798401 0.050936799
-0.020580206 -0.011239679 -0.036318038
-0.02611593 -0.059798401 0.050936799
-0.02611593 -0.059798401 0.050936799
-0.02611593 -0.059798401 0.050936799
-0.02611593 -0.059798401 0.050936799
-0.02611593 -0.059798401 0.050936799
-0.02611593 -0.059798401 0.050936799
-0.02611593 -0.059798401 0.050936799
-0.024579475 -0.011225323 -0.036242876
-0.02611593 -0.059798401 0.050936799
-0.02611593 -0.059798401 0.050936799
-0.02611593 -0.059798401 0.050936799
-0.02611593 -0.059798401 0.050936799
-0.02611593 -0.059798401 0.050936799
-0.02611593 -0.059798401 0.050936799
-0.02611593 -0.059798401 0.050936799
-0.02611593 -0.059798401 0.050936799
-0.02611593 -0.059798401 0.050936799
-0.02611593 -0.059798401 0.050936799
-0.02611593 -0.059798401 0.050936799
-0.02611593 -0.059798401 0.050936799
-0.02611593 -0.059798401 0.050936799
-0.02611593 -0.059798401 0.050936799
-0.02611593 -0.059798401 0.050936799
-0.02611593 -0.059798401 0.050936799
-0.02611593 -0.059798401 0.050936799
-0.02611593 -0.059798401 0.050936799
-0.02611593 -0.059798401 0.050936799
-0.02611593 -0.059798401 0.050936799
-0.02611593 -0.059798401 0.050936799
-0.02611593 -0.059798401 0.050936799
-0.02611593 -0.059798401 0.050936799
-0.03657335 -0.010182425 -0.035999376
-0.02611593 -0.059798401 0.050936799
-0.02611593 -0.059798401 0.050936799
-0.02611593 -0.059798401 0.050936799
-0.02611593 -0.059798401 0.050936799
-0.02611593 -0.059798401 0.050936799
-0.02611593 -0.059798401 0.050936799
-0.02611593 -0.059798401 0.050936799
-0.02611593 -0.059798401 0.050936799
-0.02611593 -0.059798401 0.050936799
-0.02611593 -0.059798401 0.050936799
