# .PCD v0.7 - Point Cloud Data file format
VERSION 0.7
FIELDS x y z
SIZE 4 4 4
TYPE F F F
COUNT 1 1 1
WIDTH 1399
HEIGHT 1
VIEWPOINT 0 0 0 1 0 0 0
POINTS 1399
DATA ascii
-0.11558704 -0.040984076 -0.030075181
-0.13066101 -0.050892364 -0.03197284
-0.12766458 -0.046885721 -0.032956798
-0.02611593 -0.059798401 0.050936799
-0.02611593 -0.059798401 0.050936799
-0.02611593 -0.059798401 0.050936799
-0.02611593 -0.059798401 0.050936799
-0.12557825 -0.043965768 -0.02894168
-0.12458147 -0.039951943 -0.029888049
-0.14267361 -0.049831375 -0.032729
-0.13967718 -0.045824733 -0.033712953
-0.02611593 -0.059798401 0.050936799
-0.02611593 -0.059798401 0.050936799
-0.02611593 -0.059798401 0.050936799
-0.02611593 -0.059798401 0.050936799
-0.13253561 -0.04297699 -0.026792802
-0.13561298 -0.038876463 -0.031662669
-0.15061599 -0.049856931 -0.02957968
-0.14560118 -0.045875557 -0.029601555
-0.02611593 -0.059798401 0.050936799
-0.02611593 -0.059798401 0.050936799
-0.02611593 -0.059798401 0.050936799
-0.02611593 -0.059798401 0.050936799
-0.14859971 -0.040847555 -0.030454759
-0.1385188 -0.038956136 -0.026607987
-0.16159131 -0.048835713 -0.028355315
-0.15555799 -0.04487602 -0.027396318
-0.02611593 -0.059798401 0.050936799
-0.02611593 -0.059798401 0.050936799
-0.02611593 -0.059798401 0.050936799
-0.02611593 -0.059798401 0.050936799
-0.16261196 -0.039779387 -0.031173341
-0.1515273 -0.036891732 -0.027327329
-0.17960282 -0.047753192 -0.028998718
-0.17763972 -0.042706955 -0.031945199
-0.02611593 -0.059798401 0.050936799
-0.02611593 -0.059798401 0.050936799
-0.02611593 -0.059798401 0.050936799
-0.02611593 -0.059798401 0.050936799
-0.17356464 -0.037776429 -0.028931275
-0.16855378 -0.034794886 -0.028971173
-0.19455476 -0.045735881 -0.026681501
-0.19764693 -0.040617425 -0.032533009
-0.02611593 -0.059798401 0.050936799
-0.02611593 -0.059798401 0.050936799
-0.02611593 -0.059798401 0.050936799
-0.02611593 -0.059798401 0.050936799
-0.1875207 -0.036762532 -0.026650868
-0.17950645 -0.032791924 -0.026729122
-0.22663467 -0.04353093 -0.031042479
-0.21863523 -0.038542401 -0.032102372
-0.02611593 -0.059798401 0.050936799
-0.02611593 -0.059798401 0.050936799
-0.02611593 -0.059798401 0.050936799
-0.02611593 -0.059798401 0.050936799
-0.21557869 -0.033590198 -0.030069333
-0.20254663 -0.02965562 -0.029241871
-0.25360316 -0.041452456 -0.029499438
-0.2496513 -0.03439565 -0.033447117
-0.02611593 -0.059798401 0.050936799
-0.02611593 -0.059798401 0.050936799
-0.02611593 -0.059798401 0.050936799
-0.02611593 -0.059798401 0.050936799
-0.24357659 -0.029472297 -0.030470785
-0.23056717 -0.026519464 -0.030661002
-0.9934572 0.022249328 -0.2395663
-0.26854634 -0.032418244 -0.02805575
-0.02611593 -0.059798401 0.050936799
-0.02611593 -0.059798401 0.050936799
-0.99802172 0.022851055 -0.21646211
-0.02611593 -0.059798401 0.050936799
-0.26750425 -0.026440941 -0.026966758
-0.25652799 -0.022444922 -0.029100716
-1.0076041 0.023488816 -0.19426361
-0.98888773 0.047778323 -0.21418144
-0.02611593 -0.059798401 0.050936799
-0.02611593 -0.059798401 0.050936799
-1.0192009 0.025151674 -0.17300923
-0.99447083 0.048401736 -0.19205815
-0.97171474 0.068623289 -0.20912419
-0.96000898 0.089938447 -0.22896451
-1.0287793 0.026789265 -0.15079275
-1.0141224 0.050147563 -0.1736524
-0.98333418 0.069304414 -0.18888745
-0.97566509 0.090670086 -0.21065193
-1.0473747 0.028477238 -0.12940681
-1.0196867 0.050752878 -0.15052943
-1.0029857 0.071050249 -0.17048171
-0.99431676 0.09241233 -0.19226499
-1.0408852 0.028985219 -0.10351034
-1.0373012 0.052455351 -0.13016194
-1.007569 0.071670063 -0.1483772
-0.99690825 0.091025315 -0.17023408
-1.0494452 0.030601133 -0.080312982
-1.0408658 0.053053498 -0.10707656
-1.0282015 0.073401392 -0.12895299
-1.0045097 0.091673985 -0.14907287
-1.0580088 0.031217217 -0.057133645
-1.0494297 0.053669579 -0.083897211
-1.0267524 0.07296367 -0.10497992
-1.0281605 0.09343417 -0.13059194
-1.0725636 0.033854488 -0.033805527
-1.0720204 0.056371737 -0.062418096
-1.0413712 0.073655561 -0.084686823
-1.0377426 0.094071925 -0.10839348
-1.0971355 0.036545739 -0.011289164
-1.0895934 0.059037872 -0.040033258
-1.0669576 0.077368312 -0.063133322
-1.041334 0.092688501 -0.086343795
-1.1126713 0.039168522 0.013057403
-1.1061331 0.060664408 -0.015685916
-1.0785395 0.078013249 -0.040897258
-1.0579299 0.0943693 -0.06499543
-1.1271926 0.040769789 0.038366821
-1.1146744 0.062262233 0.0085111111
-1.0940981 0.079654291 -0.017568372
-1.0725113 0.09502501 -0.04270301
-1.1347115 0.043345757 0.063562736
-1.1322137 0.063892357 0.032877237
-1.1086569 0.081291735 0.0057417229
-1.0930837 0.097701892 -0.020261809
-1.1592082 0.045964658 0.090077743
-1.1547258 0.067521997 0.058373019
-1.1311917 0.083939627 0.030219834
-1.098652 0.097307377 0.0028431341
-1.168708 0.048529718 0.11631089
-1.1602527 0.068091124 0.083495304
-1.1387182 0.084515944 0.0553797
-1.114192 0.098930337 0.027171686
-1.1911638 0.052105092 0.14480565
-1.1707374 0.069641866 0.11072889
-1.1532583 0.086135298 0.079689465
-1.1307317 0.10055687 0.051519025
-1.1846553 0.052594982 0.17170179
-1.1852173 0.072206773 0.13805565
-1.172756 0.088736244 0.10611051
-1.1482712 0.102187 0.075885162
-1.2080922 0.056155853 0.201215
-1.2056775 0.074775152 0.16649482
-1.1842403 0.090290561 0.13336289
-1.1548018 0.10175989 0.10100822
-1.2235119 0.05966993 0.23157755
-1.212144 0.076293439 0.19465292
-1.18873 0.090819947 0.16046572
-0.02611593 -0.059798401 0.050936799
-1.2259606 0.061155763 0.26066011
-1.2106347 0.07680127 0.22164297
-1.2071719 0.093363039 0.18986696
-1.186769 0.10490082 0.15568209
-0.02611593 -0.059798401 0.050936799
-1.2140833 0.078290701 0.25074434
-1.2066664 0.092874631 0.21685781
-0.02611593 -0.059798401 0.050936799
-0.02611593 -0.059798401 0.050936799
-0.02611593 -0.059798401 0.050936799
-1.212137 0.093389496 0.24497908
-1.2127038 0.10698424 0.21222451
-0.02611593 -0.059798401 0.050936799
-1.277755 0.088292055 0.3201409
-1.2305375 0.096896261 0.27639768
-0.02611593 -0.059798401 0.050936799
-1.3292227 0.078982234 0.40396452
-1.2861464 0.089745164 0.35233521
-0.02611593 -0.059798401 0.050936799
-1.2515122 0.11200526 0.27506322
-3.131212 0.27790359 0.9694925
-1.3571914 0.10013342 0.40187007
-1.3120897 0.1078535 0.35214841
-0.02611593 -0.059798401 0.050936799
-3.0780571 0.27759525 1.0305125
-1.3555846 0.10155065 0.43387645
-1.314486 0.10828524 0.38421196
-0.02611593 -0.059798401 0.050936799
-3.1381743 0.29006073 1.1288968
-3.0883029 0.31500474 1.0103742
-0.02611593 -0.059798401 0.050936799
-0.02611593 -0.059798401 0.050936799
-3.2101138 0.3044062 1.2365397
-3.1245902 0.32352948 1.1002382
-3.0984268 0.34527069 0.99810708
-1.3408045 0.12278266 0.41797841
-3.2750387 0.31770855 1.3450326
-3.1896174 0.33492264 1.2036968
-3.1118877 0.34885845 1.0794516
-3.1125438 0.36751619 0.9877702
-3.3497636 0.3338654 1.4637643
-3.2585421 0.34823939 1.3122649
-3.178937 0.35927704 1.1819301
-3.1011603 0.36614168 1.0615573
-3.4422524 0.35186946 1.594866
-3.3382738 0.36241454 1.4310545
-3.2449076 0.37061951 1.2884066
-3.1712124 0.37557119 1.1640741
-3.4999053 0.36789301 1.7172768
-3.4139273 0.37750283 1.5537854
-3.3157048 0.38281697 1.4039917
-3.2461107 0.38587382 1.2747002
-4.7319369 0.53070945 2.4415343
-3.4904497 0.39246804 1.6835328
-3.3973238 0.39689079 1.5288169
-3.3080149 0.39512992 1.3850641
-4.6175394 0.52792931 2.5153673
-5.0594025 0.60678238 2.5650833
-3.4798486 0.41087773 1.658659
-3.3856838 0.40622607 1.5077605
-3.4625857 0.38872686 1.9960494
-4.9547296 0.60176718 2.654063
-5.0905681 0.63516027 2.5511756
-3.4701977 0.4182024 1.638604
-4.6914282 0.56347519 2.834502
-4.8026128 0.59108716 2.7140424
-4.9858541 0.62609142 2.6430821
-5.0543308 0.63876855 2.5095482
-4.5800481 0.56072396 2.9073915
-3.4492538 0.41248569 2.062252
-4.7556057 0.59889048 2.6592846
-4.9971619 0.63345528 2.625421
-3.1830347 0.38020113 2.130707
-4.6093869 0.58324033 2.8853407
-3.4476159 0.42085701 2.0413656
-4.7054958 0.59454042 2.6122518
-4.3563886 0.55832577 3.0472081
-3.2121427 0.39446563 2.1225071
-4.6295643 0.59452736 2.8739188
-3.4528022 0.42105585 2.0314629
-2.6129482 0.31758887 1.9288323
-4.3886275 0.57272774 3.0320671
-3.4731958 0.43476501 2.2741749
-4.6427655 0.59075552 2.8640943
-2.5481699 0.3175993 1.9696335
-2.6242034 0.3238987 1.9141523
-4.4048562 0.57601976 3.0194261
-4.529387 0.57796264 2.9387653
-2.4578049 0.31389689 1.9888811
-2.5544977 0.31994611 1.9517883
-2.6362948 0.32403222 1.9093795
-4.4061875 0.56329691 3.0042157
-2.4098468 0.3158052 2.0390348
-2.4759474 0.31510606 1.9812402
-2.5685594 0.31805092 1.9490165
-4.3106823 0.55345958 3.0852771
-2.371752 0.31862253 2.0963919
-2.4191189 0.31309122 2.0251546
-2.5865316 0.32620355 2.0555365
-2.7117147 0.32685116 2.0468891
-1.8874233 0.2489509 1.7499462
-2.3849111 0.31581444 2.0885849
-2.426235 0.30720785 2.0201797
-2.7709711 0.33848453 2.191258
-1.836848 0.24921054 1.7800143
-1.8955911 0.24412516 1.7420092
-2.388077 0.30695334 2.0814815
-3.9947076 0.52134675 3.2998531
-1.881462 0.26615101 1.9041981
-1.8450012 0.24336687 1.7730589
-1.8987008 0.23520981 1.7379048
-2.4688833 0.30109078 2.1469104
-2.0455589 0.30620968 2.1590812
-1.8592327 0.25275823 1.8655267
-1.8471189 0.23244829 1.7688996
-1.9037213 0.22019413 1.7397279
-2.239645 0.35343769 2.4666739
-2.0311713 0.28968334 2.129503
-1.8505404 0.23696382 1.8520736
-1.8531284 0.21541843 1.771705
-3.267977 0.56440353 3.7491779
-2.23611 0.33580625 2.4452815
-2.0313504 0.27279475 2.123199
-1.8555353 0.21891244 1.8558418
-3.1738365 0.56696564 3.8084817
-3.2890341 0.53944695 3.7511213
-2.2352672 0.31487858 2.4408855
-2.0382857 0.25067893 2.1309314
-3.0817137 0.56955302 3.8668237
-3.1958301 0.53894079 3.8143885
-3.2979748 0.50630403 3.7606926
-2.255856 0.28946981 2.4678206
-2.9885728 0.5721187 3.926146
-3.0987239 0.53751093 3.8725646
-3.2008433 0.50183845 3.8208134
-3.2911234 0.45925069 3.7617133
-2.8838019 0.5719856 3.9661958
-3.0094595 0.5379647 3.9389238
-3.1037118 0.49737293 3.8809345
-3.1929665 0.45174587 3.823761
-2.7829697 0.57281238 4.0093374
-2.9153717 0.53656375 3.9961562
-3.0094972 0.49484539 3.9451466
-3.0987296 0.44518292 3.8899002
-2.7045481 0.57917792 4.0830092
-2.8222611 0.53614807 4.0544252
-2.9163425 0.49137598 4.0063605
-3.0015874 0.4386996 3.950985
-2.6076965 0.580001 4.1272254
-2.7349546 0.53757268 4.1228395
-2.8251123 0.48784143 4.0716105
-2.9014869 0.43124193 4.0099959
-2.5127432 0.58274043 4.1765141
-2.6418405 0.53815675 4.1811261
-2.7290101 0.48541522 4.1297874
-2.8092275 0.42566785 4.0771904
-2.3587592 0.57009077 4.1233845
-2.5438018 0.53879535 4.235321
-2.6357536 0.48385495 4.1960354
-2.7119839 0.42109382 4.1433096
-2.2677822 0.57382631 4.1737657
-2.4526079 0.54031408 4.2976623
-2.5405955 0.48137817 4.2572293
-2.6148374 0.41561031 4.2044115
-2.2654879 0.60481179 4.396359
-2.3585124 0.54091275 4.3549309
-2.444452 0.47991571 4.3174238
-2.5176687 0.41110861 4.2665324
-2.1012595 0.58682913 4.3039274
-2.2596092 0.54067445 4.4020905
-2.3502748 0.47742441 4.3796363
-2.4224057 0.40652356 4.3336887
-2.0247545 0.59512925 4.3816719
-2.1683743 0.54315692 4.4664493
-2.252244 0.47606331 4.4337945
-2.3271992 0.40199289 4.3978462
-1.7575262 0.53841519 4.0295229
-2.0761769 0.54567194 4.52879
-2.1550446 0.47454298 4.4969687
-2.2299929 0.39745498 4.4619656
-1.0422976 0.31250516 2.5345387
-1.9714844 0.54461133 4.5648227
-2.0627241 0.47493169 4.5662708
-2.1278393 0.3939532 4.5230103
-0.95734489 0.30315694 2.4797606
-1.0246609 0.26862893 2.5234113
-1.9625776 0.47445479 4.6264076
-2.0276484 0.39042246 4.586092
-0.87737256 0.29380858 2.4260762
-0.93592268 0.25746566 2.4575255
-0.99435663 0.22201408 2.4949911
-1.0489273 0.18065767 2.5262752
-0.80045587 0.28452522 2.3694489
-0.85306722 0.24721526 2.3977687
-0.90846431 0.21171667 2.4371772
-0.96094155 0.17026266 2.4734218
-0.72558016 0.27428544 2.310842
-0.77897751 0.23877972 2.3502126
-0.82655245 0.2014156 2.3804379
-0.87219954 0.16009924 2.4075541
-0.65850401 0.26689291 2.2624362
-0.70317698 0.22860867 2.2875881
-0.74680871 0.19128446 2.3147392
-0.79218972 0.15071468 2.3558688
-0.59532952 0.26042417 2.2191215
-0.63510096 0.22121255 2.2391636
-0.67477483 0.18291035 2.2642219
-0.71242338 0.14156529 2.2911882
-0.53323376 0.25303152 2.1718092
-0.57090801 0.2147221 2.19683
-0.60656381 0.17638746 2.2228127
-0.63942707 0.13322379 2.2386527
-0.47782531 0.24837409 2.1406767
-0.51065803 0.20819175 2.1575704
-0.54154742 0.16805659 2.1714272
-0.57129496 0.12577344 2.1932271
-0.42255577 0.24184358 2.1025112
-0.45242655 0.20168668 2.1173489
-0.48316213 0.16240661 2.1392212
-0.50900412 0.12019958 2.1559472
-0.3712028 0.23725474 2.0684552
-0.39715311 0.19615605 2.079201
-0.42298716 0.15594862 2.095963
-0.44688562 0.11378866 2.1096525
-0.32171443 0.2335463 2.0414522
-0.34574395 0.19151294 2.0481441
-0.36865738 0.15036729 2.060833
-0.38869154 0.10731976 2.0674317
-0.27599281 0.2316348 2.0265567
-0.29716179 0.18771763 2.0261583
-0.31715065 0.14663357 2.0347924
-0.33515167 0.10254285 2.0433347
-0.23699084 0.23955624 2.077987
-0.25555447 0.19099095 2.0574491
-0.27097183 0.14628759 2.0439246
-0.28350997 0.099682346 2.0243096
-0.1977938 0.24929647 2.1394503
-0.21530929 0.19867365 2.1218565
-0.22992977 0.1501483 2.0982447
-0.24232204 0.10239848 2.0866089
-0.15557857 0.25900787 2.2018566
-0.17219964 0.20547241 2.1791916
-0.18673047 0.15585673 2.1605599
-0.19826576 0.10523051 2.141854
-0.1759045 0.51873147 3.944526
-0.2315938 0.49496746 4.4983268
-0.14039668 0.16242766 2.2298348
-0.15188758 0.10874766 2.2140737
-0.09029863 0.51778471 3.9228985
-0.13072461 0.49471349 4.4904308
-0.18159339 0.47331744 5.3002706
-0.24879722 0.44059181 6.5203505
-0.006617479 0.51677293 3.9053078
-0.032054067 0.49164811 4.4725218
-0.059278712 0.472554 5.3159714
-0.09359397 0.43680084 6.5303798
0.074929036 0.51489496 3.8807387
0.067912839 0.49230719 4.4696608
0.062751204 0.47106212 5.3166604
0.063681126 0.43799236 6.5964789
0.15767044 0.51483226 3.8661833
0.16647497 0.49035016 4.4457722
0.18545872 0.46887428 5.3003178
0.21980113 0.43122607 6.5494175
0.24122053 0.51394707 3.8415947
0.26625073 0.49019027 4.4328971
0.3062267 0.46763921 5.2870297
0.36795843 0.41734588 6.3993411
0.32186869 0.51398194 3.8220792
0.3639667 0.48909193 4.4170423
0.42900908 0.46537894 5.2746863
0.50297099 0.39859521 6.1894031
0.40251684 0.51401687 3.802563
0.4594171 0.4872542 4.3872123
0.54981846 0.46510747 5.2634158
0.63161844 0.38327202 6.0126576
0.48091418 0.51229435 3.7700529
0.55381143 0.48547444 4.3544011
0.6798147 0.47068465 5.3140998
0.7498104 0.36641926 5.8120718
-0.02611593 -0.059798401 0.050936799
-0.02611593 -0.059798401 0.050936799
-0.02611593 -0.059798401 0.050936799
-0.02611593 -0.059798401 0.050936799
-0.02611593 -0.059798401 0.050936799
-0.02611593 -0.059798401 0.050936799
-0.02611593 -0.059798401 0.050936799
0.97564018 0.34139833 5.4862809
0.71776593 0.51250744 3.7066009
-0.02611593 -0.059798401 0.050936799
1.0622778 0.47582406 5.3340387
1.078645 0.32984215 5.3280897
0.28348896 0.1563085 1.4225143
0.28415924 0.11547469 1.4127597
0.28591603 0.077564426 1.407039
0.29174694 0.039567448 1.4052421
-0.02611593 -0.059798401 0.050936799
-0.02611593 -0.059798401 0.050936799
1.2487553 0.45133147 5.0430059
1.268984 0.30847943 5.0290384
0.94508737 0.51125973 3.6152914
-0.02611593 -0.059798401 0.050936799
1.3383884 0.44122827 4.9181023
1.359336 0.29864401 4.8891215
1.0184107 0.50962764 3.5788767
1.2189035 0.48677209 4.1929173
1.4198507 0.43031675 4.7843347
1.447 0.29152939 4.7653093
1.0971045 0.5116331 3.5614336
1.3187697 0.49053919 4.184113
1.5035825 0.42114455 4.6645603
1.5306609 0.28342932 4.6415544
1.1651814 0.50925428 3.5120993
1.4122096 0.49072641 4.1533566
1.5845287 0.41378367 4.5558748
1.6134608 0.27720585 4.5248523
1.2375503 0.5095892 3.4777386
-0.02611593 -0.059798401 0.050936799
-0.02611593 -0.059798401 0.050936799
-0.02611593 -0.059798401 0.050936799
-0.02611593 -0.059798401 0.050936799
0.38676235 0.080096029 1.0780853
0.48689336 0.073736086 1.2981701
0.4986631 0.034772001 1.2932433
0.49723533 0.15165074 1.3013871
0.50802392 0.11267217 1.2974787
1.8021243 0.39102629 4.2172742
1.8296378 0.25786757 4.163332
-0.02611593 -0.059798401 0.050936799
1.8161836 0.50524712 4.0920353
1.8669758 0.38281351 4.1038733
1.8975194 0.25262541 4.0509281
1.5365303 0.5154255 3.3662088
1.881361 0.49872655 3.9956641
1.9351046 0.37833607 4.0044827
1.9656106 0.24818411 3.9495387
1.5984919 0.51217699 3.3109713
1.9560395 0.49570259 3.9251873
2.0002675 0.37283331 3.9071302
2.0347993 0.24464862 3.853147
1.6636294 0.51075441 3.2647102
2.0193715 0.49004421 3.8368692
2.0603375 0.36743903 3.8048735
2.0948212 0.24130821 3.747927
1.7319053 0.51119411 3.2254267
2.0816846 0.48440754 3.7475703
2.1205578 0.36189997 3.7106137
2.1601269 0.23867835 3.6576262
1.7980694 0.51174957 3.1801825
2.1389613 0.478825 3.6563661
2.1880352 0.36009997 3.6292903
2.2213736 0.23511733 3.5643835
1.8663265 0.51220745 3.1398993
2.2025294 0.47594905 3.5800977
2.2411816 0.35465842 3.5311637
2.2805865 0.23259945 3.469197
1.9397404 0.51450235 3.1075554
2.2588477 0.47133377 3.4909298
2.299526 0.35201752 3.4429939
2.3419757 0.23191124 3.3830059
2.0120795 0.51687306 3.0712314
2.3122039 0.4666931 3.4038174
2.3558898 0.34936568 3.3558609
2.3983018 0.22929558 3.293874
2.0813406 0.51832718 3.0309472
2.3697169 0.463893 3.3246632
2.4143651 0.34659815 3.2746882
2.4485204 0.22780985 3.1988745
2.1578138 0.52155685 3.001564
2.4262867 0.46104211 3.2485266
2.464711 0.34398597 3.1866686
2.5111005 0.227937 3.1226792
2.2403507 0.52671033 2.9751029
2.473681 0.45638686 3.1635263
2.5202098 0.34221095 3.1065702
2.5665283 0.22723418 3.0386004
2.2982869 0.52651173 2.9179952
2.5302734 0.45451775 3.0884075
2.5757496 0.34139958 3.0284894
2.6199939 0.22650237 2.9565582
2.3511236 0.52442187 2.8559473
2.5807879 0.4517428 3.0093846
2.6313088 0.34057009 2.9514079
2.6744633 0.22676674 2.8745155
2.412101 0.52517623 2.8008006
2.6292877 0.44999287 2.9294178
2.6827934 0.33982739 2.8704033
2.7228589 0.22712505 2.7885866
2.4608593 0.52217317 2.7348111
2.6849589 0.44905487 2.8583345
2.7312973 0.33907729 2.7904544
2.7784255 0.22829525 2.7115414
2.5310717 0.52567762 2.6915452
2.731478 0.44729403 2.7794046
2.7767603 0.33737433 2.7085445
2.8248775 0.22860643 2.6286492
2.5808897 0.52361655 2.6285539
2.7800715 0.4454537 2.7044365
2.8314021 0.33847576 2.6355169
2.8764265 0.22980909 2.5506794
2.6286373 0.52263498 2.5616195
2.8337843 0.44548658 2.6354079
2.8748693 0.33777982 2.5536628
2.9737015 0.2361618 2.5099592
2.6916933 0.52430952 2.5104518
2.8803449 0.44468936 2.5584958
2.9742606 0.34501666 2.5189211
3.0262539 0.2383607 2.4319887
2.7506566 0.52608889 2.454361
3.0448651 0.46464509 2.5807838
3.0258284 0.34620124 2.441951
3.083899 0.2404512 2.3589222
2.7821479 0.52140051 2.3746595
3.3453469 0.50628859 2.7019527
3.0683184 0.34649062 2.3611329
3.1313775 0.24274039 2.2770472
2.8380742 0.52322686 2.3166258
3.3856232 0.50478452 2.6101401
3.1158528 0.34872553 2.2822568
3.1809156 0.24596797 2.1981514
2.887881 0.52318364 2.2526708
3.443171 0.50596565 2.5320575
3.1756136 0.35170016 2.2151692
3.2345095 0.24912694 2.1221793
2.9457886 0.52502084 2.1935999
3.4926038 0.50628418 2.4481091
3.223186 0.35389885 2.1382921
3.2840288 0.25237256 2.0422838
3.0016961 0.5268653 2.1345665
3.5248034 0.50388128 2.3524308
3.2656803 0.35518807 2.0574925
4.6847281 0.38345382 2.7326641
3.0565476 0.52876765 2.0725529
3.6096878 0.51065695 2.2909429
4.3713999 0.49024767 2.5914145
4.796114 0.39362049 2.6437325
3.1012623 0.52883267 2.0036936
3.6823792 0.51565689 2.2196484
4.4598112 0.49646139 2.504842
4.5872374 0.37300596 2.3901844
3.1560805 0.53177106 1.9396987
3.7237196 0.51609462 2.130852
4.5036912 0.49934027 2.3910341
4.6724701 0.38141099 2.2937078
3.1977727 0.53086513 1.8698781
3.7781971 0.51835865 2.0488455
4.5950918 0.50756091 2.303442
4.9645119 0.40937617 2.287744
3.2424726 0.53194821 1.800037
3.8195229 0.51981425 1.9590675
4.6369677 0.5094471 2.1896532
4.8861537 0.4028669 2.1110334
3.3013124 0.53585392 1.7369847
3.8578262 0.5202989 1.8683283
4.7242756 0.51777261 2.0971382
5.1385694 0.42756969 2.0727413
3.3338754 0.53510708 1.6603355
3.9032118 0.52268565 1.7814925
4.739924 0.51796949 1.971806
5.5398669 0.46792442 2.0769591
3.3835969 0.5371539 1.5914183
3.9122655 0.52051008 1.6782485
4.6316524 0.50346065 1.8015131
5.5460606 0.47160527 1.9268591
3.4282444 0.53929102 1.5185964
3.950577 0.5229944 1.5875454
4.6846919 0.50916195 1.6955872
5.5352311 0.47336558 1.7760427
3.4627922 0.53955483 1.440928
3.9788263 0.52356917 1.4939952
4.7004795 0.5112319 1.577289
5.5445595 0.47790891 1.6329017
3.5155022 0.54360867 1.3709908
4.0191936 0.52599198 1.4062535
4.7042427 0.51136321 1.4581805
5.5579805 0.48234746 1.4946837
3.5450282 0.54290867 1.2923987
4.0403886 0.5266462 1.3098359
4.7291451 0.51429218 1.3457292
5.6226592 0.49236673 1.3686113
3.5866053 0.54612875 1.2156523
4.0676231 0.52824247 1.2153227
4.7479916 0.51729685 1.2303916
5.6762462 0.50251597 1.2377472
3.6241567 0.54738164 1.1379458
4.09588 0.53081691 1.1218086
4.7708979 0.52123278 1.1179959
5.7137389 0.51181322 1.1021675
3.6807804 0.55351132 1.062971
4.1311407 0.53436607 1.028181
4.7706504 0.52339631 0.99799889
5.7401919 0.52018642 0.96477723
3.6971924 0.55196673 0.97860718
4.1694221 0.53888619 0.93551451
4.7875586 0.5273537 0.88571584
-0.02611593 -0.059798401 0.050936799
3.7367134 0.5552482 0.89889956
4.1685419 0.53869182 0.83549362
4.7833495 0.52949542 0.76779342
5.6256738 0.52191448 0.67185324
3.7782156 0.5585407 0.81815475
4.2088237 0.54320484 0.74278963
4.8093195 0.53536594 0.65837628
5.5970988 0.52550393 0.53440654
3.80866 0.56092703 0.73459959
4.2360287 0.54683691 0.64631319
4.7951274 0.53652561 0.54162341
5.8369894 0.5587464 0.41347551
3.8240201 0.56044018 0.64727354
4.2562165 0.55051225 0.54896873
4.8060393 0.54150438 0.42947119
3.5644872 0.32370022 0.18769453
3.8413877 0.56194574 0.559946
4.2673831 0.55323821 0.45077574
4.7958922 0.54461318 0.31467846
3.5408664 0.32635275 0.10115544
3.865773 0.56340808 0.4734866
4.2735095 0.55501837 0.35065928
-0.02611593 -0.059798401 0.050936799
3.0180981 0.27482376 0.021984117
3.8921428 0.56588113 0.38600796
4.261631 0.55486345 0.25084504
-0.02611593 -0.059798401 0.050936799
3.0337706 0.28206411 -0.050202809
3.9305222 0.5713107 0.29835793
3.5419457 0.45277041 0.13443328
2.9859486 0.32627362 0.0045107994
3.0704093 0.29126498 -0.12474762
-0.02611593 -0.059798401 0.050936799
3.5284047 0.45229709 0.052650519
2.9596386 0.32662973 -0.065013736
2.6674345 0.25056523 -0.1649527
3.5427122 0.50819153 0.11141364
2.985729 0.37566322 -0.016598839
2.7814276 0.30739006 -0.12404518
2.6922023 0.25868267 -0.23229241
-0.02611593 -0.059798401 0.050936799
3.0144136 0.38183907 -0.088048398
2.6543248 0.2938759 -0.17892855
2.7329197 0.26879665 -0.30289569
2.981539 0.41801414 -0.03476046
2.7632322 0.34779155 -0.14197978
2.6910946 0.30295011 -0.24647571
2.3106251 0.22350006 -0.30580959
2.9562321 0.41434929 -0.10337619
2.7320464 0.34603932 -0.20444876
1.946254 0.20624271 -0.21226805
2.3345246 0.23149449 -0.36613286
2.7580564 0.38411093 -0.15823141
2.5141778 0.31658316 -0.24291554
2.3005772 0.25871089 -0.31498766
2.3703363 0.24153593 -0.43164393
2.7688413 0.38624346 -0.22341685
2.4521654 0.30976215 -0.2948955
2.3294756 0.26668739 -0.37540492
2.3951647 0.25059897 -0.49596667
2.5320051 0.34980237 -0.25865376
2.3333569 0.29493001 -0.33395264
2.3623025 0.2757217 -0.43987793
2.6480429 0.29082981 -0.61901522
2.4719841 0.34097457 -0.31070733
2.3283317 0.2969391 -0.38884079
2.3881269 0.28378129 -0.50423741
2.591053 0.2899898 -0.67098099
2.301291 0.3151862 -0.34098825
2.352186 0.30297005 -0.45119944
2.6469748 0.32602641 -0.62936205
2.4784017 0.28200832 -0.70302713
2.3241794 0.32018474 -0.40134683
2.3829758 0.31204772 -0.51763421
2.5541365 0.31915385 -0.67176253
2.4772084 0.28918311 -0.76789695
2.351037 0.32720473 -0.46374384
2.6378281 0.35530698 -0.64266562
2.4504571 0.3091585 -0.70501351
2.4074228 0.28719097 -0.80864018
2.4077363 0.33827919 -0.53562939
2.516151 0.34035903 -0.67466873
2.4512777 0.31530818 -0.76893926
-0.02611593 -0.059798401 0.050936799
2.5938392 0.37051663 -0.64456755
2.4791384 0.33946535 -0.72801006
2.4153106 0.31637442 -0.82026398
0.18144712 -0.029088374 -0.033422414
2.4831221 0.35556534 -0.67877674
2.4491103 0.33956453 -0.7824645
-0.02611593 -0.059798401 0.050936799
-0.02611593 -0.059798401 0.050936799
2.5028462 0.36173728 -0.74805778
-0.02611593 -0.059798401 0.050936799
0.18341716 -0.027059712 -0.035423275
0.15940586 -0.030972894 -0.03504438
2.4419649 0.35478607 -0.79305899
-0.02611593 -0.059798401 0.050936799
-0.02611593 -0.059798401 0.050936799
-0.02611593 -0.059798401 0.050936799
-0.02611593 -0.059798401 0.050936799
0.18242519 -0.025056463 -0.03536845
0.16337553 -0.028951418 -0.037082836
0.13543589 -0.033922434 -0.032648142
0.19145013 -0.023107193 -0.034501873
-0.02611593 -0.059798401 0.050936799
-0.02611593 -0.059798401 0.050936799
-0.02611593 -0.059798401 0.050936799
-0.02611593 -0.059798401 0.050936799
0.15739535 -0.028947972 -0.035970427
0.13938685 -0.03188286 -0.035686251
0.12039728 -0.03483225 -0.034383621
0.16443937 -0.027009612 -0.034066603
-0.02611593 -0.059798401 0.050936799
-0.02611593 -0.059798401 0.050936799
-0.02611593 -0.059798401 0.050936799
-0.02611593 -0.059798401 0.050936799
0.12946358 -0.03191933 -0.031499702
0.11940138 -0.033828832 -0.034346811
0.10244887 -0.036821581 -0.031082448
0.14341269 -0.029915646 -0.034725711
-0.02611593 -0.059798401 0.050936799
-0.02611593 -0.059798401 0.050936799
-0.02611593 -0.059798401 0.050936799
-0.02611593 -0.059798401 0.050936799
0.11543956 -0.033850655 -0.032272331
0.1063811 -0.034763917 -0.035120219
0.089447327 -0.037774749 -0.030856192
0.12440439 -0.032846946 -0.034422744
-0.02611593 -0.059798401 0.050936799
-0.02611593 -0.059798401 0.050936799
-0.02611593 -0.059798401 0.050936799
-0.02611593 -0.059798401 0.050936799
0.10141554 -0.035781983 -0.033044968
0.096341573 -0.035691682 -0.036949661
0.078445412 -0.038735107 -0.030667514
0.10939928 -0.034792773 -0.034176927
-0.02611593 -0.059798401 0.050936799
-0.02611593 -0.059798401 0.050936799
-0.02611593 -0.059798401 0.050936799
-0.02611593 -0.059798401 0.050936799
0.089413799 -0.036738746 -0.032837499
0.085320927 -0.036633942 -0.037760638
0.074356452 -0.037630472 -0.035572644
0.097378828 -0.03573145 -0.034969125
-0.02611593 -0.059798401 0.050936799
-0.02611593 -0.059798401 0.050936799
-0.02611593 -0.059798401 0.050936799
-0.02611593 -0.059798401 0.050936799
0.074464865 -0.038738836 -0.029592693
0.071390525 -0.038655713 -0.033534959
0.06044478 -0.039670333 -0.030347303
0.086354256 -0.03767354 -0.035798132
-0.02611593 -0.059798401 0.050936799
-0.02611593 -0.059798401 0.050936799
-0.02611593 -0.059798401 0.050936799
-0.02611593 -0.059798401 0.050936799
0.066443674 -0.039691865 -0.030460045
0.061407149 -0.039637744 -0.032365419
0.051461227 -0.040655948 -0.029196549
0.07338623 -0.039662722 -0.033590559
-0.02611593 -0.059798401 0.050936799
-0.02611593 -0.059798401 0.050936799
-0.02611593 -0.059798401 0.050936799
-0.02611593 -0.059798401 0.050936799
0.054494195 -0.041702725 -0.02727161
0.055352081 -0.039561946 -0.035251662
0.047387067 -0.040569235 -0.033120025
0.062403046 -0.040641159 -0.032402229
-0.02611593 -0.059798401 0.050936799
-0.02611593 -0.059798401 0.050936799
-0.02611593 -0.059798401 0.050936799
-0.02611593 -0.059798401 0.050936799
0.051419854 -0.041619603 -0.031213883
0.053258836 -0.039464321 -0.040212385
0.043335553 -0.039500788 -0.036025833
0.057347786 -0.040568948 -0.035307262
-0.02611593 -0.059798401 0.050936799
-0.02611593 -0.059798401 0.050936799
-0.02611593 -0.059798401 0.050936799
-0.02611593 -0.059798401 0.050936799
0.040492833 -0.042652313 -0.02702656
0.042350534 -0.040515114 -0.035025403
0.036370356 -0.040511668 -0.033912994
0.046416841 -0.042601489 -0.031137951
-0.02611593 -0.059798401 0.050936799
-0.02611593 -0.059798401 0.050936799
-0.02611593 -0.059798401 0.050936799
-0.02611593 -0.059798401 0.050936799
0.036437392 -0.042583689 -0.029950384
0.037295282 -0.040442903 -0.037930429
0.031352546 -0.040475637 -0.034818709
0.041380305 -0.042547364 -0.033043314
-0.02611593 -0.059798401 0.050936799
-0.02611593 -0.059798401 0.050936799
-0.02611593 -0.059798401 0.050936799
-0.02611593 -0.059798401 0.050936799
0.031400859 -0.042529564 -0.031855758
0.032277472 -0.040406872 -0.038836144
0.025353644 -0.040454105 -0.034705967
0.036325056 -0.042475153 -0.035948355
-0.02611593 -0.059798401 0.050936799
-0.02611593 -0.059798401 0.050936799
-0.02611593 -0.059798401 0.050936799
-0.02611593 -0.059798401 0.050936799
0.026397849 -0.04351145 -0.031779826
0.026278572 -0.040385336 -0.038723402
0.021316929 -0.040403567 -0.03663012
0.029359851 -0.043486036 -0.033835515
-0.02611593 -0.059798401 0.050936799
-0.02611593 -0.059798401 0.050936799
-0.02611593 -0.059798401 0.050936799
-0.02611593 -0.059798401 0.050936799
-0.02611593 -0.059798401 0.050936799
0.020294461 -0.041381724 -0.037629005
0.016317846 -0.040385623 -0.036536168
0.023357023 -0.044464335 -0.033740789
-0.02611593 -0.059798401 0.050936799
-0.02611593 -0.059798401 0.050936799
-0.02611593 -0.059798401 0.050936799
-0.02611593 -0.059798401 0.050936799
-0.02611593 -0.059798401 0.050936799
0.015295379 -0.041363779 -0.037535053
-0.02611593 -0.059798401 0.050936799
0.021248978 -0.043348793 -0.039683159
-0.02611593 -0.059798401 0.050936799
-0.02611593 -0.059798401 0.050936799
-0.02611593 -0.059798401 0.050936799
-0.02611593 -0.059798401 0.050936799
-0.02611593 -0.059798401 0.050936799
0.012224962 -0.040280826 -0.041459311
-0.02611593 -0.059798401 0.050936799
0.015264875 -0.044345181 -0.038588777
-0.02611593 -0.059798401 0.050936799
-0.02611593 -0.059798401 0.050936799
-0.02611593 -0.059798401 0.050936799
-0.02611593 -0.059798401 0.050936799
-0.02611593 -0.059798401 0.050936799
0.0081695272 -0.040212199 -0.044383135
-0.02611593 -0.059798401 0.050936799
-0.02611593 -0.059798401 0.050936799
-0.02611593 -0.059798401 0.050936799
-0.02611593 -0.059798401 0.050936799
-0.02611593 -0.059798401 0.050936799
-0.02611593 -0.059798401 0.050936799
-0.02611593 -0.059798401 0.050936799
-0.02611593 -0.059798401 0.050936799
-0.02611593 -0.059798401 0.050936799
-0.02611593 -0.059798401 0.050936799
-0.02611593 -0.059798401 0.050936799
-0.02611593 -0.059798401 0.050936799
-0.02611593 -0.059798401 0.050936799
-0.02611593 -0.059798401 0.050936799
-0.02611593 -0.059798401 0.050936799
-0.02611593 -0.059798401 0.050936799
-0.02611593 -0.059798401 0.050936799
-0.02611593 -0.059798401 0.050936799
-0.02611593 -0.059798401 0.050936799
-0.02611593 -0.059798401 0.050936799
-0.02611593 -0.059798401 0.050936799
-0.02611593 -0.059798401 0.050936799
-0.02611593 -0.059798401 0.050936799
-0.02611593 -0.059798401 0.050936799
-0.02611593 -0.059798401 0.050936799
-0.02611593 -0.059798401 0.050936799
-0.02611593 -0.059798401 0.050936799
-0.02611593 -0.059798401 0.050936799
-0.02611593 -0.059798401 0.050936799
-0.02611593 -0.059798401 0.050936799
-0.02611593 -0.059798401 0.050936799
-0.02611593 -0.059798401 0.050936799
-0.02611593 -0.059798401 0.050936799
-0.02611593 -0.059798401 0.050936799
-0.02611593 -0.059798401 0.050936799
-0.02611593 -0.059798401 0.050936799
-0.02611593 -0.059798401 0.050936799
-0.02611593 -0.059798401 0.050936799
-0.02611593 -0.059798401 0.050936799
-0.02611593 -0.059798401 0.050936799
-0.02611593 -0.059798401 0.050936799
-0.02611593 -0.059798401 0.050936799
-0.02611593 -0.059798401 0.050936799
-0.02611593 -0.059798401 0.050936799
-0.02611593 -0.059798401 0.050936799
-0.02611593 -0.059798401 0.050936799
-0.02611593 -0.059798401 0.050936799
-0.02611593 -0.059798401 0.050936799
-0.02611593 -0.059798401 0.050936799
-0.02611593 -0.059798401 0.050936799
-0.02611593 -0.059798401 0.050936799
-0.02611593 -0.059798401 0.050936799
-0.02611593 -0.059798401 0.050936799
-0.02611593 -0.059798401 0.050936799
-0.02611593 -0.059798401 0.050936799
-0.02611593 -0.059798401 0.050936799
-0.02611593 -0.059798401 0.050936799
-0.02611593 -0.059798401 0.050936799
-0.02611593 -0.059798401 0.050936799
-0.02611593 -0.059798401 0.050936799
-0.02611593 -0.059798401 0.050936799
-0.02611593 -0.059798401 0.050936799
-0.02611593 -0.059798401 0.050936799
-0.02611593 -0.059798401 0.050936799
-0.02611593 -0.059798401 0.050936799
-0.02611593 -0.059798401 0.050936799
-0.02611593 -0.059798401 0.050936799
-0.02611593 -0.059798401 0.050936799
-0.02611593 -0.059798401 0.050936799
-0.02611593 -0.059798401 0.050936799
-0.02611593 -0.059798401 0.050936799
-0.02611593 -0.059798401 0.050936799
-0.02611593 -0.059798401 0.050936799
-0.02611593 -0.059798401 0.050936799
-0.02611593 -0.059798401 0.050936799
-0.02611593 -0.059798401 0.050936799
-0.02611593 -0.059798401 0.050936799
-0.02611593 -0.059798401 0.050936799
-0.02611593 -0.059798401 0.050936799
-0.02611593 -0.059798401 0.050936799
-0.02611593 -0.059798401 0.050936799
-0.02611593 -0.059798401 0.050936799
-0.02611593 -0.059798401 0.050936799
-0.02611593 -0.059798401 0.050936799
-0.02611593 -0.059798401 0.050936799
-0.02611593 -0.059798401 0.050936799
-0.02611593 -0.059798401 0.050936799
-0.02611593 -0.059798401 0.050936799
-0.02611593 -0.059798401 0.050936799
-0.02611593 -0.059798401 0.050936799
-0.02611593 -0.059798401 0.050936799
-0.02611593 -0.059798401 0.050936799
-0.02611593 -0.059798401 0.050936799
-0.02611593 -0.059798401 0.050936799
-0.02611593 -0.059798401 0.050936799
-0.02611593 -0.059798401 0.050936799
-0.02611593 -0.059798401 0.050936799
-0.02611593 -0.059798401 0.050936799
-0.02611593 -0.059798401 0.050936799
-0.02611593 -0.059798401 0.050936799
-0.02611593 -0.059798401 0.050936799
-0.02611593 -0.059798401 0.050936799
-0.02611593 -0.059798401 0.050936799
-0.02611593 -0.059798401 0.050936799
-0.02611593 -0.059798401 0.050936799
-0.02611593 -0.059798401 0.050936799
-0.02611593 -0.059798401 0.050936799
-0.02611593 -0.059798401 0.050936799
-0.02611593 -0.059798401 0.050936799
-0.02611593 -0.059798401 0.050936799
-0.02611593 -0.059798401 0.050936799
-0.02611593 -0.059798401 0.050936799
-0.02611593 -0.059798401 0.050936799
-0.02611593 -0.059798401 0.050936799
-0.02611593 -0.059798401 0.050936799
-0.02611593 -0.059798401 0.050936799
-0.02611593 -0.059798401 0.050936799
-0.02611593 -0.059798401 0.050936799
-0.02611593 -0.059798401 0.050936799
-0.02611593 -0.059798401 0.050936799
-0.02611593 -0.059798401 0.050936799
-0.02611593 -0.059798401 0.050936799
-0.02611593 -0.059798401 0.050936799
-0.02611593 -0.059798401 0.050936799
-0.02611593 -0.059798401 0.050936799
-0.02611593 -0.059798401 0.050936799
-0.02611593 -0.059798401 0.050936799
-0.02611593 -0.059798401 0.050936799
-0.02611593 -0.059798401 0.050936799
-0.02611593 -0.059798401 0.050936799
-0.02611593 -0.059798401 0.050936799
-0.02611593 -0.059798401 0.050936799
-0.02611593 -0.059798401 0.050936799
-0.02611593 -0.059798401 0.050936799
-0.02611593 -0.059798401 0.050936799
-0.067744687 -0.035994396 -0.03988399
-0.02611593 -0.059798401 0.050936799
-0.02611593 -0.059798401 0.050936799
-0.02611593 -0.059798401 0.050936799
-0.02611593 -0.059798401 0.050936799
-0.02611593 -0.059798401 0.050936799
-0.02611593 -0.059798401 0.050936799
-0.02611593 -0.059798401 0.050936799
-0.072743773 -0.035976451 -0.039790038
-0.02611593 -0.059798401 0.050936799
-0.02611593 -0.059798401 0.050936799
-0.02611593 -0.059798401 0.050936799
-0.02611593 -0.059798401 0.050936799
-0.02611593 -0.059798401 0.050936799
-0.02611593 -0.059798401 0.050936799
-0.02611593 -0.059798401 0.050936799
-0.074634992 -0.037077636 -0.033772513
-0.076693811 -0.032998782 -0.037661504
-0.076672986 -0.042051516 -0.034824684
-0.02611593 -0.059798401 0.050936799
-0.02611593 -0.059798401 0.050936799
-0.02611593 -0.059798401 0.050936799
-0.02611593 -0.059798401 0.050936799
-0.077586137 -0.039120793 -0.030753188
-0.082715362 -0.033958986 -0.038566437
-0.078581117 -0.033100136 -0.031625953
-0.082649238 -0.04104824 -0.03369426
-0.02611593 -0.059798401 0.050936799
-0.02611593 -0.059798401 0.050936799
-0.02611593 -0.059798401 0.050936799
-0.02611593 -0.059798401 0.050936799
-0.082585223 -0.039102849 -0.030659232
-0.086677186 -0.033980813 -0.036491957
-0.084613524 -0.032042596 -0.033494513
-0.087648325 -0.041030295 -0.033600308
-0.02611593 -0.059798401 0.050936799
-0.02611593 -0.059798401 0.050936799
-0.02611593 -0.059798401 0.050936799
-0.02611593 -0.059798401 0.050936799
-0.087542936 -0.038121253 -0.028547943
-0.091638826 -0.033999044 -0.034398679
-0.090608507 -0.03102123 -0.033363752
-0.093624584 -0.040027022 -0.032469891
-0.02611593 -0.059798401 0.050936799
-0.02611593 -0.059798401 0.050936799
-0.02611593 -0.059798401 0.050936799
-0.02611593 -0.059798401 0.050936799
-0.093556635 -0.0370818 -0.029416848
-0.095578007 -0.033039123 -0.031306513
-0.095584944 -0.030021545 -0.032252125
-0.10060065 -0.039020158 -0.031320669
-0.02611593 -0.059798401 0.050936799
-0.02611593 -0.059798401 0.050936799
-0.02611593 -0.059798401 0.050936799
-0.02611593 -0.059798401 0.050936799
-0.10156997 -0.036035173 -0.030248154
-0.10564321 -0.030931218 -0.035081211
-0.099528037 -0.030061457 -0.029177979
-0.10759544 -0.037995212 -0.031171117
-0.02611593 -0.059798401 0.050936799
-0.02611593 -0.059798401 0.050936799
-0.02611593 -0.059798401 0.050936799
-0.02611593 -0.059798401 0.050936799
-0.11159772 -0.033963446 -0.032023549
-0.11058613 -0.030967541 -0.031988282
-0.1095706 -0.026971813 -0.031934999
-0.11559006 -0.036966667 -0.031002775
-0.02611593 -0.059798401 0.050936799
-0.02611593 -0.059798401 0.050936799
-0.02611593 -0.059798401 0.050936799
-0.02611593 -0.059798401 0.050936799
-0.11755526 -0.032978259 -0.029893454
-0.12164721 -0.02785622 -0.035726175
-0.11453223 -0.026990045 -0.029841714
-0.12863207 -0.033866253 -0.033703428
-0.02611593 -0.059798401 0.050936799
-0.02611593 -0.059798401 0.050936799
-0.02611593 -0.059798401 0.050936799
-0.02611593 -0.059798401 0.050936799
-0.12553114 -0.031967808 -0.028725456
-0.13165626 -0.025802579 -0.036501892
-0.1255746 -0.023896808 -0.032579955
-0.13557068 -0.032895572 -0.030554891
-0.02611593 -0.059798401 0.050936799
-0.02611593 -0.059798401 0.050936799
-0.02611593 -0.059798401 0.050936799
-0.02611593 -0.059798401 0.050936799
-0.1375546 -0.028889073 -0.030445237
-0.13759506 -0.024835484 -0.033372149
-0.13354658 -0.021886528 -0.031393934
-0.14454637 -0.031881526 -0.029368088
-0.02611593 -0.059798401 0.050936799
-0.02611593 -0.059798401 0.050936799
-0.02611593 -0.059798401 0.050936799
-0.02611593 -0.059798401 0.050936799
-0.14854473 -0.026849933 -0.030202501
-0.14654812 -0.022839703 -0.031167675
-0.14050391 -0.020897754 -0.029245049
-0.14843331 -0.031975709 -0.023294963
-0.02611593 -0.059798401 0.050936799
-0.02611593 -0.059798401 0.050936799
-0.02611593 -0.059798401 0.050936799
-0.02611593 -0.059798401 0.050936799
-0.15446481 -0.025900925 -0.026073094
-0.15346803 -0.021887105 -0.027019471
-0.14945696 -0.01890197 -0.027040578
-0.16747029 -0.02785393 -0.025864854
-0.02611593 -0.059798401 0.050936799
-0.02611593 -0.059798401 0.050936799
-0.02611593 -0.059798401 0.050936799
-0.02611593 -0.059798401 0.050936799
-0.17248325 -0.021800827 -0.027662117
-0.16645385 -0.018840957 -0.026721139
-0.14932984 -0.020028427 -0.020060975
-0.19050261 -0.022717968 -0.028341558
-0.02611593 -0.059798401 0.050936799
-0.02611593 -0.059798401 0.050936799
-0.02611593 -0.059798401 0.050936799
-0.02611593 -0.059798401 0.050936799
-0.18946837 -0.018740324 -0.027288623
-0.18445358 -0.01475895 -0.027310502
-0.17542864 -0.012809678 -0.026443914
-0.21451998 -0.018596333 -0.029817846
-0.02611593 -0.059798401 0.050936799
-0.02611593 -0.059798401 0.050936799
-0.02611593 -0.059798401 0.050936799
-0.02611593 -0.059798401 0.050936799
-0.21447769 -0.012615443 -0.028710067
-0.21050014 -0.0085943053 -0.030712482
-0.19745721 -0.0066774776 -0.028921396
-0.24550943 -0.012468008 -0.030126885
-0.02611593 -0.059798401 0.050936799
-0.02611593 -0.059798401 0.050936799
-0.02611593 -0.059798401 0.050936799
-0.02611593 -0.059798401 0.050936799
-0.24244899 -0.006515977 -0.028075822
-0.23549074 -0.0024875132 -0.031134266
-0.21641931 -0.0026280587 -0.027492635
-0.26237828 -0.0085162167 -0.023737404
-0.02611593 -0.059798401 0.050936799
-0.02611593 -0.059798401 0.050936799
-0.02611593 -0.059798401 0.050936799
-0.02611593 -0.059798401 0.050936799
-0.26135489 -0.0025208248 -0.023648083
-0.26645362 0.0056223851 -0.030407615
-0.24240579 0.0044821529 -0.027877618
-0.97933209 0.14656638 -0.20356977
-0.02611593 -0.059798401 0.050936799
-0.02611593 -0.059798401 0.050936799
-0.02611593 -0.059798401 0.050936799
-0.99192476 0.14923267 -0.18227854
-0.97823799 0.17055872 -0.20315611
-0.97052747 0.19288804 -0.22290327
-0.24220376 0.0032833426 -0.016899362
-1.0045214 0.1508991 -0.16100536
-0.99184918 0.17324667 -0.1828458
-0.97411484 0.19250444 -0.20083554
-0.02611593 -0.059798401 0.050936799
-1.0160954 0.1535437 -0.13873327
-1.0054604 0.17593463 -0.16253543
-0.98573035 0.19418541 -0.18058082
-0.97906107 0.21555462 -0.20232648
-1.0116282 0.15307713 -0.11381692
-1.0160573 0.17759389 -0.14129981
-1.0053928 0.19794898 -0.16313869
-0.99269491 0.21726087 -0.18303382
-1.0232022 0.15572172 -0.091544829
-1.0226215 0.17820281 -0.11815806
-1.0139713 0.19958296 -0.14094099
-0.99428654 0.21587026 -0.16102172
-1.0497992 0.16145582 -0.070936143
-1.0292006 0.17982961 -0.095997952
-1.0215727 0.20023163 -0.11977978
-1.0039064 0.21654418 -0.14082259
-1.0633692 0.16510743 -0.048608467
-1.0387789 0.18146721 -0.073781461
-1.0331695 0.20189449 -0.098525345
-1.0145221 0.21822156 -0.12058662
-1.0739061 0.16771227 -0.024355844
-1.0573626 0.18615466 -0.052341476
-1.0367342 0.20249264 -0.075439975
-1.0281333 0.22090951 -0.10027628
-1.0884382 0.17133127 -1.0043383e-05
-1.0749129 0.18980254 -0.028938957
-1.0433171 0.20311965 -0.053297885
-1.0407299 0.22257593 -0.079003081
-1.0919615 0.17289306 0.025092676
-1.0924594 0.19445024 -0.005518429
-1.0588865 0.20677842 -0.030932605
-1.0443172 0.22219233 -0.056935385
-1.1054939 0.17650847 0.049419686
-1.1080102 0.19809093 0.017846499
-1.0884604 0.21350504 -0.0092498884
-1.0569098 0.22485863 -0.035644166
-1.1189849 0.18108757 0.075764038
-1.1285335 0.20373115 0.04234108
-1.1110209 0.21918859 0.013282955
-1.0794741 0.22954234 -0.013129354
-1.1374938 0.18570268 0.10120267
-1.1280427 0.20426063 0.068350285
-1.1225574 0.221797 0.037554365
-1.0860382 0.23015127 0.010012411
-0.02611593 -0.059798401 0.050936799
-1.1445706 0.20888668 0.092751682
-1.1350713 0.22539075 0.062862247
-1.1085987 0.23583484 0.03254525
-1.191391 0.20090243 0.15750581
-1.1640379 0.21446906 0.12022646
-1.1376175 0.22596723 0.086928494
-1.1201353 0.23844324 0.056816652
-0.02611593 -0.059798401 0.050936799
-0.02611593 -0.059798401 0.050936799
-1.1611028 0.231582 0.11347876
-1.1326905 0.24107333 0.080107197
-1.2142615 0.20993774 0.21611729
-1.1879869 0.22258042 0.17484009
-1.1775932 0.23617187 0.13987949
-0.02611593 -0.059798401 0.050936799
-0.02611593 -0.059798401 0.050936799
-1.205421 0.22711959 0.20425858
-1.1790795 0.23769028 0.16694397
-1.1746659 0.2512852 0.13309577
-0.02611593 -0.059798401 0.050936799
-0.02611593 -0.059798401 0.050936799
-1.2094994 0.24527562 0.19666079
-0.02611593 -0.059798401 0.050936799
-0.02611593 -0.059798401 0.050936799
-1.2462163 0.24016452 0.26627937
-0.02611593 -0.059798401 0.050936799
-1.2205577 0.26343867 0.19019419
-1.2698163 0.23188066 0.34259725
-1.250638 0.24363911 0.29643524
-1.2413455 0.25532493 0.25645906
-1.2409874 0.2689884 0.21968707
-0.02611593 -0.059798401 0.050936799
-1.3018392 0.25811771 0.33666942
-1.252762 0.25982448 0.2867645
-0.02611593 -0.059798401 0.050936799
-0.02611593 -0.059798401 0.050936799
-1.2913169 0.2575753 0.364472
-1.2950103 0.27230731 0.32479417
-1.2668277 0.27599859 0.28031823
-2.9699855 0.65448225 0.96128309
-0.02611593 -0.059798401 0.050936799
-1.2715662 0.26677337 0.34926343
-1.2523552 0.27247855 0.30599231
-2.9258552 0.65222472 1.0214365
-2.8085365 0.64934546 0.87813926
-1.3535206 0.29016271 0.40123856
-0.02611593 -0.059798401 0.050936799
-2.8619204 0.64405924 1.0721089
-2.7992826 0.65312201 0.94405663
-1.325096 0.28462893 0.42461419
-0.02611593 -0.059798401 0.050936799
-2.8128886 0.64087427 1.127152
-2.7592158 0.64893335 1.00125
-2.6943772 0.65177298 0.88504815
-1.3342156 0.29682201 0.41600257
-2.7470253 0.63377368 1.1738061
-2.7023361 0.64084721 1.0490551
-2.6504161 0.64466089 0.93711406
-2.6093111 0.6473335 0.83535832
-2.7089424 0.63359153 1.2311091
-2.6692786 0.6387015 1.1054164
-2.6223617 0.64153337 0.99355137
-2.5872557 0.64422733 0.89190835
-2.6560273 0.62950099 1.2800611
-2.6173716 0.63261485 1.1543512
-2.5943263 0.6384238 1.0489889
-2.5721347 0.64309174 0.95162493
-2.6170008 0.62936962 1.3343465
-2.5873055 0.63247949 1.2108049
-2.5672638 0.63729936 1.1054811
-2.552079 0.63999289 1.0082126
-2.5690734 0.62829643 1.3834463
-2.551301 0.6313771 1.2641289
-2.5392241 0.63518971 1.1609367
-2.5359542 0.63985354 1.0679284
-2.5211911 0.62525982 1.430511
-2.5232351 0.63124889 1.3206203
-2.5101845 0.63307637 1.2163737
-2.5218294 0.63972133 1.1276819
-2.4732823 0.62420475 1.4786111
-2.4793334 0.62820864 1.3687596
-2.4851179 0.63295901 1.2729214
-2.4957747 0.63660091 1.1841568
-2.4234526 0.62221515 1.5226572
-2.4374082 0.6261571 1.4179543
-2.4550934 0.63185996 1.3273579
-2.4667618 0.63250601 1.2385578
-2.3755999 0.62121433 1.5677584
-2.4024184 0.62607628 1.4703155
-2.4191344 0.62879407 1.3786464
-2.4496148 0.63334477 1.2992727
-2.3228309 0.61826831 1.608731
-2.3555734 0.62307942 1.5153995
-2.3970218 0.630651 1.437286
-2.4255559 0.63123131 1.355803
-2.2760158 0.61730731 1.6518518
-2.3186438 0.6220457 1.564706
-2.3551235 0.62661797 1.4854449
-2.3925774 0.62815815 1.4081477
-2.2222991 0.61541176 1.6898247
-2.2738321 0.62009209 1.6078463
-2.3162622 0.62263191 1.5316608
-2.3694727 0.6280117 1.4667323
-2.1716046 0.61254525 1.7268362
-2.2220857 0.61616784 1.64782
-2.2743793 0.61961687 1.5788381
-2.3394523 0.62591296 1.5211508
-2.1159673 0.6097151 1.7607547
-2.1901059 0.61811554 1.6992739
-2.2453463 0.62052107 1.6333294
-2.305455 0.62281799 1.5744764
-2.0692003 0.61080807 1.8009126
-2.1423361 0.61518747 1.7403405
-2.1975617 0.61657512 1.6753776
-2.2704957 0.61975574 1.6257839
-1.9438723 0.58388501 1.7690682
-2.0847256 0.61036855 1.7731858
-2.1783659 0.62037003 1.7381082
-2.2404523 0.61863863 1.6812198
-1.8599013 0.57054955 1.769255
-2.0429056 0.61042529 1.8164186
-2.1256611 0.61547863 1.7760458
-2.2015314 0.61559814 1.7304529
-1.8142502 0.57075471 1.8034155
-1.8881543 0.57190311 1.7558038
-2.073997 0.60962719 1.8119848
-2.1655867 0.61355013 1.7807599
-1.8568244 0.60270363 1.9268324
-1.8375947 0.56816345 1.7857997
-1.9270308 0.57293439 1.7625527
-2.1266427 0.61149144 1.8310106
-1.8052533 0.60195982 1.9568636
-1.8596052 0.59041846 1.8876489
-1.8627223 0.56336254 1.7801814
-2.0660899 0.60169876 1.8617101
-1.7497842 0.59929246 1.9817853
-1.8560449 0.60496145 1.9678726
-1.8140874 0.55955762 1.8142138
-1.8681024 0.54769075 1.762993
-1.7001904 0.59953761 2.0128717
-1.7926867 0.59835654 1.9875736
-1.9036616 0.60477191 1.9887677
-1.8224149 0.54284245 1.8000624
-1.6408612 0.59498286 2.0306845
-1.7450213 0.59753662 2.0226784
-1.8530273 0.6009599 2.0227623
-1.9375114 0.59371489 1.999205
-1.5884025 0.59434402 2.0546989
-1.6993331 0.5977056 2.0588381
-1.8003707 0.59812242 2.0577369
-1.9298927 0.60417193 2.0832798
-1.5359478 0.59270531 2.0786953
-1.6438868 0.59405655 2.082742
-1.7644104 0.6000737 2.1081161
-1.8762293 0.59831327 2.1191814
-1.4864475 0.59304088 2.1047833
-1.5972173 0.59424013 2.1178834
-1.7137721 0.59726155 2.1421285
-1.8323385 0.59729069 2.1663573
-1.4350075 0.59242374 2.1278172
-1.5427667 0.5915944 2.1418242
-1.6621526 0.59446383 2.1751227
-1.7894061 0.59723526 2.215569
-1.3816053 0.59183556 2.1488137
-1.4912372 0.5898869 2.1698382
-1.6124501 0.59360051 2.2121892
-1.737697 0.59334731 2.2535434
-1.3273007 0.59033442 2.1647751
-1.4436202 0.59112108 2.2019799
-1.562804 0.59279156 2.2462566
-1.6918066 0.59231752 2.3006818
-1.2778565 0.59072423 2.1878643
-1.3882072 0.58850789 2.2239025
-1.5102222 0.5900265 2.2772326
-1.6390938 0.58942574 2.3386552
-1.2216725 0.58732474 2.1977544
-1.3338318 0.58593452 2.2438445
-1.4605345 0.59018117 2.3133173
-1.5893164 0.58849019 2.3797202
-1.1674242 0.5858779 2.2107167
-1.2823732 0.58529931 2.2678781
