# .PCD v0.7 - Point Cloud Data file format
VERSION 0.7
FIELDS x y z
SIZE 4 4 4
TYPE F F F
COUNT 1 1 1
WIDTH 1367
HEIGHT 1
VIEWPOINT 0 0 0 1 0 0 0
POINTS 1367
DATA ascii
0.95446992 0.61564642 0.26286757
0.83304209 0.61254209 0.29509577
0.87373894 0.61368424 0.2783488
0.91239482 0.61386979 0.2596221
0.95502043 0.61607695 0.23885691
0.84073025 0.61482054 0.27798724
0.87735987 0.6130318 0.2582624
0.91800451 0.615228 0.23853447
0.62163061 0.38578784 0.15890604
0.84739584 0.61612087 0.25987983
0.88301092 0.61535364 0.23919213
0.6046868 0.38981199 0.16129687
0.59218287 0.3662571 0.13909739
0.84902799 0.61345792 0.24079466
0.60384351 0.40572244 0.16660228
0.58329087 0.37421569 0.14340928
-0.02611593 -0.059798401 0.050936799
0.60604489 0.42358556 0.17388666
0.57137269 0.38020349 0.14674187
0.56795084 0.36356083 0.12749836
0.56649894 0.34894684 0.106254
0.57258523 0.39605245 0.15500867
0.56911802 0.37744635 0.13372982
0.55561805 0.35489488 0.11156712
0.56122589 0.34621853 0.092298642
0.55522591 0.38040563 0.13904524
0.56281465 0.37174022 0.11873952
0.55236346 0.35214129 0.098573834
0.54991961 0.33953056 0.077384293
0.54994118 0.37467781 0.12503582
0.55051935 0.36303806 0.10480759
0.55612713 0.35436174 0.085539117
0.55369121 0.34375066 0.064385608
0.53866047 0.36495417 0.11206674
0.55027205 0.3622734 0.091793969
0.54885072 0.35064077 0.071603321
0.54841822 0.34102234 0.050430249
0.53440213 0.36120436 0.09907423
0.54701746 0.35951981 0.078800693
0.55362207 0.35485733 0.058585845
0.55419725 0.34723499 0.037430022
0.54923272 0.37134778 0.087976277
0.54779261 0.35973328 0.066785961
0.55039006 0.35308549 0.046610251
0.56196117 0.3544583 0.023410575
-0.02611593 -0.059798401 0.050936799
0.55156022 0.3629536 0.053769272
0.5521394 0.35633108 0.032631468
-0.02611593 -0.059798401 0.050936799
0.57384557 0.38868934 0.063820973
0.56737977 0.37511119 0.041688908
0.55992198 0.36353633 0.019611677
-0.02611593 -0.059798401 0.050936799
0.55955756 0.37697676 0.050872218
0.56814009 0.37634259 0.02869254
0.56166738 0.36578205 0.0056148767
-0.02611593 -0.059798401 0.050936799
0.56935853 0.38415676 0.038814515
0.57088923 0.37958458 0.01469497
0.56743163 0.37301257 -0.0083669908
-0.02611593 -0.059798401 0.050936799
0.58914781 0.39833584 0.024695706
0.57664567 0.38481542 0.00067706779
0.56416619 0.37227675 -0.022323895
-0.02611593 -0.059798401 0.050936799
0.59191561 0.40155971 0.011697795
0.57640618 0.3860504 -0.01230051
0.56491566 0.37552586 -0.03628388
0.5804317 0.38697308 -0.064376846
0.57765037 0.39082888 -0.00023327768
0.56914836 0.38231137 -0.025236644
0.56967622 0.38176018 -0.050264981
0.58514386 0.39526135 -0.081320874
0.57138836 0.38608643 -0.013206221
0.56690526 0.3825537 -0.038194664
0.58240265 0.39401898 -0.067287281
0.77857023 0.54462498 -0.14226115
0.56113809 0.37934059 -0.025140371
0.57064337 0.38780987 -0.053174648
0.59812558 0.41028446 -0.085293531
0.88398993 0.63109827 -0.19068711
0.5699057 0.38756019 -0.039160598
0.58838075 0.40305018 -0.070236832
0.80850619 0.57267547 -0.15131731
0.87260967 0.62949985 -0.21050966
0.57464355 0.39281273 -0.054159369
0.5931226 0.40930259 -0.085217595
0.87600619 0.63010901 -0.18955514
0.85924852 0.62789059 -0.22929496
0.5773927 0.39605469 -0.068156943
0.82545757 0.58972001 -0.1573284
0.86364096 0.6274963 -0.20837726
0.19911104 0.11673533 -0.026112851
0.58712667 0.40530673 -0.084177263
0.86801463 0.6271202 -0.1884592
0.85725665 0.62989742 -0.22922134
0.19900657 0.11884355 -0.032074787
0.83644962 0.59771544 -0.15939027
0.86661857 0.63152099 -0.21036087
0.21406183 0.12876992 -0.031176791
-0.02611593 -0.059798401 0.050936799
0.86702168 0.62410617 -0.1874948
0.85627168 0.628883 -0.22822094
0.19403315 0.11582581 -0.030035563
0.16397882 0.09591879 -0.028832555
0.86963284 0.63049239 -0.20943563
0.20509607 0.12274896 -0.028116807
-0.02611593 -0.059798401 0.050936799
-0.02611593 -0.059798401 0.050936799
0.86026704 0.62786889 -0.22831413
0.19603673 0.11681846 -0.030055124
0.16596365 0.096929543 -0.029851776
0.14289413 0.083032548 -0.030671511
0.20309946 0.11873874 -0.027151637
-0.02611593 -0.059798401 0.050936799
-0.02611593 -0.059798401 0.050936799
-0.02611593 -0.059798401 0.050936799
0.18607414 0.1067837 -0.026048757
0.17392959 0.10295406 -0.032892969
0.14987504 0.088042744 -0.032712273
0.12784283 0.074106 -0.031551488
-0.02611593 -0.059798401 0.050936799
-0.02611593 -0.059798401 0.050936799
-0.02611593 -0.059798401 0.050936799
-0.02611593 -0.059798401 0.050936799
0.16597059 0.093911953 -0.028906174
0.14988592 0.086025 -0.03174866
0.13083141 0.076112978 -0.032571476
0.10684784 0.060129486 -0.028410159
-0.02611593 -0.059798401 0.050936799
-0.02611593 -0.059798401 0.050936799
-0.02611593 -0.059798401 0.050936799
-0.02611593 -0.059798401 0.050936799
0.14590055 0.080004208 -0.02978228
0.13182335 0.074109726 -0.032626305
0.11479505 0.066172108 -0.032451011
0.093804002 0.053195424 -0.029291671
-0.02611593 -0.059798401 0.050936799
-0.02611593 -0.059798401 0.050936799
-0.02611593 -0.059798401 0.050936799
-0.02611593 -0.059798401 0.050936799
0.12685296 0.067074604 -0.029659498
0.1147872 0.064172447 -0.03248705
0.098777436 0.056213144 -0.031330895
0.077819899 0.04220045 -0.02619024
-0.02611593 -0.059798401 0.050936799
-0.02611593 -0.059798401 0.050936799
-0.02611593 -0.059798401 0.050936799
-0.02611593 -0.059798401 0.050936799
0.10983159 0.056119397 -0.028538607
0.10275798 0.056216877 -0.032405708
0.08477816 0.046228901 -0.029248685
0.069790863 0.039247751 -0.027093641
-0.02611593 -0.059798401 0.050936799
-0.02611593 -0.059798401 0.050936799
-0.02611593 -0.059798401 0.050936799
-0.02611593 -0.059798401 0.050936799
0.094832502 0.046138745 -0.026437607
0.089728922 0.048264895 -0.03230558
0.077711485 0.043308809 -0.032170184
0.061776616 0.035277147 -0.027015388
-0.02611593 -0.059798401 0.050936799
-0.02611593 -0.059798401 0.050936799
-0.02611593 -0.059798401 0.050936799
-0.02611593 -0.059798401 0.050936799
0.083792225 0.040197335 -0.027338687
0.079692401 0.043319717 -0.033207431
0.067712404 0.038327463 -0.031072721
0.052758619 0.030310301 -0.026936367
-0.02611593 -0.059798401 0.050936799
-0.02611593 -0.059798401 0.050936799
-0.02611593 -0.059798401 0.050936799
-0.02611593 -0.059798401 0.050936799
0.072785467 0.033219919 -0.026258454
0.070674405 0.038352877 -0.033128411
0.060683183 0.035371184 -0.031994894
0.044777889 0.025303682 -0.024876807
-0.02611593 -0.059798401 0.050936799
-0.02611593 -0.059798401 0.050936799
-0.02611593 -0.059798401 0.050936799
-0.02611593 -0.059798401 0.050936799
0.062763736 0.027256832 -0.026178658
0.060686193 0.031353779 -0.031067315
0.051683918 0.030386247 -0.030916221
0.039737433 0.024357973 -0.0268002
-0.02611593 -0.059798401 0.050936799
-0.02611593 -0.059798401 0.050936799
-0.02611593 -0.059798401 0.050936799
-0.02611593 -0.059798401 0.050936799
0.0567156 0.024315052 -0.0281193
0.051686928 0.026368834 -0.029988628
0.044673406 0.027411878 -0.030838739
0.032760445 0.020347603 -0.024741415
-0.02611593 -0.059798401 0.050936799
-0.02611593 -0.059798401 0.050936799
-0.02611593 -0.059798401 0.050936799
-0.02611593 -0.059798401 0.050936799
0.04477606 0.015269204 -0.023057673
0.047616694 0.027455378 -0.033894099
0.038647931 0.025451839 -0.031761687
0.028723735 0.020398136 -0.02666558
-0.02611593 -0.059798401 0.050936799
-0.02611593 -0.059798401 0.050936799
-0.02611593 -0.059798401 0.050936799
-0.02611593 -0.059798401 0.050936799
0.041720439 0.015334238 -0.02600028
0.038650941 0.021434426 -0.030834109
0.033607472 0.024506129 -0.033685088
0.020776523 0.014355508 -0.02262472
-0.02611593 -0.059798401 0.050936799
-0.02611593 -0.059798401 0.050936799
-0.02611593 -0.059798401 0.050936799
-0.02611593 -0.059798401 0.050936799
0.035694964 0.013374199 -0.026923239
0.032640256 0.018456476 -0.03077542
0.026626563 0.019495931 -0.031644315
0.014788489 0.01235929 -0.021548346
-0.02611593 -0.059798401 0.050936799
-0.02611593 -0.059798401 0.050936799
-0.02611593 -0.059798401 0.050936799
-0.02611593 -0.059798401 0.050936799
0.028717978 0.0093638282 -0.024864458
0.028603546 0.018507009 -0.032699578
0.021623546 0.018514045 -0.031568374
0.012721818 0.014438486 -0.025473375
-0.02611593 -0.059798401 0.050936799
-0.02611593 -0.059798401 0.050936799
-0.02611593 -0.059798401 0.050936799
-0.02611593 -0.059798401 0.050936799
0.024681265 0.0094143618 -0.026788622
0.02259679 0.016528882 -0.03262287
0.018590577 0.019560818 -0.033493321
0.0087186247 0.013453011 -0.025416229
-0.02611593 -0.059798401 0.050936799
-0.02611593 -0.059798401 0.050936799
-0.02611593 -0.059798401 0.050936799
-0.02611593 -0.059798401 0.050936799
0.019689117 0.0064147185 -0.025749054
0.01758985 0.014547165 -0.032564957
0.010672957 0.01148235 -0.027489174
0.0056708609 0.015517706 -0.028322808
-0.02611593 -0.059798401 0.050936799
-0.02611593 -0.059798401 0.050936799
-0.02611593 -0.059798401 0.050936799
-0.02611593 -0.059798401 0.050936799
0.013697159 0.0034186784 -0.024690706
0.014523361 0.016629949 -0.036471192
0.0076103997 0.014564965 -0.031377386
0.00068657054 0.014517731 -0.027247213
-0.02611593 -0.059798401 0.050936799
-0.02611593 -0.059798401 0.050936799
-0.02611593 -0.059798401 0.050936799
-0.02611593 -0.059798401 0.050936799
0.0096604461 0.003469212 -0.026614871
0.0085649155 0.012597893 -0.033431545
0.0035736859 0.014615498 -0.033301555
-0.0033166246 0.013532256 -0.027190067
-0.02611593 -0.059798401 0.050936799
-0.02611593 -0.059798401 0.050936799
-0.02611593 -0.059798401 0.050936799
-0.02611593 -0.059798401 0.050936799
0.0066422722 0.0034980681 -0.027558159
0.0035766987 0.010598087 -0.032373961
-0.00041078485 0.013611935 -0.032244742
-0.0063495943 0.014579032 -0.029114999
-0.02611593 -0.059798401 0.050936799
-0.02611593 -0.059798401 0.050936799
-0.02611593 -0.059798401 0.050936799
-0.02611593 -0.059798401 0.050936799
-0.02611593 -0.059798401 0.050936799
-0.00044129055 0.010630532 -0.033298466
-0.0044583688 0.015680218 -0.035132531
-0.010334065 0.013575467 -0.028058194
-0.02611593 -0.059798401 0.050936799
-0.02611593 -0.059798401 0.050936799
-0.02611593 -0.059798401 0.050936799
-0.02611593 -0.059798401 0.050936799
-0.02611593 -0.059798401 0.050936799
-0.0044296933 0.0086271446 -0.032259673
-0.0084724315 0.016712494 -0.03603901
-0.014288949 0.010536064 -0.025038105
-0.02611593 -0.059798401 0.050936799
-0.02611593 -0.059798401 0.050936799
-0.02611593 -0.059798401 0.050936799
-0.02611593 -0.059798401 0.050936799
-0.0054304241 0.0036134911 -0.031331308
-0.0084624812 0.0096775088 -0.034165822
-0.012412519 0.012655171 -0.032037277
-0.017395891 0.016672438 -0.031871248
-0.02611593 -0.059798401 0.050936799
-0.02611593 -0.059798401 0.050936799
-0.02611593 -0.059798401 0.050936799
-0.02611593 -0.059798401 0.050936799
-0.02611593 -0.059798401 0.050936799
-0.012495264 0.010727866 -0.03607196
-0.01643051 0.012687616 -0.032961782
-0.021346848 0.014632866 -0.02883314
-0.02611593 -0.059798401 0.050936799
-0.02611593 -0.059798401 0.050936799
-0.02611593 -0.059798401 0.050936799
-0.02611593 -0.059798401 0.050936799
-0.02611593 -0.059798401 0.050936799
-0.016479738 0.0097243097 -0.035015158
-0.020474162 0.01575573 -0.035831541
-0.024272325 0.0095540406 -0.023868557
-0.02611593 -0.059798401 0.050936799
-0.02611593 -0.059798401 0.050936799
-0.02611593 -0.059798401 0.050936799
-0.02611593 -0.059798401 0.050936799
-0.02611593 -0.059798401 0.050936799
-0.02046421 0.0087207453 -0.033958349
-0.024458636 0.014752166 -0.034774739
-0.027360545 0.015672319 -0.029702045
-0.02611593 -0.059798401 0.050936799
-0.02611593 -0.059798401 0.050936799
-0.02611593 -0.059798401 0.050936799
-0.02611593 -0.059798401 0.050936799
-0.02611593 -0.059798401 0.050936799
-0.024463478 0.0087351017 -0.033883188
-0.027380183 0.010673165 -0.029792137
-0.03032648 0.014647077 -0.027664367
-0.02611593 -0.059798401 0.050936799
-0.02611593 -0.059798401 0.050936799
-0.02611593 -0.059798401 0.050936799
-0.02611593 -0.059798401 0.050936799
-0.025415899 0.0016675191 -0.029991884
-0.027473796 0.010763611 -0.034790441
-0.031483017 0.017812951 -0.036588475
-0.034366202 0.01871502 -0.030516107
-0.02611593 -0.059798401 0.050936799
-0.02611593 -0.059798401 0.050936799
-0.02611593 -0.059798401 0.050936799
-0.02611593 -0.059798401 0.050936799
-0.02611593 -0.059798401 0.050936799
-0.031473067 0.010777966 -0.03471528
-0.035452697 0.015791476 -0.034550026
-0.03732127 0.01567203 -0.027514815
-0.02611593 -0.059798401 0.050936799
-0.02611593 -0.059798401 0.050936799
-0.02611593 -0.059798401 0.050936799
-0.02611593 -0.059798401 0.050936799
-0.02611593 -0.059798401 0.050936799
-0.036486946 0.011813831 -0.035602968
-0.038403831 0.013748313 -0.031530701
-0.041312683 0.017686039 -0.027403612
-0.02611593 -0.059798401 0.050936799
-0.02611593 -0.059798401 0.050936799
-0.02611593 -0.059798401 0.050936799
-0.02611593 -0.059798401 0.050936799
-0.02611593 -0.059798401 0.050936799
-0.040486209 0.011828186 -0.035527803
-0.042428765 0.01679834 -0.033400811
-0.044293411 0.017678717 -0.026347581
-0.02611593 -0.059798401 0.050936799
-0.02611593 -0.059798401 0.050936799
-0.02611593 -0.059798401 0.050936799
-0.02611593 -0.059798401 0.050936799
-0.04037571 0.0016851745 -0.027710699
-0.044462834 0.012824284 -0.034434963
-0.047438715 0.018834034 -0.03427048
-0.048307475 0.018710999 -0.02725406
-0.02611593 -0.059798401 0.050936799
-0.02611593 -0.059798401 0.050936799
-0.02611593 -0.059798401 0.050936799
-0.02611593 -0.059798401 0.050936799
-0.04437498 0.0016995302 -0.027635537
-0.048443377 0.01282055 -0.033360142
-0.050371129 0.016772784 -0.030251496
-0.052313685 0.021742929 -0.028124504
-0.02611593 -0.059798401 0.050936799
-0.02611593 -0.059798401 0.050936799
-0.02611593 -0.059798401 0.050936799
-0.02611593 -0.059798401 0.050936799
-0.047355704 0.001692208 -0.026579507
-0.05242392 0.012816817 -0.032285322
-0.055444188 0.021880319 -0.035065763
-0.057338428 0.024796546 -0.029975817
-0.02611593 -0.059798401 0.050936799
-0.02611593 -0.059798401 0.050936799
-0.02611593 -0.059798401 0.050936799
-0.02611593 -0.059798401 0.050936799
-0.052376524 0.0057456531 -0.0284128
-0.058511592 0.018945867 -0.038062431
-0.060435422 0.023897925 -0.034935769
-0.055123813 0.012538158 -0.016234364
-0.02611593 -0.059798401 0.050936799
-0.02611593 -0.059798401 0.050936799
-0.02611593 -0.059798401 0.050936799
-0.02611593 -0.059798401 0.050936799
-0.056357071 0.0057419199 -0.02733798
-0.061440084 0.017884441 -0.034025431
-0.063382633 0.022854593 -0.031898439
-0.02611593 -0.059798401 0.050936799
-0.02611593 -0.059798401 0.050936799
-0.02611593 -0.059798401 0.050936799
-0.02611593 -0.059798401 0.050936799
-0.02611593 -0.059798401 0.050936799
-0.060318891 0.0057200971 -0.025263496
-0.066431306 0.019902054 -0.033895444
-0.068373866 0.024872199 -0.031768452
-0.02611593 -0.059798401 0.050936799
-0.02611593 -0.059798401 0.050936799
-0.02611593 -0.059798401 0.050936799
-0.02611593 -0.059798401 0.050936799
-0.02611593 -0.059798401 0.050936799
-0.067387655 0.011834642 -0.030022148
-0.070393145 0.019880231 -0.031820964
-0.070302539 0.02380719 -0.027750235
-0.075348094 0.035913542 -0.032438375
-0.02611593 -0.059798401 0.050936799
-0.02611593 -0.059798401 0.050936799
-0.02611593 -0.059798401 0.050936799
-0.02611593 -0.059798401 0.050936799
-0.069305457 0.0087518897 -0.025040325
-0.077428386 0.024958767 -0.034598317
-0.069150843 0.014624243 -0.017934587
-0.02611593 -0.059798401 0.050936799
-0.02611593 -0.059798401 0.050936799
-0.02611593 -0.059798401 0.050936799
-0.02611593 -0.059798401 0.050936799
-0.02611593 -0.059798401 0.050936799
-0.075307377 0.012790827 -0.025855169
-0.080356874 0.023897348 -0.030561313
-0.078240976 0.024781466 -0.024582919
-0.081223801 0.03380879 -0.025364034
-0.02611593 -0.059798401 0.050936799
-0.02611593 -0.059798401 0.050936799
-0.02611593 -0.059798401 0.050936799
-0.02611593 -0.059798401 0.050936799
-0.081313223 0.015829943 -0.026688028
-0.085348107 0.025914952 -0.030431326
-0.087316319 0.033920772 -0.030249596
-0.089269735 0.040908664 -0.029086221
-0.02611593 -0.059798401 0.050936799
-0.02611593 -0.059798401 0.050936799
-0.02611593 -0.059798401 0.050936799
-0.02611593 -0.059798401 0.050936799
-0.087315135 0.019868888 -0.027502872
-0.093360513 0.031978827 -0.032172218
-0.093284711 0.036923707 -0.029083133
-0.09221302 0.040865161 -0.026030872
-0.02611593 -0.059798401 0.050936799
-0.02611593 -0.059798401 0.050936799
-0.02611593 -0.059798401 0.050936799
-0.02611593 -0.059798401 0.050936799
-0.094316863 0.023911415 -0.028298929
-0.097303621 0.031938914 -0.029098064
-0.10030124 0.041984159 -0.030860841
-0.098196208 0.044886023 -0.025846057
-0.02611593 -0.059798401 0.050936799
-0.02611593 -0.059798401 0.050936799
-0.02611593 -0.059798401 0.050936799
-0.02611593 -0.059798401 0.050936799
-0.10027047 0.02589643 -0.026150823
-0.10529731 0.037984692 -0.029839292
-0.10726552 0.045990504 -0.029657565
-0.10417547 0.049906708 -0.025643218
-0.02611593 -0.059798401 0.050936799
-0.02611593 -0.059798401 0.050936799
-0.02611593 -0.059798401 0.050936799
-0.02611593 -0.059798401 0.050936799
-0.10826416 0.031942215 -0.026892047
-0.11430561 0.045051977 -0.031543378
-0.1122341 0.048989855 -0.028509889
-0.11014387 0.052909646 -0.024476759
-0.02611593 -0.059798401 0.050936799
-0.02611593 -0.059798401 0.050936799
-0.02611593 -0.059798401 0.050936799
-0.02611593 -0.059798401 0.050936799
-0.11624306 0.036970071 -0.026651632
-0.12226579 0.050061751 -0.030303299
-0.12020908 0.055017542 -0.028251458
-0.11509766 0.054891061 -0.022347447
-0.02611593 -0.059798401 0.050936799
-0.02611593 -0.059798401 0.050936799
-0.02611593 -0.059798401 0.050936799
-0.02611593 -0.059798401 0.050936799
-0.12217401 0.039936822 -0.023485854
-0.12720086 0.052025083 -0.027174324
-0.12816924 0.06002732 -0.027011387
-0.12710842 0.065986529 -0.02492274
-0.02611593 -0.059798401 0.050936799
-0.02611593 -0.059798401 0.050936799
-0.02611593 -0.059798401 0.050936799
-0.02611593 -0.059798401 0.050936799
-0.13214862 0.045971695 -0.023189839
-0.14220716 0.064131148 -0.02967523
-0.13612942 0.065037094 -0.025771305
-0.13205828 0.068967789 -0.022775412
-0.02611593 -0.059798401 0.050936799
-0.02611593 -0.059798401 0.050936799
-0.02611593 -0.059798401 0.050936799
-0.02611593 -0.059798401 0.050936799
-0.14715098 0.059077587 -0.025672715
-0.15116321 0.070144333 -0.028398339
-0.14910649 0.075100131 -0.026346508
-0.14302485 0.0770059 -0.022424567
-0.02611593 -0.059798401 0.050936799
-0.02611593 -0.059798401 0.050936799
-0.02611593 -0.059798401 0.050936799
-0.02611593 -0.059798401 0.050936799
-0.16009453 0.068104625 -0.024266616
-0.16412155 0.08018928 -0.027973875
-0.16106108 0.086141326 -0.02592282
-0.1570126 0.089090273 -0.023944598
-0.02611593 -0.059798401 0.050936799
-0.02611593 -0.059798401 0.050936799
-0.02611593 -0.059798401 0.050936799
-0.02611593 -0.059798401 0.050936799
-0.17906956 0.083206445 -0.025638644
-0.18007149 0.09224467 -0.027457006
-0.17602995 0.098211214 -0.026424389
-0.16996701 0.10013508 -0.023502119
-0.02611593 -0.059798401 0.050936799
-0.02611593 -0.059798401 0.050936799
-0.02611593 -0.059798401 0.050936799
-0.02611593 -0.059798401 0.050936799
-0.1950008 0.09524373 -0.024122108
-0.19599879 0.1052818 -0.025922451
-0.18895477 0.10722017 -0.024018627
-0.18592781 0.11420821 -0.023948867
-0.02611593 -0.059798401 0.050936799
-0.02611593 -0.059798401 0.050936799
-0.02611593 -0.059798401 0.050936799
-0.02611593 -0.059798401 0.050936799
-0.22093229 0.11635155 -0.024254832
-0.21690945 0.12233619 -0.024221882
-0.21290535 0.1283389 -0.025188584
-0.21089301 0.13634846 -0.026081685
-0.02611593 -0.059798401 0.050936799
-0.02611593 -0.059798401 0.050936799
-0.02611593 -0.059798401 0.050936799
-0.02611593 -0.059798401 0.050936799
-0.24682632 0.13742322 -0.02238822
-0.24582468 0.14745411 -0.024226144
-0.23480797 0.14739653 -0.02343319
-0.22176595 0.14429612 -0.020732537
-0.02611593 -0.059798401 0.050936799
-0.02611593 -0.059798401 0.050936799
-0.02611593 -0.059798401 0.050936799
-0.02611593 -0.059798401 0.050936799
-0.82691199 0.64949006 -0.17231551
-0.78891498 0.65035349 -0.17301154
-0.26268986 0.17147486 -0.021474946
-0.25169185 0.17143539 -0.02168164
-0.82754517 0.64713228 -0.15233955
-0.79357308 0.65104568 -0.15490568
-0.02611593 -0.059798401 0.050936799
-0.02611593 -0.059798401 0.050936799
-0.83116215 0.64878446 -0.13223511
-0.79524362 0.64872766 -0.13691023
-0.7632938 0.65166658 -0.14045644
-0.73234785 0.65360922 -0.1440019
-0.83579761 0.6504584 -0.11311157
-0.80191225 0.65144473 -0.1197304
-0.76699352 0.65139151 -0.12438671
-0.7320866 0.64833874 -0.12909707
-0.83443123 0.64809334 -0.093173176
-0.8015604 0.65010118 -0.10075486
-0.76868272 0.64909148 -0.10739092
-0.73879665 0.65009212 -0.11393459
-0.83804417 0.65074545 -0.07305073
-0.80223113 0.64777958 -0.082778193
-0.77437425 0.6508233 -0.091247559
-0.74654007 0.65288526 -0.10073463
-0.83468604 0.64637357 -0.053185955
-0.80489349 0.64746469 -0.06472794
-0.77707404 0.65054458 -0.075196609
-0.74824786 0.65060329 -0.084738486
-0.83831388 0.65004355 -0.034045152
-0.80754811 0.64914954 -0.046641618
-0.77875942 0.64924443 -0.058182828
-0.74997848 0.64733964 -0.069760062
-0.82996845 0.6426543 -0.014328398
-0.80621523 0.64782053 -0.028684527
-0.78044075 0.64894408 -0.041151002
-0.75468886 0.64908594 -0.054635152
-0.83160049 0.6453172 0.0047568008
-0.80986965 0.64950889 -0.01057943
-0.78114492 0.64765841 -0.025155649
-0.7603991 0.65083581 -0.039491445
-0.83422846 0.64898366 0.02387882
-0.80754083 0.64717644 0.0073408559
-0.78782845 0.65139347 -0.008957468
-0.76212573 0.64857191 -0.024494983
-0.82787091 0.64460093 0.043687213
-0.80720383 0.64685088 0.025334757
-0.78452635 0.64707583 0.0079083294
-0.76183403 0.64628291 -0.0085364506
-0.82651138 0.64525354 0.062679999
-0.80287933 0.64351141 0.043199439
-0.78421593 0.64476866 0.024866533
-0.76355678 0.64501888 0.006478034
-0.82217908 0.64391369 0.080580726
-0.80455285 0.6452108 0.060267292
-0.78489745 0.64446467 0.041879561
-0.76724857 0.64674354 0.022583812
-0.81884259 0.64357734 0.098518252
-0.79723674 0.63986087 0.078039557
-0.78559381 0.64517879 0.057910942
-0.76996726 0.64648288 0.037635099
-0.81050402 0.63920563 0.11728941
-0.79692936 0.6415711 0.094070181
-0.78627139 0.64587462 0.074941993
-0.7676838 0.64218706 0.053520016
-0.80716759 0.63886923 0.13522694
-0.79558861 0.64224178 0.1120633
-0.7859906 0.6456033 0.089936912
-0.76838404 0.6419012 0.069533385
-0.80282736 0.63952923 0.1531637
-0.79427052 0.64193064 0.12903875
-0.78168482 0.64228195 0.10680193
-0.7731092 0.64466536 0.083676644
-0.80048281 0.64119601 0.17115606
-0.78995293 0.64160877 0.14595783
-0.78335828 0.64398128 0.12386978
-0.77281356 0.64337605 0.099653207
-0.79514283 0.64185226 0.18907401
-0.79060394 0.64428622 0.16402459
-0.77906734 0.6416778 0.13975316
-0.7715221 0.64108348 0.11559296
-0.78980279 0.64250863 0.20699197
-0.78330272 0.63995433 0.1808152
-0.78472048 0.64839071 0.15698627
-0.77520603 0.6448077 0.13173477
-0.77952468 0.63718414 0.22270855
-0.78396457 0.64464951 0.19791833
-0.77943355 0.64508379 0.17283285
-0.77391446 0.64251494 0.14767453
-0.7741847 0.63784045 0.24062654
-0.77269053 0.63832164 0.2135981
-0.77611971 0.64376569 0.1897527
-0.77261901 0.64122212 0.1636323
-0.76589054 0.63652241 0.25645277
-0.76540411 0.63500756 0.22940709
-0.77182871 0.64146221 0.20563608
-0.77328873 0.64391768 0.18069938
-0.7575776 0.63518631 0.27327865
-0.76604337 0.64068455 0.2475279
-0.76653409 0.64015502 0.22151868
-0.77398509 0.64463168 0.19673076
-0.75027543 0.63587165 0.28915972
-0.76074469 0.64037716 0.26342851
-0.76520813 0.64184362 0.23853016
-0.77069402 0.6423319 0.21263294
-0.74792308 0.63953823 0.30718812
-0.7544502 0.6390664 0.27929235
-0.75794423 0.63754785 0.25332147
-0.76640302 0.64002842 0.22851631
-0.7396211 0.64021993 0.32305038
-0.74615991 0.63674861 0.29510054
-0.75364548 0.63724411 0.26924089
-0.7631079 0.63872844 0.2444365
-0.7263996 0.63493896 0.33571163
-0.7398802 0.63645577 0.30998272
-0.75131965 0.63892901 0.2862336
-0.76178193 0.64041692 0.26144797
-0.71809769 0.63562065 0.35157388
-0.73357779 0.63714463 0.32588255
-0.74701685 0.63962501 0.30217102
-0.75848687 0.63911694 0.27736819
-0.70882237 0.63431716 0.36638165
-0.72727931 0.63683367 0.34176439
-0.74074501 0.63733256 0.31701714
-0.75122297 0.63482112 0.2921595
-0.69953924 0.6350134 0.3812255
-0.71997714 0.63751894 0.35764545
-0.73544246 0.63802499 0.33293581
-0.75286603 0.63950187 0.31028104
-0.69026011 0.63470978 0.39605129
-0.70875138 0.63324493 0.37036228
-0.73014379 0.6377176 0.34883645
-0.74659413 0.63720936 0.32512718
-0.67705351 0.63044667 0.40773085
-0.70146793 0.63394833 0.38524365
-0.72386795 0.63642496 0.36370057
-0.74427229 0.63789451 0.34210184
-0.66973948 0.63413149 0.423666
-0.69416577 0.63463372 0.40112475
-0.71756554 0.63711375 0.37960044
-0.74391955 0.64156818 0.36016783
-0.66049778 0.63386405 0.43649247
-0.68293607 0.63135946 0.41385961
-0.70929408 0.63481414 0.394409
-0.73467481 0.63728333 0.3739219
-0.64826047 0.63258594 0.44924456
-0.67467153 0.63207734 0.42772254
-0.70201451 0.63451767 0.40927237
-0.7244342 0.63199502 0.38763914
-0.63801885 0.63231492 0.46205223
-0.66836131 0.63476592 0.44365844
-0.69473493 0.63422126 0.42413574
-0.7171585 0.63069874 0.40248454
-0.62580037 0.63105488 0.47380468
-0.65713167 0.63149178 0.45639327
-0.68548232 0.63193595 0.43792582
-0.71777904 0.63635767 0.42160499
-0.61358178 0.62979496 0.48555711
-0.64788604 0.63222414 0.46923774
-0.67720294 0.6316359 0.45277047
-0.70751178 0.63305092 0.43635795
-0.6033324 0.63152361 0.49840081
-0.63567537 0.62896454 0.48095417
-0.67189252 0.63432807 0.46872514
-0.69925898 0.63076931 0.45016685
-0.59111381 0.63026357 0.51015323
-0.6264109 0.62967885 0.49479833
-0.6596818 0.63106841 0.48044151
-0.69393766 0.63144368 0.46708515
-0.57793295 0.62903619 0.51988757
-0.61421502 0.62743711 0.5055331
-0.65434873 0.63474226 0.49741387
-0.69058162 0.63610643 0.48511279
-0.56672895 0.62879777 0.53067714
-0.60492796 0.62913311 0.52039492
-0.642138 0.63148266 0.50913024
-0.67441392 0.62685162 0.49564621
-0.55452526 0.62855566 0.54144794
-0.59470117 0.62987995 0.53222096
-0.63385481 0.63218248 0.5239929
-0.67105782 0.63151437 0.51367384
-0.54232144 0.62831366 0.55221874
-0.58348244 0.62862366 0.54399216
-0.62361705 0.63091153 0.53678256
-0.6608054 0.62922555 0.52744514
-0.52718621 0.62511563 0.55988008
-0.57225984 0.62836707 0.55578142
-0.61335677 0.63062245 0.55058992
-0.65349925 0.63091063 0.5433442
-0.51792485 0.62984735 0.57279664
-0.56298763 0.63108104 0.56966162
-0.6031152 0.63035136 0.56339759
-0.64519727 0.63159245 0.55920649
-0.50378942 0.6266529 0.58047688
-0.54981053 0.6288538 0.57937789
-0.59287363 0.63008034 0.57620525
-0.63296783 0.62831461 0.57192254
-0.4906233 0.62644345 0.58922946
-0.53860265 0.62961519 0.59018552
-0.57868207 0.62683165 0.58688444
-0.62073451 0.62603682 0.5846566
-0.47745714 0.62623394 0.59798217
-0.52638024 0.62935507 0.60195589
-0.56941372 0.6285457 0.60074657
-0.61145133 0.62673301 0.59950042
-0.46624541 0.62799513 0.6088078
-0.51322198 0.62714595 0.61067259
-0.55914563 0.6302563 0.61458999
-0.59824085 0.62346977 0.61119807
-0.45309404 0.62880361 0.61657882
-0.50001442 0.62790006 0.62144262
-0.54594988 0.62801093 0.62530589
-0.59090817 0.62713647 0.62813282
-0.43895465 0.62660897 0.624277
-0.48880661 0.62866151 0.63225019
-0.53275025 0.62676549 0.63603997
-0.57962531 0.62782544 0.64293909
-0.42387167 0.62446511 0.62895745
-0.47466332 0.62746668 0.63996637
-0.52052379 0.62750518 0.6478284
-0.56543374 0.62457675 0.65361822
-0.40975103 0.62228858 0.63565588
-0.46245563 0.62822449 0.65075523
-0.50830138 0.62724501 0.65959883
-0.55319649 0.6232987 0.66637027
-0.39854619 0.62706733 0.64553595
-0.44831628 0.62602985 0.65845335
-0.49705216 0.62897015 0.67242378
-0.54290575 0.62599099 0.68123138
-0.38444427 0.62490892 0.65123475
-0.43610075 0.6287874 0.6692782
-0.48384857 0.62872446 0.6831758
-0.52771032 0.62373847 0.69190973
-0.37128901 0.62671715 0.65902382
-0.42198011 0.62661076 0.67597675
-0.46869066 0.62650812 0.69185483
-0.51545048 0.62344223 0.70567954
-0.35527411 0.62162447 0.66063249
-0.40688232 0.62344897 0.68163884
-0.4554871 0.62626249 0.7026068
-0.50125098 0.6221931 0.71639466
-0.34407321 0.62540334 0.67049444
-0.39368567 0.62622082 0.69144517
-0.44227961 0.62701666 0.71337688
-0.48993772 0.62586355 0.73225468
-0.33189115 0.62919688 0.67933798
-0.38149276 0.62799662 0.70125234
-0.42715913 0.62483656 0.72005653
-0.47476107 0.62362915 0.74193335
-0.31682688 0.62707102 0.68301874
-0.36543649 0.62386751 0.70487821
-0.41008827 0.61968595 0.72464532
-0.46149352 0.6253289 0.75572044
-0.30180788 0.62298167 0.68466407
-0.35223988 0.62663943 0.71468467
-0.39976305 0.62635946 0.74057811
-0.44533578 0.62310904 0.76438069
-0.28864479 0.62678963 0.69248921
-0.33713424 0.62547719 0.72038275
-0.3845973 0.6261428 0.74929321
-0.42915541 0.62187093 0.77405864
-0.27462167 0.62370372 0.69417137
-0.32202852 0.62431502 0.72608083
-0.37040478 0.62791139 0.75906277
-0.41590261 0.62458849 0.78686398
-0.25954953 0.62357754 0.6978882
-0.30790004 0.62413818 0.73281533
-0.35237151 0.62279338 0.7616334
-0.39876774 0.62138337 0.79448771
-0.24643171 0.62542194 0.70367789
-0.29378635 0.6249792 0.73856831
-0.33724713 0.62161309 0.76833117
-0.38357934 0.62214845 0.80422056
-0.23240469 0.6233359 0.70537812
-0.2786994 0.62383509 0.74326676
-0.32303196 0.62436324 0.77911848
-0.36737239 0.62289184 0.81493419
-0.21830972 0.62419504 0.71013141
-0.26363119 0.6227091 0.74696553
-0.30504403 0.61728185 0.77965379
-0.34929776 0.61873752 0.8195222
-0.2042561 0.62409049 0.71286732
-0.24852163 0.62254667 0.75268161
-0.29080227 0.62201369 0.79147673
-0.33309084 0.61948097 0.83023578
-0.1902025 0.62398601 0.71560323
-0.23440398 0.62438756 0.75845253
-0.27469286 0.62184769 0.79717404
-0.31689864 0.62124228 0.83996785
-0.17617156 0.62289977 0.71732146
-0.2174041 0.62030917 0.75906068
-0.25858346 0.62168175 0.80287141
-0.29877481 0.62005121 0.84660918
-0.16209136 0.62477678 0.72109306
-0.2033091 0.62116838 0.76381397
-0.24245533 0.62149769 0.80956835
-0.28165081 0.61886376 0.85326934
-0.14807913 0.62370861 0.72181165
-0.18632793 0.61710799 0.76342249
-0.22636464 0.62134981 0.81426603
-0.26259115 0.61572373 0.85685694
-0.13502142 0.6246075 0.72458434
-0.17216109 0.62191218 0.77124673
-0.20834227 0.61824954 0.81587303
-0.24544059 0.61651778 0.8645528
-0.12003201 0.62255406 0.72426641
-0.15711157 0.62080425 0.77394587
-0.19225159 0.61810172 0.82057071
-0.22641839 0.61341393 0.86614108
-0.10601585 0.62248576 0.72500306
-0.14110363 0.61872911 0.77460885
-0.1760703 0.62188077 0.82933915
-0.2091772 0.61813504 0.87790763
-0.09295813 0.62338459 0.72777575
-0.12697814 0.62256962 0.78041583
-0.15904383 0.619784 0.83098292
-0.19013627 0.61501312 0.88049555
-0.078870103 0.62726134 0.73158342
-0.11101159 0.61953074 0.77906144
-0.14199078 0.61966866 0.83366245
-0.17206468 0.61487615 0.88415599
-0.064876586 0.62621129 0.73130232
-0.094931759 0.62140065 0.78279543
-0.12491506 0.62053514 0.83735967
-0.1539064 0.6176663 0.89186901
-0.050992392 0.62125236 0.7259509
-0.079010494 0.61639839 0.77940577
-0.10690749 0.61845279 0.8379851
-0.13390313 0.614577 0.89243889
-0.036976237 0.62118405 0.72668743
-0.063885197 0.62023532 0.78519392
-0.089854434 0.61833745 0.84066468
-0.11487702 0.61247295 0.89404511
-0.023046747 0.61818856 0.72337139
-0.048910588 0.61919975 0.78389442
-0.072778739 0.61920398 0.84436184
-0.096737474 0.61528116 0.90075862
-0.011003641 0.62010896 0.72518122
-0.032917447 0.61814255 0.78357577
-0.055808414 0.61716139 0.84300673
-0.077684782 0.61515874 0.90340054
0.0030617481 0.6230039 0.72797126
-0.017924121 0.61708885 0.7832759
-0.037792988 0.61707866 0.8436681
-0.057737667 0.61212367 0.90097135
0.016995162 0.62100834 0.72467315
-0.0029682368 0.61607134 0.78097665
-0.020822678 0.61503613 0.84231299
-0.038658395 0.6139828 0.90464902
0.029977988 0.62197953 0.7234472
0.01214227 0.6209262 0.78578317
-0.0038484409 0.61399335 0.84097588
-0.018643335 0.61389285 0.90527284
0.043930124 0.61996579 0.72114873
0.028003436 0.61497837 0.77937651
0.0131711 0.61491406 0.84167415
-0.00060525537 0.61479199 0.90695196
0.056909028 0.6199373 0.71990484
0.043004625 0.61592436 0.77911264
0.031235756 0.61779475 0.84438896
0.019409809 0.61470205 0.90757585
0.069778606 0.61599982 0.71359056
0.059028268 0.61784846 0.77984768
0.048209999 0.61675197 0.84305185
0.038274355 0.6097433 0.90113074
0.08487431 0.6218726 0.71741545
0.074006803 0.61781275 0.77856618
0.065124147 0.61476362 0.83869773
0.057297461 0.61165661 0.90180939
0.097861059 0.62384367 0.7162075
0.089943781 0.61680973 0.77524847
0.083102122 0.61471707 0.83735985
0.077275075 0.61160296 0.9004339
0.11074937 0.61988813 0.7108928
0.10493018 0.6187737 0.77400303
0.10006157 0.61469227 0.83504105
0.097233966 0.61156738 0.89805883
0.12473594 0.62185568 0.70966613
0.11988997 0.618756 0.77172184
0.11697964 0.61370379 0.83070493
0.1161704 0.61055362 0.89468479
0.13660963 0.6189217 0.70338869
0.13480447 0.61677486 0.76740533
0.13496548 0.61565691 0.82940304
0.13513342 0.61152142 0.8923465
0.15066415 0.62383437 0.70521498
0.15072668 0.61678982 0.76310605
0.15190227 0.61465037 0.82606667
0.15505093 0.61052215 0.887954
0.16351499 0.61991501 0.69790101
0.1646453 0.61581212 0.75882626
0.16882429 0.61466169 0.82174855
0.17292744 0.60856652 0.88158178
0.17541134 0.61796272 0.6926412
0.18059012 0.61680877 0.75554466
0.1857236 0.61369139 0.81641287
0.19396196 0.61347216 0.88227689
0.18936045 0.61996639 0.68941516
0.19551247 0.61682725 0.75126415
0.2026269 0.61372077 0.811095
0.21070668 0.60662937 0.86983544
0.20228317 0.61999214 0.68517226
0.21041219 0.61586404 0.74596596
0.2195489 0.6137321 0.806777
0.22959088 0.60666972 0.86348045
0.21417952 0.61803979 0.67991245
0.22536115 0.61786419 0.7427212
0.23542969 0.61278337 0.80046034
0.24960683 0.61159706 0.8631947
0.22815129 0.62102526 0.6777041
0.23921575 0.61494106 0.73540646
0.25231424 0.61283088 0.79414296
0.26742327 0.60869586 0.85380548
0.24005157 0.62007284 0.67246234
0.25312349 0.6159811 0.7301631
0.26924413 0.61484194 0.7898609
0.28422114 0.60581625 0.84343541
0.2519331 0.61913848 0.66622078
0.26802716 0.6160177 0.7248829
0.28508353 0.61292952 0.78152686
0.3051956 0.60977638 0.84111351
0.26483318 0.61818236 0.6609602
0.28186694 0.6141125 0.71658653
0.30197203 0.6139769 0.77522749
0.3209562 0.60693645 0.82876289
0.27776375 0.62020779 0.6567533
0.29575205 0.61417079 0.71032548
0.31577045 0.61110806 0.7649138
0.33880308 0.60701656 0.82042736
0.28964922 0.62027323 0.65052986
0.31168604 0.61718524 0.70608026
0.33161384 0.61019552 0.75659782
0.35872152 0.61103463 0.81512529
0.30150813 0.61835706 0.64327073
0.32557505 0.6182434 0.69983727
0.3475064 0.61224627 0.75033528
0.37448215 0.60819477 0.80277467
0.31237113 0.61744446 0.63604838
0.33734724 0.6134001 0.68852538
0.36333498 0.61235166 0.74103767
0.39131054 0.60829657 0.79345828
0.32527909 0.61848801 0.63082379
0.35124022 0.61545807 0.68230039
0.37818244 0.61244255 0.73275852
0.40707511 0.60645658 0.78112566
0.33716062 0.61755371 0.62458235
0.36615169 0.61749429 0.67705625
0.39610127 0.61646771 0.72749406
0.42492989 0.6085363 0.77282619
0.34800488 0.6166591 0.61636037
0.38000327 0.61858863 0.66881388
0.40883973 0.61265689 0.71418208
0.44072494 0.60967773 0.76154733
0.36196187 0.62066239 0.61317033
0.39077961 0.61474884 0.65753889
0.4236685 0.61276585 0.70490324
0.45856097 0.61177558 0.75224817
0.36350155 0.60403806 0.59183359
0.40258235 0.61288697 0.64728075
0.43643755 0.61193645 0.69264507
0.47021696 0.60604101 0.73492032
0.37332335 0.60216528 0.58261269
0.41645655 0.614963 0.64005607
0.45022905 0.61208522 0.6813857
0.48703837 0.60916036 0.72465837
0.38521275 0.6032306 0.57640731
0.4313572 0.61901706 0.63384837
0.46403927 0.61221582 0.67112607
0.50076586 0.6073637 0.71036392
0.3970795 0.60331416 0.56918412
0.4410736 0.61423528 0.61957508
0.47783074 0.61236459 0.65986669
0.51449722 0.60656691 0.69608766
0.40692788 0.603423 0.56099892
0.45290291 0.61435497 0.61035269
0.49164489 0.61349505 0.64962506
0.5292511 0.60674822 0.68281019
0.4290655 0.62026876 0.5648905
0.46469083 0.61351109 0.59911287
0.50439912 0.61368352 0.6363852
0.54505402 0.60988927 0.67156732
0.43886864 0.6184141 0.55466998
0.47652406 0.61463064 0.58990848
0.5161683 0.61285776 0.62414569
0.55878931 0.61009228 0.657309
0.44971681 0.61851937 0.54646599
0.49036482 0.61774266 0.58070248
0.53099012 0.61598426 0.61392128
0.57356983 0.61225522 0.64506721
0.46056896 0.61962438 0.53828001
0.50115287 0.61690235 0.56948149
0.54274058 0.6151765 0.6006822
0.58321917 0.60954541 0.62683135
0.45707905 0.6000365 0.51598346
0.51294476 0.61705828 0.55825979
0.55346859 0.61339068 0.58644426
0.59900725 0.61370432 0.61460692
0.46996135 0.60411584 0.50881368
0.52475917 0.61819589 0.54805565
0.56624943 0.61556065 0.57424009
0.60970175 0.6129545 0.5983876
0.48284358 0.60819507 0.50164384
0.53248394 0.61542094 0.53385603
0.57698536 0.61577445 0.56003815
0.62039632 0.61220467 0.58216834
0.49062049 0.60436606 0.49042514
0.5310359 0.60180676 0.51262969
0.5826236 0.61007953 0.54182339
0.63209456 0.61245102 0.56594819
0.49840912 0.60353649 0.47926053
0.54080939 0.60198796 0.50044584
0.59847575 0.61618388 0.5326339
0.6387257 0.60977006 0.54676902
0.51026899 0.6066376 0.47109184
0.5536316 0.60512167 0.49025902
0.60411805 0.61148882 0.51443714
0.65349525 0.61395067 0.53356367
0.518031 0.60382652 0.45889148
0.56545395 0.60825902 0.48009098
0.61791044 0.61665481 0.50226825
0.6611529 0.61324781 0.51540142
0.52886838 0.60594946 0.4497239
0.57625389 0.61041814 0.46892405
0.62764651 0.61687213 0.48808506
0.66982901 0.61252314 0.49822009
0.53970569 0.60807246 0.44055629
0.58398247 0.60864305 0.45474243
0.63128912 0.61218423 0.46992591
0.68153906 0.61576897 0.48205405
0.54342324 0.60331219 0.42639577
0.58766246 0.60391897 0.4385826
0.6400066 0.61242324 0.45476192
0.68514419 0.61111724 0.46189559
0.5562681 0.60742766 0.41722661
0.59641743 0.6041218 0.4254179
0.6527766 0.61661112 0.44159412
0.69789934 0.61632299 0.44774616
0.56303418 0.60561997 0.40506309
0.60619879 0.60630268 0.41327006
0.65947181 0.6158756 0.42544997
0.70353472 0.61464554 0.4286038
0.57182664 0.60578662 0.39389774
0.62408495 0.61638111 0.40511474
0.66920084 0.61911058 0.41032121
0.70514411 0.61100078 0.40850091
0.57961923 0.60595691 0.38275114
0.63589644 0.62153614 0.39398307
0.67589611 0.61837494 0.39417708
0.71888822 0.61822069 0.39336908
0.60058063 0.62096941 0.37762851
0.6405803 0.61780834 0.37782246
0.67956531 0.61566871 0.37705359
0.72152019 0.61555415 0.37426507
0.59314466 0.60535902 0.3574785
0.64934701 0.62101066 0.36471182
0.68827587 0.61892521 0.36094394
0.72818583 0.61685443 0.35615769
0.60497493 0.61049604 0.34734651
0.65606493 0.62125683 0.34958538
0.69599748 0.62016779 0.34581676
0.73282915 0.61718023 0.33707017
0.60869235 0.60573578 0.333186
0.65975285 0.61853242 0.33346158
0.69967461 0.61946106 0.32872933
0.73849505 0.61848408 0.31898156
0.6174739 0.60792017 0.32105702
0.6674971 0.62075669 0.31935203
0.70737743 0.62072164 0.31260246
0.74113482 0.61781722 0.29991359
0.62422925 0.60813028 0.30792984
0.67421496 0.62100285 0.30422562
0.71105844 0.62101477 0.29553306
0.74480104 0.61912823 0.28186253
0.62898105 0.60734767 0.29482228
0.67892933 0.62025636 0.28911868
0.71573925 0.62130433 0.27844486
0.74745953 0.61844325 0.26379424
0.63774383 0.60955012 0.28169364
0.68465132 0.62150609 0.27402908
0.71942019 0.62159747 0.26137546
0.74910337 0.61877978 0.24476311
0.64247298 0.60778582 0.26756838
0.69237685 0.6237483 0.25891986
0.72210133 0.6218943 0.24432483
0.74974352 0.61812007 0.22573273
0.66538966 0.6258449 0.25946325
0.69609529 0.62400526 0.24384978
0.72778988 0.62417984 0.22725391
0.55902845 0.4508763 0.16825868
0.6640628 0.61913913 0.24336132
0.69878727 0.62228435 0.2277628
0.68009353 0.57886285 0.19931769
0.54465771 0.43723643 0.15127525
0.67383718 0.62433749 0.23026793
0.7004835 0.62156671 0.2117126
0.55691922 0.46604371 0.15956959
0.55245912 0.44442362 0.13925514
0.67957395 0.62456924 0.21615991
0.58431184 0.50972223 0.17185099
0.546597 0.45535278 0.14456438
0.55320072 0.44567308 0.1252591
0.68328846 0.62382638 0.20107181
0.55988097 0.48513827 0.1538576
0.54835713 0.45658058 0.13154922
0.5670206 0.45783791 0.11321633
0.57217592 0.51290953 0.16413325
0.54955482 0.4734475 0.13883437
0.56721449 0.47370851 0.12050224
0.59489292 0.48394999 0.10116273
0.54574853 0.48431528 0.14710504
0.55935585 0.48062751 0.12677667
0.58002675 0.48387718 0.10844222
0.60669053 0.49514025 0.088139862
0.54549736 0.48255077 0.13407339
0.56715322 0.48681486 0.11473851
0.59886926 0.50202298 0.096413597
0.62750316 0.5153147 0.074110374
0.56336176 0.49666464 0.12399082
0.58701038 0.50393909 0.10367274
0.61265171 0.51422399 0.082371496
0.64127475 0.52953339 0.059104644
0.57418519 0.50482279 0.112932
0.59880406 0.51412952 0.090631858
0.61941588 0.52145094 0.068370834
0.65103137 0.53976709 0.044102006
0.58095628 0.50903219 0.09987694
0.59956443 0.51536089 0.077635489
0.62917238 0.53168464 0.0533682
0.62166554 0.51714647 0.029237589
0.59276474 0.51820457 0.087817684
0.6123392 0.52556574 0.06357614
0.6299367 0.53391588 0.040389854
0.63542229 0.53238302 0.013250221
0.60556221 0.52939129 0.074776024
0.6211108 0.53478521 0.049573932
0.62464505 0.53120565 0.025434831
0.62012362 0.52269185 -0.00064336136
0.6073184 0.52961922 0.061742846
0.62086743 0.53502035 0.036578339
0.62336445 0.53148061 0.010458704
0.61184728 0.51897448 -0.014560372
0.61509317 0.53482485 0.048687011
0.61960155 0.53427738 0.022583857
0.61809534 0.52975219 -0.0034786314
0.62458551 0.5342328 -0.0315286
0.61783838 0.53706694 0.034671426
0.61733586 0.53353798 0.0086081624
0.61782235 0.53202313 -0.01843752
0.59630221 0.51353586 -0.042377129
0.61656857 0.53532416 0.020658923
0.61605519 0.53381288 -0.0063679628
0.60054576 0.51830357 -0.030366264
0.59204084 0.51380342 -0.05629722
0.61331391 0.53257054 0.0076656453
0.61479324 0.53406972 -0.020344429
0.59226936 0.51458621 -0.044283263
0.57677966 0.50407606 -0.068191484
0.60903692 0.52883887 -0.0063265227
0.60351658 0.52534592 -0.033295482
0.58702302 0.51383948 -0.057202931
-0.02611593 -0.059798401 0.050936799
0.61379343 0.53407335 -0.020325638
0.59725857 0.52160329 -0.046250414
0.5797652 0.51010048 -0.070139058
0.69714767 0.63068765 -0.12717481
0.60050535 0.52235717 -0.033293165
0.59000075 0.51786423 -0.059186548
0.61648101 0.54937714 -0.093123809
0.68685693 0.62799537 -0.14203587
0.59125084 0.51460791 -0.04526414
0.58173913 0.51312894 -0.072121903
0.70012152 0.63371259 -0.12917645
0.68255109 0.63131666 -0.15890092
0.59099269 0.51586097 -0.059241377
0.63645834 0.56839252 -0.098155566
0.68982679 0.63002044 -0.14405555
0.48869166 0.44824827 -0.11456783
0.57973468 0.50711906 -0.071192786
0.69911385 0.63171649 -0.12919371
0.68153954 0.62832081 -0.15893617
0.19727729 0.16375262 -0.026228063
0.59746897 0.52637684 -0.089182563
0.69680375 0.63403088 -0.1461143
0.5006687 0.45725787 -0.11763012
-0.02611593 -0.059798401 0.050936799
0.70607114 0.63072771 -0.13134256
0.68951243 0.63132775 -0.16103175
0.20823573 0.17278396 -0.030271232
0.17316961 0.14487815 -0.028118767
0.70676845 0.63503093 -0.14828353
0.66525888 0.61359787 -0.17090173
-0.02611593 -0.059798401 0.050936799
-0.02611593 -0.059798401 0.050936799
0.69946921 0.63032824 -0.16323701
0.20425035 0.16676316 -0.028304864
0.17713928 0.14689964 -0.030157208
0.1480917 0.12397145 -0.028027389
-0.02611593 -0.059798401 0.050936799
0.19018705 0.15483354 -0.029257677
-0.02611593 -0.059798401 0.050936799
-0.02611593 -0.059798401 0.050936799
0.20722322 0.16477084 -0.029396933
-0.02611593 -0.059798401 0.050936799
0.14610988 0.11894331 -0.026080575
0.12506266 0.10602088 -0.025920212
0.1832013 0.14380625 -0.026325364
0.16709399 0.13493757 -0.030185524
-0.02611593 -0.059798401 0.050936799
-0.02611593 -0.059798401 0.050936799
-0.02611593 -0.059798401 0.050936799
-0.02611593 -0.059798401 0.050936799
0.13302074 0.11004575 -0.028997451
0.10999956 0.094094843 -0.026854247
0.16807808 0.13093467 -0.030276388
0.1480011 0.12004448 -0.0320981
-0.02611593 -0.059798401 0.050936799
-0.02611593 -0.059798401 0.050936799
-0.02611593 -0.059798401 0.050936799
-0.02611593 -0.059798401 0.050936799
0.11695389 0.097123489 -0.0299307
0.099940367 0.088167928 -0.028773766
0.14400394 0.1110242 -0.030185785
0.12894566 0.10511522 -0.03201136
-0.02611593 -0.059798401 0.050936799
-0.02611593 -0.059798401 0.050936799
-0.02611593 -0.059798401 0.050936799
-0.02611593 -0.059798401 0.050936799
0.10092841 0.085164852 -0.028846614
0.08593718 0.077183872 -0.026709583
0.12695207 0.097087599 -0.030118603
0.11191251 0.091160536 -0.030944526
-0.02611593 -0.059798401 0.050936799
-0.02611593 -0.059798401 0.050936799
-0.02611593 -0.059798401 0.050936799
-0.02611593 -0.059798401 0.050936799
0.086921282 0.073180966 -0.026800446
0.07390403 0.068228476 -0.026646264
0.10792622 0.080122493 -0.02806858
0.0988717 0.080209062 -0.030898452
-0.02611593 -0.059798401 0.050936799
-0.02611593 -0.059798401 0.050936799
-0.02611593 -0.059798401 0.050936799
-0.02611593 -0.059798401 0.050936799
0.077865846 0.068250299 -0.028720744
0.061923113 0.058218971 -0.023601975
0.097867027 0.074195579 -0.029988106
0.08981625 0.075278394 -0.03281875
-0.02611593 -0.059798401 0.050936799
-0.02611593 -0.059798401 0.050936799
-0.02611593 -0.059798401 0.050936799
-0.02611593 -0.059798401 0.050936799
0.063896172 0.056230221 -0.024675254
0.05293471 0.051216278 -0.021559667
0.082856163 0.061215445 -0.027941167
0.079786666 0.067315638 -0.032774989
-0.02611593 -0.059798401 0.050936799
-0.02611593 -0.059798401 0.050936799
-0.02611593 -0.059798401 0.050936799
-0.02611593 -0.059798401 0.050936799
0.057862833 0.052270528 -0.025634244
0.047890332 0.049270749 -0.02350108
0.073815517 0.055266857 -0.028879825
0.066802002 0.056309897 -0.029729933
-0.02611593 -0.059798401 0.050936799
-0.02611593 -0.059798401 0.050936799
-0.02611593 -0.059798401 0.050936799
-0.02611593 -0.059798401 0.050936799
0.048874427 0.045267835 -0.023591943
0.039890874 0.044282217 -0.022441186
0.062823564 0.04727152 -0.026817955
0.057794884 0.049325302 -0.028687287
-0.02611593 -0.059798401 0.050936799
-0.02611593 -0.059798401 0.050936799
-0.02611593 -0.059798401 0.050936799
-0.02611593 -0.059798401 0.050936799
0.041859999 0.041293643 -0.02353248
0.034880009 0.041300677 -0.022401288
0.055805203 0.042297494 -0.026776515
0.049776711 0.044354863 -0.028627057
-0.02611593 -0.059798401 0.050936799
-0.02611593 -0.059798401 0.050936799
-0.02611593 -0.059798401 0.050936799
-0.02611593 -0.059798401 0.050936799
0.034864295 0.037301354 -0.022473361
0.021006953 0.025172746 -0.012429908
0.045813054 0.034298562 -0.024733432
0.043747302 0.041394997 -0.029568024
-0.02611593 -0.059798401 0.050936799
-0.02611593 -0.059798401 0.050936799
-0.02611593 -0.059798401 0.050936799
-0.02611593 -0.059798401 0.050936799
0.027879456 0.031291321 -0.020450614
0.018959006 0.027233854 -0.015355267
0.04275744 0.034363598 -0.027676046
0.037751414 0.037399121 -0.028527696
-0.02611593 -0.059798401 0.050936799
-0.02611593 -0.059798401 0.050936799
-0.02611593 -0.059798401 0.050936799
-0.02611593 -0.059798401 0.050936799
0.022872517 0.029309597 -0.020392697
-0.02611593 -0.059798401 0.050936799
0.034772784 0.028357144 -0.025634505
0.030755706 0.033406831 -0.027468577
-0.02611593 -0.059798401 0.050936799
-0.02611593 -0.059798401 0.050936799
-0.02611593 -0.059798401 0.050936799
-0.02611593 -0.059798401 0.050936799
0.013962021 0.018217152 -0.013424154
-0.02611593 -0.059798401 0.050936799
0.026788127 0.022350702 -0.023592975
-0.02611593 -0.059798401 0.050936799
-0.02611593 -0.059798401 0.050936799
-0.02611593 -0.059798401 0.050936799
-0.02611593 -0.059798401 0.050936799
-0.02611593 -0.059798401 0.050936799
-0.02611593 -0.059798401 0.050936799
-0.02611593 -0.059798401 0.050936799
0.015930235 0.010211328 -0.013605885
-0.02611593 -0.059798401 0.050936799
-0.02611593 -0.059798401 0.050936799
-0.02611593 -0.059798401 0.050936799
-0.02611593 -0.059798401 0.050936799
-0.02611593 -0.059798401 0.050936799
-0.02611593 -0.059798401 0.050936799
-0.02611593 -0.059798401 0.050936799
0.012874613 0.010276362 -0.016548507
-0.02611593 -0.059798401 0.050936799
