# .PCD v0.7 - Point Cloud Data file format
VERSION 0.7
FIELDS x y z
SIZE 4 4 4
TYPE F F F
COUNT 1 1 1
WIDTH 1399
HEIGHT 1
VIEWPOINT 0 0 0 1 0 0 0
POINTS 1399
DATA ascii
-0.02611593 -0.059798401 0.050936799
-0.02611593 -0.059798401 0.050936799
-0.11363873 -0.034919918 -0.034003306
-0.10957152 -0.031989053 -0.031025425
-0.11759061 -0.041976728 -0.03005562
-0.11863087 -0.037919551 -0.032963749
-0.02611593 -0.059798401 0.050936799
-0.02611593 -0.059798401 0.050936799
-0.02611593 -0.059798401 0.050936799
-0.02611593 -0.059798401 0.050936799
-0.11756311 -0.03497792 -0.029929493
-0.11554777 -0.030985776 -0.029894996
-0.12861818 -0.039901409 -0.031812221
-0.12965845 -0.03584424 -0.034720331
-0.02611593 -0.059798401 0.050936799
-0.02611593 -0.059798401 0.050936799
-0.02611593 -0.059798401 0.050936799
-0.02611593 -0.059798401 0.050936799
-0.12960529 -0.031881094 -0.03264894
-0.12659407 -0.028892372 -0.032651257
-0.13759387 -0.038887374 -0.030625422
-0.13863416 -0.034830194 -0.033533543
-0.02611593 -0.059798401 0.050936799
-0.02611593 -0.059798401 0.050936799
-0.02611593 -0.059798401 0.050936799
-0.02611593 -0.059798401 0.050936799
-0.13554411 -0.030913997 -0.029519185
-0.13556585 -0.026878498 -0.031446446
-0.14555104 -0.037895009 -0.028457757
-0.14860575 -0.032812737 -0.032309938
-0.02611593 -0.059798401 0.050936799
-0.02611593 -0.059798401 0.050936799
-0.02611593 -0.059798401 0.050936799
-0.02611593 -0.059798401 0.050936799
-0.14653817 -0.029874686 -0.029294472
-0.14150856 -0.026911234 -0.028334714
-0.16055918 -0.035823427 -0.029139515
-0.15654418 -0.031838458 -0.029142603
-0.02611593 -0.059798401 0.050936799
-0.02611593 -0.059798401 0.050936799
-0.02611593 -0.059798401 0.050936799
-0.02611593 -0.059798401 0.050936799
-0.15852419 -0.026832134 -0.02901493
-0.14642885 -0.025965815 -0.024224099
-0.17958134 -0.032719567 -0.030727774
-0.17658491 -0.028712926 -0.031711731
-0.02611593 -0.059798401 0.050936799
-0.02611593 -0.059798401 0.050936799
-0.02611593 -0.059798401 0.050936799
-0.02611593 -0.059798401 0.050936799
-0.17351358 -0.024778638 -0.028697036
-0.16446601 -0.021847628 -0.026812773
-0.20561706 -0.028572669 -0.033166122
-0.19862135 -0.024580382 -0.034225252
-0.02611593 -0.059798401 0.050936799
-0.02611593 -0.059798401 0.050936799
-0.02611593 -0.059798401 0.050936799
-0.02611593 -0.059798401 0.050936799
-0.19051348 -0.020700218 -0.029305186
-0.18350297 -0.017725853 -0.029382668
-0.22859713 -0.024490802 -0.032661866
-0.21656489 -0.020552641 -0.031815618
-0.02611593 -0.059798401 0.050936799
-0.02611593 -0.059798401 0.050936799
-0.02611593 -0.059798401 0.050936799
-0.02611593 -0.059798401 0.050936799
-0.2135123 -0.016600266 -0.029800598
-0.20148396 -0.013661933 -0.028972365
-0.25455794 -0.020416262 -0.031101577
-0.23853035 -0.017492285 -0.030348513
-0.02611593 -0.059798401 0.050936799
-0.02611593 -0.059798401 0.050936799
-0.02611593 -0.059798401 0.050936799
-0.02611593 -0.059798401 0.050936799
-0.24050643 -0.011486126 -0.030202821
-0.22647849 -0.0085549718 -0.029412173
-0.95907825 0.1010415 -0.23478305
-0.27251539 -0.010353361 -0.030583162
-0.02611593 -0.059798401 0.050936799
-0.02611593 -0.059798401 0.050936799
-0.97972172 0.10479061 -0.21632248
-0.02611593 -0.059798401 0.050936799
-0.26845902 -0.0054047452 -0.028568916
-0.25446853 -0.0024374127 -0.029777586
-0.98329031 0.10438891 -0.1932551
-0.9756282 0.12877217 -0.2159652
-0.02611593 -0.059798401 0.050936799
-0.02611593 -0.059798401 0.050936799
-0.99386859 0.10603009 -0.17101984
-0.98924333 0.13046028 -0.19567287
-0.97651893 0.15175374 -0.21453232
-0.96681267 0.17307608 -0.23433508
-1.0094755 0.10972504 -0.1506539
-1.005854 0.13315901 -0.17530614
-0.98613864 0.15242769 -0.19433318
-0.97745109 0.17377168 -0.21511678
-1.0110257 0.10929808 -0.12662445
-1.0104373 0.13377883 -0.15320164
-0.99775416 0.15410863 -0.17407843
-0.99108499 0.17547789 -0.19582412
-1.0306319 0.1130074 -0.10618335
-1.0200157 0.1354164 -0.13098516
-1.0123652 0.15680018 -0.1537493
-0.99769044 0.17512314 -0.17469969
-1.0432059 0.11565558 -0.083892472
-1.0245988 0.13603622 -0.10888065
-1.0169524 0.15642017 -0.13166279
-1.0073063 0.17679691 -0.15448254
-1.0567609 0.11828928 -0.060583137
-1.0341586 0.13765572 -0.085664496
-1.0235353 0.15704714 -0.1095207
-1.0169073 0.17745277 -0.13328373
-1.0733302 0.12195164 -0.038199082
-1.0547646 0.14136863 -0.065204605
-1.0291183 0.15767056 -0.087397397
-1.0255086 0.17810503 -0.11210373
-1.0848669 0.12456007 -0.013927676
-1.0813429 0.14708464 -0.04359626
-1.0457103 0.16035119 -0.066031024
-1.0271002 0.17671442 -0.090091616
-1.094404 0.12716131 0.01030615
-1.0898839 0.14868245 -0.019399241
-1.0642979 0.16403881 -0.044609055
-1.0396969 0.17838085 -0.068818428
-1.1129166 0.1307766 0.035726774
-1.0964257 0.15027311 0.0047601908
-1.0818671 0.16770481 -0.022206202
-1.0582885 0.18106866 -0.047414459
-1.1214352 0.13335614 0.060941469
-1.1159569 0.15391007 0.029199943
-1.1014358 0.17137793 0.00023423135
-1.0858853 0.18680635 -0.026786983
-1.1349488 0.13695349 0.086268142
-1.1184843 0.15446843 0.054265864
-1.0959727 0.16990791 0.025113784
-1.0874355 0.1863794 -0.0027575418
-1.1464442 0.14052555 0.1125569
-1.1430069 0.16012301 0.078835607
-1.1275086 0.17660552 0.048833419
-1.1009946 0.18801326 0.020533763
-1.1679111 0.14611508 0.14006925
-1.1495109 0.16167746 0.10499436
-1.1280404 0.17615688 0.073843732
-1.111554 0.18963635 0.043768704
-0.02611593 -0.059798401 0.050936799
-1.1630059 0.16525674 0.13132069
-1.1405582 0.1787508 0.099133596
-1.1300855 0.1932697 0.068189666
-1.1928263 0.15319405 0.19668296
-1.1714869 0.16780008 0.15853471
-1.1530719 0.18234456 0.12444147
-0.02611593 -0.059798401 0.050936799
-0.02611593 -0.059798401 0.050936799
-1.1809638 0.17134692 0.18578553
-1.167552 0.18490948 0.15176824
-1.1611161 0.19947892 0.11890014
-1.2346067 0.16522467 0.25970417
-1.2043743 0.17688935 0.21633446
-1.1860232 0.18948841 0.17920619
-0.02611593 -0.059798401 0.050936799
-1.2619563 0.17172702 0.29334527
-0.02611593 -0.059798401 0.050936799
-1.200462 0.19301698 0.2085503
-1.1890762 0.20460516 0.17353487
-0.02611593 -0.059798401 0.050936799
-1.2710593 0.19293663 0.28389615
-1.2059288 0.19453166 0.2366896
-0.02611593 -0.059798401 0.050936799
-0.02611593 -0.059798401 0.050936799
-1.2864189 0.19739628 0.31727573
-0.02611593 -0.059798401 0.050936799
-1.2409108 0.21672593 0.23374504
-1.3069671 0.18804753 0.39651817
-1.2908219 0.20085278 0.34843123
-1.2676187 0.20956117 0.30413932
-0.02611593 -0.059798401 0.050936799
-1.360041 0.20140687 0.44376954
-1.2992053 0.20430551 0.38066158
-1.2959266 0.21703079 0.33981651
-1.2756894 0.22471397 0.2975623
-3.0920832 0.54869342 1.030679
-0.02611593 -0.059798401 0.050936799
-1.3411075 0.22745235 0.3818652
-1.2552406 0.22019064 0.32210594
-3.1392584 0.56618381 1.1249106
-3.1084809 0.59028655 1.0017285
-1.3176365 0.22390002 0.40737015
-0.02611593 -0.059798401 0.050936799
-3.208204 0.58855331 1.230642
-3.1099927 0.59588516 1.0798846
-3.123734 0.6257143 0.98164821
-0.02611593 -0.059798401 0.050936799
-3.267118 0.60985082 1.3381667
-3.1779797 0.6172874 1.1835799
-3.0904973 0.62138796 1.0479702
-1.3430369 0.24148378 0.43617356
-3.3329103 0.63306463 1.4518569
-3.2429116 0.63862461 1.2902176
-3.1466372 0.6378746 1.1443521
-3.0779531 0.63984478 1.0200597
-3.3252394 0.6424675 1.5389129
-3.2373493 0.6441257 1.3722409
-3.1629846 0.64638186 1.2308414
-3.108294 0.64940208 1.10683
-3.2165389 0.62934023 1.5776533
-3.2089758 0.64570791 1.4447627
-3.1455715 0.64796728 1.3055694
-3.1117756 0.6529721 1.186987
-3.1237445 0.62019742 1.6207652
-3.1359866 0.63745576 1.4982651
-3.1212051 0.64756405 1.3781306
-3.0904539 0.65061617 1.2575691
-3.0706079 0.6199072 1.6807854
-3.0452187 0.62633848 1.5403788
-3.050261 0.63735557 1.429635
-3.0631559 0.64725691 1.3270206
-3.0144949 0.61862451 1.7397317
-3.005986 0.62600809 1.6056604
-2.9981663 0.63108808 1.4885663
-3.0130315 0.63896078 1.3879529
-2.9603961 0.61836684 1.7977339
-2.9568379 0.62371445 1.6667194
-2.9569795 0.62878698 1.551775
-2.96594 0.6317113 1.44696
-2.9023352 0.61813104 1.8536614
-2.9077461 0.6214751 1.7247795
-2.9088807 0.62353367 1.6107993
-2.9346802 0.62837392 1.5143373
-2.8324797 0.6140337 1.8992949
-2.8536735 0.61923593 1.7817459
-2.8766239 0.62421012 1.6772301
-2.9053938 0.62702531 1.5827878
-2.7547791 0.60905254 1.9367628
-2.8016386 0.6170401 1.8367506
-2.8423755 0.62287974 1.7435874
-2.8721716 0.62371689 1.648128
-2.6633029 0.60022092 1.9628991
-2.7446833 0.61389875 1.8876446
-2.7923291 0.61867332 1.7995932
-2.8428473 0.6223321 1.7185779
-2.6438444 0.60877979 2.0387154
-2.6443403 0.60014415 1.907524
-2.7521567 0.61739373 1.8618391
-2.821439 0.62290329 1.7932127
-2.5711389 0.60481644 2.0762954
-2.6416271 0.61052859 1.9966912
-2.6823542 0.60933328 1.9054012
-2.7762983 0.61862439 1.8543108
-2.5043874 0.60283804 2.1160231
-2.5994623 0.61225945 2.0579538
-2.6648505 0.61484563 1.9842
-2.732157 0.61434907 1.9154278
-2.4396541 0.60088497 2.154789
-2.5258212 0.60634708 2.0924799
-2.6295943 0.61551124 2.0505743
-2.6742175 0.60720485 1.966231
-1.8974979 0.4648813 1.7580435
-2.4699175 0.60426348 2.1404116
-2.5618253 0.60849398 2.0921926
-2.672441 0.61452103 2.0593617
-1.8420291 0.4622139 1.7829653
-1.9276156 0.46711525 1.7516458
-2.5098503 0.60535264 2.1441803
-2.6223757 0.61029655 2.1163671
-1.8326917 0.47293505 1.8520079
-1.8622955 0.46053934 1.7693099
-2.3930063 0.58499038 2.1386225
-2.5841093 0.60893369 2.1836491
-2.0114284 0.54180747 2.1206911
-1.8215686 0.46069011 1.8075631
-1.8764888 0.45375353 1.7604498
-2.5182874 0.60086948 2.2282858
-2.1309988 0.59720856 2.3470087
-1.9650786 0.51612306 2.0373304
-1.8229525 0.44902128 1.7893717
-1.8866692 0.44091824 1.7534058
-2.0527184 0.59062219 2.3624291
-2.1513944 0.58662593 2.3281927
-1.9253569 0.48910221 1.9740766
-1.8360801 0.4351427 1.785365
-1.9823084 0.58795518 2.3840699
-2.1200352 0.59423244 2.398767
-2.1137023 0.55663085 2.2639227
-1.8982769 0.46178433 1.9300605
-1.9197394 0.58717191 2.4138944
-2.0505393 0.58947897 2.4253888
-2.1929836 0.59550267 2.4551752
-2.0896378 0.52532434 2.2198908
-1.8601284 0.58736312 2.4457927
-1.9878843 0.58660555 2.4601755
-2.1292808 0.59057182 2.4929061
-2.2746964 0.58955336 2.5256212
-1.7947174 0.58471406 2.4675276
-1.9301605 0.58669537 2.4981096
-2.0684721 0.58856076 2.5357456
-2.2235634 0.58827043 2.5856609
-1.7321819 0.58496678 2.4953706
-1.8704598 0.58579624 2.5349882
-2.0037839 0.5846442 2.5724759
-2.1684875 0.58702749 2.6426268
-1.6648276 0.58236498 2.5140688
-1.8039181 0.58301699 2.5637016
-1.9468955 0.58357489 2.6194074
-2.1134152 0.58478469 2.699574
-1.6004502 0.58075559 2.5338411
-1.7481526 0.58407766 2.6036901
-1.888105 0.5815891 2.6612852
-2.0495589 0.58070886 2.7453206
-1.5370497 0.58013153 2.5546498
-1.6729279 0.57755625 2.6161683
-1.8253714 0.57964319 2.7000885
-1.9944974 0.58048385 2.8013046
-1.4717699 0.57760912 2.569387
-1.614298 0.57773286 2.6490848
-1.7636561 0.57771897 2.737911
-1.937463 0.57827008 2.8562152
-1.4094255 0.57704294 2.5872154
-1.550808 0.57601857 2.6748736
-1.7019224 0.5757767 2.7767332
-1.8726026 0.57519054 2.9019606
-1.3461415 0.57552749 2.6020081
-1.4863367 0.57431871 2.6996443
-1.6363018 0.57392853 2.8094823
-1.8106589 0.57404906 2.9517972
-1.2799367 0.57307392 2.6127279
-1.4160993 0.57081473 2.71227
-1.5696437 0.57204062 2.8442121
-1.7447387 0.57191151 3.000541
-1.2205691 0.57350028 2.6316307
-1.3593488 0.57288969 2.7512586
-1.5021397 0.5692941 2.8709073
-1.6730895 0.56800598 3.0351403
-1.1554351 0.57212245 2.6383884
-1.2939901 0.57129478 2.7700124
-1.4423 0.57026792 2.9148195
-1.6101272 0.56684279 3.0859578
-1.091305 0.5697484 2.6451471
-1.226752 0.56780165 2.7826946
-1.3737735 0.56849951 2.9425139
-1.5365345 0.56298441 3.117521
-0.97396618 0.53372997 2.5092525
-1.1586078 0.56439525 2.7903597
-1.3082089 0.56670564 2.9722641
-1.4686669 0.56189382 3.1632459
-0.89019853 0.5155316 2.4463339
-0.97333336 0.49293235 2.497499
-1.1395085 0.51300162 2.7520592
-1.3979347 0.55991918 3.2018991
-0.81421161 0.50016242 2.3946157
-0.88852835 0.47469419 2.4365606
-0.96558958 0.45200107 2.4916115
-1.0369679 0.42055935 2.5313923
-0.74119753 0.48678559 2.3439896
-0.8105793 0.45935407 2.3828053
-0.87982213 0.43379551 2.4286551
-0.94522429 0.40135047 2.4673059
-0.67404735 0.47430354 2.3004916
-0.73660678 0.44500998 2.3301432
-0.79803532 0.41558623 2.3667734
-0.86131763 0.38502511 2.4114203
-0.60619009 0.4590897 2.2419262
-0.66751713 0.43157515 2.2835908
-0.72494638 0.40213704 2.3201458
-0.78041047 0.36871052 2.3555918
-0.54411387 0.44669789 2.1945238
-0.5986225 0.41632155 2.2270057
-0.65205252 0.38686907 2.2634857
-0.70638174 0.35431218 2.3059282
-0.48597687 0.43526602 2.1502135
-0.53650886 0.40389359 2.1816027
-0.58501863 0.3734957 2.2139719
-0.63252556 0.33907679 2.2472501
-0.43164015 0.42666715 2.116029
-0.47823301 0.39433473 2.144326
-0.52282614 0.36199519 2.1725855
-0.56353331 0.32473257 2.1956813
-0.37840074 0.41716239 2.0768471
-0.42197934 0.38380134 2.1060693
-0.46261069 0.35148358 2.1322544
-0.50033718 0.31422833 2.154294
-0.32902566 0.40854526 2.0447557
-0.36772144 0.37427497 2.0678682
-0.40539473 0.34098279 2.0919795
-0.4410654 0.30366606 2.116981
-0.28142852 0.40373561 2.0237706
-0.31734654 0.3656542 2.035758
-0.35104319 0.33136594 2.0587766
-0.38286829 0.29317975 2.0756874
-0.24350818 0.41475058 2.0702755
-0.27143377 0.36456162 2.0308771
-0.30058551 0.32467252 2.0307014
-0.32758793 0.28463149 2.0384853
-0.2053514 0.42854795 2.1288307
-0.23236382 0.37542829 2.0853608
-0.25713229 0.32708353 2.0539393
-0.27880377 0.2796374 2.027478
-0.16411245 0.44426194 2.1913638
-0.19113661 0.38814279 2.14784
-0.21597302 0.33685279 2.1133657
-0.2367087 0.28745764 2.0838504
-0.13502759 0.54175222 2.6027224
-0.14773344 0.40268692 2.2193148
-0.17261514 0.34943342 2.1828048
-0.19240023 0.2970714 2.1512172
-0.080004975 0.55561513 2.65396
-0.12254129 0.54646146 2.8936725
-0.12543435 0.36016285 2.2431359
-0.14693823 0.30753663 2.2265809
-0.024108838 0.55550462 2.6479096
-0.058511645 0.54719543 2.8944871
-0.096025869 0.54004997 3.1881597
-0.13637559 0.52778 3.5448141
0.030689942 0.55448836 2.6368618
0.0054992996 0.54794741 2.8943021
-0.023982897 0.53973734 3.189806
-0.053263649 0.52635556 3.5502341
0.085586265 0.55438137 2.6308298
0.067274146 0.54592431 2.8821049
0.046940088 0.53753704 3.1854367
0.029833503 0.52594918 3.5546725
0.1414676 0.55528873 2.6237974
0.12999265 0.54395169 2.8668897
0.11981046 0.53638381 3.1780491
0.11288927 0.52457917 3.5570934
0.19505277 0.55247533 2.6017358
0.19185024 0.54385579 2.858727
0.19160222 0.5343067 3.1666634
0.19685125 0.52329594 3.5544972
0.24875419 0.5505532 2.5856903
0.25572619 0.54373467 2.8515263
0.26467162 0.53597194 3.1693263
0.28071961 0.52210319 3.5469031
-0.02611593 -0.059798401 0.050936799
0.31638888 0.54182363 2.8333499
0.33762473 0.53674597 3.1659732
0.3646028 0.51989251 3.5402901
0.14609697 0.21424481 1.1790521
-0.02611593 -0.059798401 0.050936799
-0.02611593 -0.059798401 0.050936799
0.4473964 0.5187757 3.5287158
0.41127205 0.55441982 2.557708
0.44224656 0.54449749 2.8240387
0.16120042 0.15989265 1.1947914
-0.02611593 -0.059798401 0.050936799
0.46174148 0.55072588 2.5296867
0.50077856 0.54272026 2.7989025
0.54860747 0.53090864 3.110899
0.61614084 0.51838624 3.5135446
0.27933353 0.28497893 1.4429264
0.27210283 0.2450832 1.4383386
0.26584625 0.20821953 1.4317868
0.26260394 0.17032723 1.4261601
0.31255308 0.28966066 1.4533926
0.62011212 0.54090494 2.7626228
0.68788129 0.52907586 3.0712447
-0.02611593 -0.059798401 0.050936799
0.34236428 0.29073372 1.4428505
0.67864418 0.53912771 2.7374864
0.76080483 0.53188568 3.0659285
0.86522591 0.51632136 3.4628265
0.37542623 0.2935605 1.4452834
0.73827744 0.53925604 2.7173653
0.82943255 0.5309819 3.0456204
0.94469798 0.51452303 3.4342964
0.40417358 0.29269174 1.4317248
0.79589236 0.5394097 2.6962821
0.8990078 0.53112864 3.0223124
1.0230765 0.51281875 3.4007866
0.43511957 0.29463443 1.4281794
0.85450721 0.53955972 2.6751804
0.9697367 0.5321269 3.0070012
1.1068031 0.51377034 3.3852313
0.45749661 0.29013157 1.3956679
0.91210335 0.53973144 2.6530979
1.035159 0.53143287 2.9757533
1.1852041 0.51304781 3.3527391
0.48422563 0.2892881 1.3811473
-0.02611593 -0.059798401 0.050936799
-0.02611593 -0.059798401 0.050936799
-0.02611593 -0.059798401 0.050936799
-0.02611593 -0.059798401 0.050936799
0.38870844 0.17648859 1.0567852
0.39890403 0.1501677 1.0721235
0.50438958 0.16251521 1.3074516
0.52193564 0.27834406 1.3142207
0.52566552 0.23844506 1.3074268
0.52940321 0.20054565 1.300669
-0.02611593 -0.059798401 0.050936799
1.0116482 0.55159068 2.3063309
1.1340284 0.53788161 2.5408711
1.2947925 0.52871829 2.8477995
-0.02611593 -0.059798401 0.050936799
1.0571116 0.55093223 2.277458
1.1885129 0.53817266 2.5128469
1.3644168 0.53182834 2.826545
1.573073 0.51259327 3.1824112
1.1025978 0.55125552 2.2496028
1.2429786 0.53848177 2.4838226
1.4184512 0.52753621 2.7754383
1.6483476 0.51300794 3.1429958
1.1491585 0.55150294 2.2257273
1.2984855 0.53975087 2.4567974
1.4870011 0.53072214 2.7502041
1.7184882 0.51256734 3.0966589
1.1956444 0.55182266 2.1978533
1.346776 0.53824472 2.4188533
1.5410804 0.52839363 2.7011328
1.7906322 0.51311928 3.0503025
1.2400705 0.55120403 2.1670001
1.3991858 0.53861529 2.3868678
1.6096116 0.53159767 2.6748986
1.857661 0.51279801 2.998024
1.2855793 0.55250907 2.1401625
1.4495025 0.53908348 2.3499217
1.6636763 0.53028703 2.624846
1.9278055 0.51335722 2.9517055
1.3300468 0.552854 2.1113265
1.5009165 0.54045743 2.3179729
1.728073 0.53263223 2.5916715
1.9968941 0.51397425 2.9024062
1.3693389 0.55138016 2.0735512
1.5512706 0.54088938 2.2830265
1.7832162 0.53224546 2.5456161
2.0639458 0.51463467 2.8511453
1.4158701 0.55366331 2.0477128
1.5995463 0.5404011 2.2441003
1.8373412 0.53188032 2.4985802
2.1340792 0.51721156 2.8038628
1.4582592 0.55308807 2.0148976
1.6468073 0.54093426 2.2042117
1.8914698 0.53251505 2.4515624
2.2001159 0.51889342 2.7516391
1.4986337 0.55353785 1.9811383
1.6930686 0.54147106 2.1643419
1.9435387 0.5322113 2.4015653
2.2620187 0.5197165 2.6924751
1.5318108 0.55119419 1.9374599
1.739311 0.54202604 2.1234722
1.9894965 0.53203768 2.3456829
2.3393123 0.52512312 2.6531122
1.5824052 0.55540836 1.9145811
1.785591 0.54254472 2.0846019
2.0477259 0.53456736 2.3036239
2.385921 0.52227211 2.5791631
1.6125226 0.55212992 1.8679421
1.8338745 0.544056 2.0457118
2.0947208 0.53435391 2.2497218
2.4498913 0.52603316 2.5230143
1.6549382 0.55353618 1.8361626
1.8770614 0.54467595 2.0019
2.1417158 0.53414047 2.1958201
2.5016234 0.5260551 2.4550233
1.6962979 0.55500031 1.801403
1.9202482 0.54529589 1.9580877
2.1887333 0.53490883 2.1429358
2.5645747 0.52983791 2.3978937
1.7366579 0.55646801 1.7666621
1.9654801 0.54787207 1.9162732
2.2377737 0.53665185 2.0910316
2.6173482 0.53081989 2.3319011
1.7749579 0.5569973 1.7289419
2.0025704 0.54760414 1.8675574
2.2766387 0.53659374 2.030282
2.6396539 0.52634466 2.242372
1.8122394 0.55754834 1.6902406
2.0406418 0.5473507 1.8178232
2.320601 0.53742713 1.9744551
2.6914163 0.52934808 2.1754346
1.8495251 0.55909914 1.6515574
2.0838554 0.54995215 1.7750466
2.3656042 0.53922063 1.9206268
2.7279973 0.52856863 2.0997097
1.8837509 0.55971521 1.6099138
2.1209271 0.54970235 1.7253311
2.4075141 0.54111534 1.8618566
2.7777789 0.53156108 2.0338094
1.9230548 0.56124079 1.5721928
2.1529436 0.54952472 1.6727107
2.4484432 0.54299551 1.8041046
2.821445 0.53368372 1.9620061
1.9532214 0.5609256 1.5276071
2.1950822 0.55220211 1.6259544
2.4853129 0.54394448 1.7434109
2.8803341 0.54055274 1.9010071
1.9894695 0.56251621 1.4869435
2.2382624 0.55583966 1.5811965
2.5191457 0.54494035 1.6807743
2.8886049 0.53616399 1.809742
2.022681 0.56415385 1.4443368
2.2631786 0.55377787 1.5236732
2.5631194 0.54877323 1.6250013
2.9151173 0.53649271 1.7302246
2.052829 0.56385672 1.3987515
2.3043218 0.55745876 1.4769536
2.5939302 0.5487982 1.5614034
2.954788 0.53962946 1.6585141
2.0840178 0.56451964 1.3551648
2.3282418 0.55640048 1.4194672
2.6247299 0.55084085 1.4968418
2.9833596 0.54089659 1.5819762
2.1212325 0.56714272 1.3125011
2.3541844 0.55631667 1.3629608
2.6616261 0.55377132 1.4371837
3.0179794 0.54510552 1.5073789
2.1362219 0.56404465 1.2591462
2.3932714 0.56005907 1.3132797
2.6904263 0.55582124 1.3726598
3.0344517 0.54450637 1.4260321
2.168381 0.56673992 1.2135775
2.4232776 0.56190628 1.2597333
2.7151859 0.55692178 1.3061935
3.0781713 0.5505923 1.3563
2.2106586 0.57129043 1.1738547
2.446187 0.56286931 1.2013019
2.7550898 0.56184125 1.2465152
3.0896294 0.55102903 1.2740655
2.2306917 0.57013792 1.1224414
2.4792154 0.5656876 1.1487168
2.7727904 0.56202137 1.1771636
3.1051288 0.55241513 1.1937733
2.2588108 0.5718838 1.0749304
2.5011251 0.56665421 1.0903044
2.7945318 0.56315082 1.1097542
3.1277094 0.55570346 1.117384
2.2838886 0.5726769 1.0254586
2.5220313 0.56662458 1.0318925
2.8233399 0.5672003 1.0452662
3.1432312 0.55807132 1.0381093
2.3089702 0.5744698 0.97600454
2.5520077 0.57050776 0.97638273
2.8360229 0.56741643 0.97500879
3.1527312 0.55947894 0.95792979
2.3330107 0.5753026 0.92455208
2.5708992 0.57150322 0.91702688
2.8557723 0.57055277 0.90767288
3.1652577 0.56285739 0.87872952
2.3590925 0.57709187 0.87507933
2.5867729 0.57252759 0.85672778
2.8583972 0.56985915 0.83458644
3.1737804 0.5652504 0.79958642
2.375093 0.57698983 0.82175988
2.6046648 0.57352668 0.7973907
2.8671184 0.57005352 0.76640362
3.1722789 0.56569767 0.71959549
2.3951154 0.57785505 0.76938283
2.6275823 0.57648933 0.73899549
2.8949113 0.57512462 0.70095283
3.1768062 0.56910485 0.64054555
2.4181454 0.58070916 0.71698558
2.6424372 0.57753527 0.67771554
2.9016035 0.57736188 0.63084424
3.1783454 0.57050502 0.56251568
2.4391532 0.58258873 0.66360819
2.6482525 0.57765001 0.61458731
2.897248 0.57667547 0.55888891
3.1678307 0.57200253 0.48171222
2.4581385 0.58349377 0.60925066
2.6671331 0.58066326 0.55426782
2.8979185 0.57795262 0.4878754
3.1643746 0.57442051 0.40379426
2.4791501 0.58637327 0.55589128
2.6779931 0.58272338 0.49308106
2.9076471 0.58014303 0.4197098
3.1699431 0.57878768 0.32674286
2.4880958 0.5863505 0.4997043
2.6898336 0.58479804 0.43087581
2.9073548 0.58138758 0.35071436
3.1525006 0.57923812 0.25005159
2.5070665 0.58827347 0.44436514
2.7036967 0.58784735 0.36965069
2.9140923 0.5855884 0.28264117
3.1450639 0.5816524 0.17320846
2.5250411 0.59119982 0.38906282
2.6974876 0.58602351 0.30571228
2.9228289 0.58978206 0.21453035
3.1356504 0.58505553 0.097420566
2.5309687 0.59120601 0.33193257
2.6471913 0.57441354 0.23942146
2.9094939 0.58910978 0.14374387
3.1162271 0.58549505 0.021766534
2.5388772 0.59122306 0.27376512
2.6781082 0.58236474 0.17996629
2.904207 0.59137207 0.074860424
2.9337974 0.55343485 -0.046420939
2.5057015 0.58244288 0.21320689
2.6999667 0.58940274 0.11766323
2.8899322 0.59164894 0.0071097296
2.9474964 0.56266391 -0.11753458
2.4505062 0.56774294 0.15295395
2.7037902 0.59152418 0.054608651
2.8506572 0.58599848 -0.059279658
2.7093108 0.51853526 -0.1698911
2.4694848 0.57166553 0.097650841
2.7146578 0.59558409 -0.0065421034
1.2566768 0.22963254 -0.027871713
2.7310874 0.52866316 -0.23713839
2.4584265 0.5697149 0.041803665
2.4834354 0.54243189 -0.059192322
1.2551191 0.23117861 -0.057824746
2.486232 0.48223442 -0.27140552
2.4433796 0.56576091 -0.013004711
1.2646079 0.25074497 -0.035640948
2.4193528 0.5014801 -0.21478604
2.5150568 0.49530056 -0.33673099
2.3412998 0.54008669 -0.064575411
1.1921051 0.23444037 -0.058586203
2.3943346 0.49954364 -0.26837081
2.3512907 0.46554199 -0.37021449
1.2305708 0.25893801 -0.038856555
1.1775942 0.23297937 -0.085350022
2.5010433 0.52948964 -0.34385261
2.2814255 0.45760515 -0.41406488
1.1400851 0.23666285 -0.059572376
2.3243353 0.51586443 -0.27076581
2.3273342 0.49469557 -0.37323964
2.3072844 0.46964598 -0.47735265
1.1196195 0.2321696 -0.083278522
2.4949601 0.56070495 -0.35417753
2.2564948 0.48372665 -0.41512597
2.3311286 0.48271197 -0.54158455
2.3771791 0.55495703 -0.28705359
2.3063202 0.5188753 -0.37841058
2.2993248 0.49874216 -0.48067844
2.4565244 0.51991421 -0.63529104
2.3931139 0.56194419 -0.34524524
2.2494447 0.50889218 -0.42254126
2.3271685 0.51179367 -0.54498541
2.4892144 0.53710991 -0.70861691
2.2603719 0.5300386 -0.37734801
2.2942781 0.52490032 -0.48811328
2.4246767 0.54297084 -0.63127637
2.4303215 0.53216934 -0.75461924
-0.02611593 -0.059798401 0.050936799
2.3101642 0.53394139 -0.54926789
2.4902384 0.56719172 -0.71309346
2.3833859 0.53123915 -0.80377394
2.2912264 0.54503429 -0.4946942
2.451479 0.57517606 -0.64820129
2.4154184 0.5562191 -0.75390494
-0.02611593 -0.059798401 0.050936799
2.295151 0.54906499 -0.55271441
2.4801953 0.58935046 -0.7195068
-0.02611593 -0.059798401 0.050936799
0.17754906 -0.008095677 -0.031969205
2.4663608 0.59831721 -0.65906507
2.4054239 0.57632393 -0.75735527
-0.02611593 -0.059798401 0.050936799
-0.02611593 -0.059798401 0.050936799
2.4652157 0.60343808 -0.72097194
-0.02611593 -0.059798401 0.050936799
0.17855673 -0.006099605 -0.03195196
0.15451489 -0.012994193 -0.032626774
2.4023523 0.5914588 -0.76402628
-0.02611593 -0.059798401 0.050936799
-0.02611593 -0.059798401 0.050936799
-0.02611593 -0.059798401 0.050936799
2.3564489 0.58447182 -0.81030893
0.17952695 -0.0040673581 -0.033934038
0.15750742 -0.0099873822 -0.033628758
0.13450678 -0.015921902 -0.032305021
-0.02611593 -0.059798401 0.050936799
-0.02611593 -0.059798401 0.050936799
-0.02611593 -0.059798401 0.050936799
-0.02611593 -0.059798401 0.050936799
0.17256176 -0.0050782408 -0.031821199
0.15947747 -0.0079587204 -0.035629619
0.1354918 -0.014907576 -0.033305459
0.11252861 -0.020878278 -0.029982403
-0.02611593 -0.059798401 0.050936799
-0.02611593 -0.059798401 0.050936799
-0.02611593 -0.059798401 0.050936799
-0.02611593 -0.059798401 0.050936799
0.14756148 -0.011005587 -0.030459885
0.13946147 -0.012886092 -0.0353439
0.11948294 -0.017849641 -0.033058863
0.10248907 -0.021806039 -0.03181183
-0.02611593 -0.059798401 0.050936799
-0.02611593 -0.059798401 0.050936799
-0.02611593 -0.059798401 0.050936799
-0.02611593 -0.059798401 0.050936799
0.12854531 -0.015936546 -0.030192956
0.11846833 -0.016828131 -0.034021705
0.1044739 -0.020795299 -0.032831062
0.088502489 -0.023773544 -0.030585144
-0.02611593 -0.059798401 0.050936799
-0.02611593 -0.059798401 0.050936799
-0.02611593 -0.059798401 0.050936799
-0.02611593 -0.059798401 0.050936799
0.11251774 -0.018860528 -0.030946024
0.10742504 -0.018752139 -0.035850383
0.095415458 -0.021708559 -0.035678949
0.080443874 -0.024690393 -0.033451814
-0.02611593 -0.059798401 0.050936799
-0.02611593 -0.059798401 0.050936799
-0.02611593 -0.059798401 0.050936799
-0.02611593 -0.059798401 0.050936799
0.099508338 -0.021813361 -0.030755799
0.092449524 -0.0227338 -0.033641264
0.083409801 -0.023665152 -0.0354895
0.065528445 -0.027726496 -0.028225712
-0.02611593 -0.059798401 0.050936799
-0.02611593 -0.059798401 0.050936799
-0.02611593 -0.059798401 0.050936799
-0.02611593 -0.059798401 0.050936799
0.089464866 -0.023740955 -0.03260326
0.083409801 -0.023665152 -0.0354895
0.072422676 -0.025643421 -0.034319177
0.059488162 -0.028668614 -0.030130308
-0.02611593 -0.059798401 0.050936799
-0.02611593 -0.059798401 0.050936799
-0.02611593 -0.059798401 0.050936799
-0.02611593 -0.059798401 0.050936799
0.077477925 -0.025715634 -0.031414144
0.074370079 -0.024596503 -0.037337724
0.067348704 -0.02555312 -0.03822387
0.05050461 -0.029654233 -0.028979555
-0.02611593 -0.059798401 0.050936799
-0.02611593 -0.059798401 0.050936799
-0.02611593 -0.059798401 0.050936799
-0.02611593 -0.059798401 0.050936799
0.062539868 -0.029733479 -0.027205713
0.065382592 -0.026581952 -0.036204983
0.058361221 -0.027538572 -0.037091129
0.045468077 -0.02960011 -0.030884922
-0.02611593 -0.059798401 0.050936799
-0.02611593 -0.059798401 0.050936799
-0.02611593 -0.059798401 0.050936799
-0.02611593 -0.059798401 0.050936799
0.055518489 -0.030690096 -0.028091867
0.055395287 -0.028563812 -0.035053458
0.046449177 -0.029585611 -0.031903379
0.040431555 -0.029545989 -0.032790285
-0.02611593 -0.059798401 0.050936799
-0.02611593 -0.059798401 0.050936799
-0.02611593 -0.059798401 0.050936799
-0.02611593 -0.059798401 0.050936799
0.049496934 -0.031650301 -0.028996799
0.051339857 -0.028495191 -0.037977275
0.04239374 -0.029516988 -0.034827199
0.036376115 -0.029477365 -0.035714116
-0.02611593 -0.059798401 0.050936799
-0.02611593 -0.059798401 0.050936799
-0.02611593 -0.059798401 0.050936799
-0.02611593 -0.059798401 0.050936799
0.04249429 -0.032625008 -0.028883282
0.038461499 -0.031574648 -0.03078942
0.036372185 -0.030477192 -0.035732135
0.028444611 -0.031520668 -0.031601183
-0.02611593 -0.059798401 0.050936799
-0.02611593 -0.059798401 0.050936799
-0.02611593 -0.059798401 0.050936799
-0.02611593 -0.059798401 0.050936799
0.035491645 -0.033599719 -0.028769769
0.036349531 -0.031458933 -0.03674981
0.030354558 -0.030437572 -0.036619052
0.023445524 -0.031502724 -0.031507228
-0.02611593 -0.059798401 0.050936799
-0.02611593 -0.059798401 0.050936799
-0.02611593 -0.059798401 0.050936799
-0.02611593 -0.059798401 0.050936799
0.031436205 -0.033531096 -0.031693593
0.029365608 -0.03245173 -0.035636637
0.024370452 -0.031433955 -0.035524666
0.020356389 -0.030401682 -0.036431145
-0.02611593 -0.059798401 0.050936799
-0.02611593 -0.059798401 0.050936799
-0.02611593 -0.059798401 0.050936799
-0.02611593 -0.059798401 0.050936799
0.026414474 -0.034494892 -0.032617312
0.024347804 -0.032415695 -0.036542341
0.019352641 -0.03139792 -0.03643037
-0.02611593 -0.059798401 0.050936799
-0.02611593 -0.059798401 0.050936799
-0.02611593 -0.059798401 0.050936799
-0.02611593 -0.059798401 0.050936799
-0.02611593 -0.059798401 0.050936799
-0.02611593 -0.059798401 0.050936799
0.017382603 -0.033426587 -0.034429509
0.015315932 -0.03134739 -0.038354535
-0.02611593 -0.059798401 0.050936799
-0.02611593 -0.059798401 0.050936799
-0.02611593 -0.059798401 0.050936799
-0.02611593 -0.059798401 0.050936799
-0.02611593 -0.059798401 0.050936799
-0.02611593 -0.059798401 0.050936799
0.01527456 -0.032311041 -0.040371872
-0.02611593 -0.059798401 0.050936799
-0.02611593 -0.059798401 0.050936799
-0.02611593 -0.059798401 0.050936799
-0.02611593 -0.059798401 0.050936799
-0.02611593 -0.059798401 0.050936799
-0.02611593 -0.059798401 0.050936799
-0.02611593 -0.059798401 0.050936799
-0.02611593 -0.059798401 0.050936799
-0.02611593 -0.059798401 0.050936799
-0.02611593 -0.059798401 0.050936799
-0.02611593 -0.059798401 0.050936799
-0.02611593 -0.059798401 0.050936799
-0.02611593 -0.059798401 0.050936799
-0.02611593 -0.059798401 0.050936799
-0.02611593 -0.059798401 0.050936799
-0.02611593 -0.059798401 0.050936799
-0.02611593 -0.059798401 0.050936799
-0.02611593 -0.059798401 0.050936799
-0.02611593 -0.059798401 0.050936799
-0.02611593 -0.059798401 0.050936799
-0.02611593 -0.059798401 0.050936799
-0.02611593 -0.059798401 0.050936799
-0.02611593 -0.059798401 0.050936799
-0.02611593 -0.059798401 0.050936799
-0.0017745716 -0.031195931 -0.043033391
-0.02611593 -0.059798401 0.050936799
-0.02611593 -0.059798401 0.050936799
-0.02611593 -0.059798401 0.050936799
-0.02611593 -0.059798401 0.050936799
-0.02611593 -0.059798401 0.050936799
-0.02611593 -0.059798401 0.050936799
-0.02611593 -0.059798401 0.050936799
-0.02611593 -0.059798401 0.050936799
-0.02611593 -0.059798401 0.050936799
-0.02611593 -0.059798401 0.050936799
-0.02611593 -0.059798401 0.050936799
-0.02611593 -0.059798401 0.050936799
-0.02611593 -0.059798401 0.050936799
-0.02611593 -0.059798401 0.050936799
-0.02611593 -0.059798401 0.050936799
-0.02611593 -0.059798401 0.050936799
-0.02611593 -0.059798401 0.050936799
-0.02611593 -0.059798401 0.050936799
-0.02611593 -0.059798401 0.050936799
-0.02611593 -0.059798401 0.050936799
-0.02611593 -0.059798401 0.050936799
-0.02611593 -0.059798401 0.050936799
-0.02611593 -0.059798401 0.050936799
-0.02611593 -0.059798401 0.050936799
-0.02611593 -0.059798401 0.050936799
-0.02611593 -0.059798401 0.050936799
-0.02611593 -0.059798401 0.050936799
-0.02611593 -0.059798401 0.050936799
-0.02611593 -0.059798401 0.050936799
-0.02611593 -0.059798401 0.050936799
-0.02611593 -0.059798401 0.050936799
-0.02611593 -0.059798401 0.050936799
-0.02611593 -0.059798401 0.050936799
-0.02611593 -0.059798401 0.050936799
-0.02611593 -0.059798401 0.050936799
-0.02611593 -0.059798401 0.050936799
-0.02611593 -0.059798401 0.050936799
-0.02611593 -0.059798401 0.050936799
-0.02611593 -0.059798401 0.050936799
-0.023785342 -0.030099059 -0.043601651
-0.02611593 -0.059798401 0.050936799
-0.02611593 -0.059798401 0.050936799
-0.02611593 -0.059798401 0.050936799
-0.02611593 -0.059798401 0.050936799
-0.02611593 -0.059798401 0.050936799
-0.02611593 -0.059798401 0.050936799
-0.02611593 -0.059798401 0.050936799
-0.02611593 -0.059798401 0.050936799
-0.02611593 -0.059798401 0.050936799
-0.02611593 -0.059798401 0.050936799
-0.02611593 -0.059798401 0.050936799
-0.02611593 -0.059798401 0.050936799
-0.02611593 -0.059798401 0.050936799
-0.02611593 -0.059798401 0.050936799
-0.02611593 -0.059798401 0.050936799
-0.02611593 -0.059798401 0.050936799
-0.02611593 -0.059798401 0.050936799
-0.02611593 -0.059798401 0.050936799
-0.02611593 -0.059798401 0.050936799
-0.02611593 -0.059798401 0.050936799
-0.02611593 -0.059798401 0.050936799
-0.02611593 -0.059798401 0.050936799
-0.02611593 -0.059798401 0.050936799
-0.02611593 -0.059798401 0.050936799
-0.02611593 -0.059798401 0.050936799
-0.02611593 -0.059798401 0.050936799
-0.02611593 -0.059798401 0.050936799
-0.02611593 -0.059798401 0.050936799
-0.02611593 -0.059798401 0.050936799
-0.02611593 -0.059798401 0.050936799
-0.02611593 -0.059798401 0.050936799
-0.02611593 -0.059798401 0.050936799
-0.02611593 -0.059798401 0.050936799
-0.02611593 -0.059798401 0.050936799
-0.02611593 -0.059798401 0.050936799
-0.02611593 -0.059798401 0.050936799
-0.02611593 -0.059798401 0.050936799
-0.02611593 -0.059798401 0.050936799
-0.02611593 -0.059798401 0.050936799
-0.02611593 -0.059798401 0.050936799
-0.02611593 -0.059798401 0.050936799
-0.02611593 -0.059798401 0.050936799
-0.02611593 -0.059798401 0.050936799
-0.02611593 -0.059798401 0.050936799
-0.02611593 -0.059798401 0.050936799
-0.02611593 -0.059798401 0.050936799
-0.02611593 -0.059798401 0.050936799
-0.02611593 -0.059798401 0.050936799
-0.02611593 -0.059798401 0.050936799
-0.02611593 -0.059798401 0.050936799
-0.02611593 -0.059798401 0.050936799
-0.02611593 -0.059798401 0.050936799
-0.02611593 -0.059798401 0.050936799
-0.02611593 -0.059798401 0.050936799
-0.02611593 -0.059798401 0.050936799
-0.053753275 -0.028009821 -0.042002231
-0.02611593 -0.059798401 0.050936799
-0.02611593 -0.059798401 0.050936799
-0.02611593 -0.059798401 0.050936799
-0.02611593 -0.059798401 0.050936799
-0.02611593 -0.059798401 0.050936799
-0.02611593 -0.059798401 0.050936799
-0.055708524 -0.031056399 -0.039019726
-0.02611593 -0.059798401 0.050936799
-0.02611593 -0.059798401 0.050936799
-0.02611593 -0.059798401 0.050936799
-0.02611593 -0.059798401 0.050936799
-0.02611593 -0.059798401 0.050936799
-0.02611593 -0.059798401 0.050936799
-0.02611593 -0.059798401 0.050936799
-0.02611593 -0.059798401 0.050936799
-0.02611593 -0.059798401 0.050936799
-0.02611593 -0.059798401 0.050936799
-0.02611593 -0.059798401 0.050936799
-0.02611593 -0.059798401 0.050936799
-0.02611593 -0.059798401 0.050936799
-0.02611593 -0.059798401 0.050936799
-0.02611593 -0.059798401 0.050936799
-0.064684227 -0.030042354 -0.037832934
-0.065672256 -0.027039278 -0.037760086
-0.02611593 -0.059798401 0.050936799
-0.02611593 -0.059798401 0.050936799
-0.02611593 -0.059798401 0.050936799
-0.02611593 -0.059798401 0.050936799
-0.02611593 -0.059798401 0.050936799
-0.02611593 -0.059798401 0.050936799
-0.02611593 -0.059798401 0.050936799
-0.071667239 -0.026017915 -0.037629325
-0.069570065 -0.025115706 -0.032650586
-0.02611593 -0.059798401 0.050936799
-0.02611593 -0.059798401 0.050936799
-0.02611593 -0.059798401 0.050936799
-0.02611593 -0.059798401 0.050936799
-0.02611593 -0.059798401 0.050936799
-0.073607683 -0.030082412 -0.033665176
-0.076681115 -0.024982052 -0.038517017
-0.073546678 -0.02411961 -0.031557739
-0.02611593 -0.059798401 0.050936799
-0.02611593 -0.059798401 0.050936799
-0.02611593 -0.059798401 0.050936799
-0.02611593 -0.059798401 0.050936799
-0.02611593 -0.059798401 0.050936799
-0.079636179 -0.028025042 -0.035515711
-0.080624215 -0.025021961 -0.035442866
-0.079560384 -0.023080159 -0.03242664
-0.02611593 -0.059798401 0.050936799
-0.02611593 -0.059798401 0.050936799
-0.02611593 -0.059798401 0.050936799
-0.02611593 -0.059798401 0.050936799
-0.081557915 -0.032107629 -0.030551892
-0.084593892 -0.027043445 -0.033404421
-0.088667139 -0.021939496 -0.038237471
-0.083518274 -0.022102151 -0.030334126
-0.02611593 -0.059798401 0.050936799
-0.02611593 -0.059798401 0.050936799
-0.02611593 -0.059798401 0.050936799
-0.02611593 -0.059798401 0.050936799
-0.085497081 -0.031147709 -0.027459733
-0.093674071 -0.023921208 -0.038179558
-0.092610233 -0.021979406 -0.035163324
-0.090546586 -0.020041194 -0.032165892
-0.02611593 -0.059798401 0.050936799
-0.02611593 -0.059798401 0.050936799
-0.02611593 -0.059798401 0.050936799
-0.02611593 -0.059798401 0.050936799
-0.093525209 -0.029083163 -0.029272702
-0.097617179 -0.023961119 -0.035105411
-0.097586669 -0.020979721 -0.034051694
-0.093489863 -0.020084694 -0.029110536
-0.02611593 -0.059798401 0.050936799
-0.02611593 -0.059798401 0.050936799
-0.02611593 -0.059798401 0.050936799
-0.02611593 -0.059798401 0.050936799
-0.10052 -0.02805821 -0.02912315
-0.10461196 -0.022936171 -0.034955855
-0.10661462 -0.018911581 -0.035845868
-0.10253261 -0.016998634 -0.031886347
-0.02611593 -0.059798401 0.050936799
-0.02611593 -0.059798401 0.050936799
-0.02611593 -0.059798401 0.050936799
-0.02611593 -0.059798401 0.050936799
-0.10954795 -0.025990071 -0.030917313
-0.11258392 -0.020925887 -0.033769835
-0.11258693 -0.016908478 -0.034697421
-0.1064905 -0.016020626 -0.029793832
-0.02611593 -0.059798401 0.050936799
-0.02611593 -0.059798401 0.050936799
-0.02611593 -0.059798401 0.050936799
-0.02611593 -0.059798401 0.050936799
-0.11652009 -0.023983374 -0.029750079
-0.12158921 -0.017876009 -0.034546323
-0.12057762 -0.014880106 -0.034511063
-0.11651433 -0.012949067 -0.031551208
-0.02611593 -0.059798401 0.050936799
-0.02611593 -0.059798401 0.050936799
-0.02611593 -0.059798401 0.050936799
-0.02611593 -0.059798401 0.050936799
-0.12854356 -0.020904642 -0.031469867
-0.13057971 -0.015844047 -0.034341171
-0.12956811 -0.012848144 -0.034305908
-0.12247186 -0.011963885 -0.02942111
-0.02611593 -0.059798401 0.050936799
-0.02611593 -0.059798401 0.050936799
-0.02611593 -0.059798401 0.050936799
-0.02611593 -0.059798401 0.050936799
-0.13649678 -0.018912449 -0.029284175
-0.13955149 -0.013830178 -0.033136364
-0.14056912 -0.0087912623 -0.035026807
-0.13247696 -0.0089104185 -0.030178819
-0.02611593 -0.059798401 0.050936799
-0.02611593 -0.059798401 0.050936799
-0.02611593 -0.059798401 0.050936799
-0.02611593 -0.059798401 0.050936799
-0.14544985 -0.016916666 -0.027079701
-0.15153359 -0.0097877895 -0.032838803
-0.14447476 -0.0088673523 -0.029953331
-0.14146353 -0.0058786264 -0.029955648
-0.02611593 -0.059798401 0.050936799
-0.02611593 -0.059798401 0.050936799
-0.02611593 -0.059798401 0.050936799
-0.02611593 -0.059798401 0.050936799
-0.15540272 -0.014917296 -0.024856444
-0.15947202 -0.0088135181 -0.029671475
-0.15545705 -0.0048285513 -0.029674564
-0.1514312 -0.0028613382 -0.02871402
-0.02611593 -0.059798401 0.050936799
-0.02611593 -0.059798401 0.050936799
-0.02611593 -0.059798401 0.050936799
-0.02611593 -0.059798401 0.050936799
-0.16333725 -0.012943191 -0.021671094
-0.1714354 -0.0047892174 -0.028374247
-0.16842417 -0.0018004924 -0.028376561
-0.16138014 0.000137861 -0.026472744
-0.02611593 -0.059798401 0.050936799
-0.02611593 -0.059798401 0.050936799
-0.02611593 -0.059798401 0.050936799
-0.02611593 -0.059798401 0.050936799
-0.19037575 -0.0047752955 -0.025018249
-0.1964743 0.0033714995 -0.031758986
-0.18743064 0.0053026825 -0.029892746
-0.17334351 0.0041621616 -0.025175519
-0.02611593 -0.059798401 0.050936799
-0.02611593 -0.059798401 0.050936799
-0.02611593 -0.059798401 0.050936799
-0.02611593 -0.059798401 0.050936799
-0.2214057 0.0054066163 -0.028254203
-0.22045721 0.011474361 -0.032163527
-0.20640361 0.011369849 -0.029427614
-0.19939311 0.014344218 -0.029505093
-0.02611593 -0.059798401 0.050936799
-0.02611593 -0.059798401 0.050936799
-0.02611593 -0.059798401 0.050936799
-0.02611593 -0.059798401 0.050936799
-0.24635491 0.012477057 -0.026658639
-0.2444066 0.018541211 -0.030586764
-0.22937191 0.018451199 -0.028869301
-0.21936588 0.020414982 -0.029021174
-0.02611593 -0.059798401 0.050936799
-0.02611593 -0.059798401 0.050936799
-0.02611593 -0.059798401 0.050936799
-0.02611593 -0.059798401 0.050936799
-0.95845652 0.24496277 -0.22918941
-0.27033296 0.026596989 -0.027954742
-0.25934193 0.029575087 -0.029107042
-0.2413117 0.028474486 -0.027463965
-0.97206372 0.24865055 -0.20886105
-0.02611593 -0.059798401 0.050936799
-0.02611593 -0.059798401 0.050936799
-0.02611593 -0.059798401 0.050936799
-0.97762823 0.24925584 -0.18573806
-0.97796059 0.27466768 -0.20827982
-0.9641881 0.29390359 -0.22419512
-0.26120564 0.035472713 -0.022963382
-0.99223524 0.25294724 -0.16539092
-0.99156791 0.27835548 -0.18795148
-0.97280413 0.2955738 -0.20399675
-0.02611593 -0.059798401 0.050936799
-1.0108337 0.2586526 -0.14493257
-0.99815071 0.27898243 -0.16580936
-0.98543423 0.29827625 -0.18470484
-0.97773165 0.31860593 -0.20448804
-1.0163941 0.26025778 -0.12179159
-1.0137538 0.28367725 -0.14542541
-0.99503136 0.29993191 -0.16348802
-0.98133773 0.31824043 -0.18342
-1.02595 0.26287711 -0.098557428
-1.0243467 0.28633633 -0.12417177
-1.0106571 0.30364498 -0.14412174
-0.99296796 0.32093927 -0.16414687
-1.03852 0.26652512 -0.076248527
-1.0369166 0.28998435 -0.10186289
-1.0222459 0.30730751 -0.1228313
-1.006598 0.32364532 -0.1448362
-1.0590767 0.27320135 -0.053735249
-1.0505054 0.29365405 -0.080534853
-1.0318429 0.30896315 -0.10161449
-1.0232195 0.32836181 -0.12543312
-1.0646145 0.27578825 -0.029576592
-1.0730578 0.30133727 -0.057965994
-1.0484459 0.31366158 -0.081211723
-1.0358309 0.33104613 -0.10514156
-1.0811572 0.28143215 -0.006156832
-1.0766224 0.3019354 -0.034880593
-1.0660259 0.3193453 -0.059772491
-1.041414 0.33166954 -0.083018243
-1.0766711 0.28094751 0.019759189
-1.0841599 0.30452949 -0.010684349
-1.0725859 0.32095399 -0.036612727
-1.0550025 0.33533925 -0.061690226
-1.1071917 0.29164085 0.0435321
-1.0887017 0.30611295 0.01343751
-1.0841562 0.32459843 -0.014322624
-1.0695908 0.33901253 -0.040343404
-1.1196789 0.29721615 0.06987568
-1.1032261 0.31173164 0.037819345
-1.0837069 0.3241643 0.0096692368
-1.0841564 0.34366757 -0.017978914
-1.1491622 0.30786973 0.095629126
-1.115736 0.31632522 0.063145235
-1.09424 0.32776895 0.033939879
-1.0897396 0.34429094 0.0041443855
-0.02611593 -0.059798401 0.050936799
-1.1392468 0.32497567 0.087750249
-1.1237605 0.33845869 0.057694003
-1.1062824 0.34993488 0.027564146
-1.2089895 0.3310535 0.15418848
-1.159721 0.33357918 0.11429821
-1.1273214 0.34005666 0.080797404
-1.1278163 0.35759643 0.051113889
-0.02611593 -0.059798401 0.050936799
-1.1711936 0.33813301 0.14160463
-1.1577855 0.35069576 0.10756931
-0.02611593 -0.059798401 0.050936799
-1.2368207 0.34508774 0.21398368
-0.02611593 -0.059798401 0.050936799
-1.1672775 0.35526046 0.1338385
-1.1518817 0.36481655 0.099711537
-1.2432568 0.34958744 0.24319547
-1.2210307 0.35928121 0.19994004
-1.1887325 0.36384949 0.16140491
-0.02611593 -0.059798401 0.050936799
-0.02611593 -0.059798401 0.050936799
-1.2284667 0.36378449 0.22917062
-0.02611593 -0.059798401 0.050936799
-1.1908417 0.37901688 0.1527158
-0.02611593 -0.059798401 0.050936799
-1.2637646 0.37829611 0.26410586
-1.2335637 0.38196215 0.22059196
-0.02611593 -0.059798401 0.050936799
-1.2873075 0.37497523 0.34251311
-1.2791498 0.38579142 0.29554015
-1.2599349 0.39249644 0.25228703
-1.238691 0.39715847 0.21095958
-1.2996559 0.38242355 0.37589037
-1.2994661 0.39624989 0.3301214
-1.2862651 0.40399438 0.28599939
-1.2162545 0.3896285 0.23541158
-1.3437641 0.40180385 0.42008173
-1.3356851 0.41169256 0.36909208
-1.3105806 0.41446719 0.32065582
-1.2744792 0.41218507 0.27292246
-1.9976419 0.63920295 0.65369761
-1.3251253 0.41111401 0.39889401
-1.3199524 0.42092305 0.35295901
-1.2540385 0.40566212 0.29743007
-1.9748409 0.6383462 0.69626963
-1.7666023 0.57598752 0.55919635
-1.3511801 0.43434814 0.39179972
-0.02611593 -0.059798401 0.050936799
-1.9550354 0.63849998 0.73891604
-1.9266284 0.6409297 0.65339917
-1.3535646 0.43777937 0.42391729
-0.02611593 -0.059798401 0.050936799
-1.9233038 0.63466567 0.77826595
-1.9048723 0.63811302 0.69395465
-1.8852538 0.6413759 0.61962116
-1.3488189 0.44503149 0.40895456
-1.8936055 0.63187456 0.8156721
-1.8851082 0.63730317 0.73458368
-1.8764424 0.64256901 0.66249228
-1.8528255 0.6408003 0.58899319
-1.8668615 0.63105774 0.85517001
-1.8653628 0.63651145 0.77421308
-1.854728 0.6387887 0.70103037
-1.8370911 0.63702345 0.62864375
-1.8421317 0.63126594 0.89372379
-1.8435991 0.63569444 0.81480461
-1.8359861 0.63700074 0.74066061
-1.834252 0.64021963 0.67266333
-1.8163834 0.63145244 0.93325853
-1.8258307 0.63589156 0.85548931
-1.8182404 0.6362161 0.78032762
-1.8155369 0.63645005 0.71125782
-1.7906766 0.63067532 0.97077584
-1.8021234 0.63512164 0.89304423
-1.7955446 0.63245034 0.81784725
-1.8057483 0.63665789 0.75309247
-1.7629848 0.63090891 1.007274
-1.7754204 0.63334113 0.93052483
-1.7837486 0.63465059 0.85968041
-1.7910057 0.63488424 0.79279786
-1.7323389 0.62916833 1.0416803
-1.7546902 0.6335637 0.96915382
-1.7620448 0.63288796 0.89725494
-1.7792175 0.63508487 0.83459491
-1.6997309 0.62745672 1.0740498
-1.7240708 0.62984151 1.0025245
-1.7353874 0.62914401 0.9327001
-1.7585176 0.63232601 0.87217021
-1.6651645 0.62477428 1.1043645
-1.6954433 0.6281262 1.0359688
-1.7186335 0.63036269 0.97242188
-1.7457482 0.63254112 0.91294885
-1.6335524 0.62406611 1.1367708
-1.66482 0.62540382 1.0693575
-1.6989068 0.62958902 1.0110517
-1.7230525 0.62877536 0.95046848
-1.5950695 0.61944205 1.1629755
-1.6401504 0.62466651 1.1048944
-1.6752183 0.62883717 1.0476069
-1.7171727 0.63292444 0.99644911
-1.5684072 0.62171501 1.1975291
-1.6066027 0.6220057 1.134228
-1.6505526 0.62709999 1.0831258
-1.695469 0.63116187 1.0340235
-1.5309203 0.61809438 1.2237707
-1.5760128 0.62031937 1.1656353
-1.62391 0.62437385 1.1175894
-1.6757421 0.6303882 1.0726533
-1.4964249 0.61648411 1.2501047
-1.5503583 0.62059635 1.2001719
-1.5962824 0.62266213 1.1510524
-1.6471264 0.62567335 1.1060436
-1.4629067 0.61585915 1.2774751
-1.5080004 0.61306697 1.2202494
-1.5706542 0.62095749 1.1845531
-1.6254188 0.62491065 1.1436361
-1.4254533 0.61327446 1.3017353
-1.4793837 0.61336935 1.25273
-1.5381101 0.61730057 1.2138876
-1.5987574 0.62216634 1.1790993
-1.3919537 0.61266762 1.328106
-1.4488274 0.612719 1.2821562
-1.504585 0.61365807 1.2422037
-1.573092 0.62042564 1.2145993
-1.3555377 0.61012274 1.3503858
-1.4192524 0.61205417 1.3126009
-1.485805 0.61685115 1.2829236
-1.5474265 0.61868495 1.2500994
-1.3200947 0.60956305 1.37372
-1.3916502 0.61337811 1.3441187
-1.457211 0.61617184 1.3143866
-1.5237379 0.61793309 1.2866547
-1.2866139 0.60897428 1.3990911
-1.3552194 0.60981524 1.3673801
-1.4197654 0.61158741 1.3386108
-1.501985 0.61913371 1.3262825
-1.2541479 0.60940701 1.4234993
-1.3227385 0.6092301 1.3927699
-1.3941108 0.61186445 1.3731472
-1.4704033 0.61544424 1.357635
-1.2158257 0.60694534 1.4407432
-1.2912011 0.60859424 1.4211775
-1.3615963 0.61024326 1.4005184
-1.4457111 0.61568862 1.3941896
-1.1833367 0.60835987 1.4661691
-1.2538227 0.6060819 1.4414393
-1.3271049 0.60763317 1.4268343
-1.4131256 0.61299521 1.4255414
-1.1459918 0.60688359 1.4844494
-1.2223002 0.60646403 1.4688652
-1.2935907 0.60600841 1.4541868
-1.3834944 0.61227614 1.458985
-1.1106237 0.6063962 1.5037849
-1.1907964 0.60686421 1.4952915
-1.2649701 0.60731065 1.4866855
-1.352882 0.61157149 1.49141
-1.0752558 0.60590881 1.5231205
-1.1553721 0.60632253 1.517626
-1.2305161 0.60473675 1.5110021
-1.3173759 0.6079399 1.5186889
-1.0360086 0.60351586 1.5363468
-1.1199893 0.60481715 1.5379432
-1.1979977 0.60411543 1.5383912
-1.2838243 0.60627902 1.5480405
-0.99582165 0.60017389 1.5465375
-1.084565 0.60427552 1.5602778
-1.1644983 0.60350859 1.564762
