# .PCD v0.7 - Point Cloud Data file format
VERSION 0.7
FIELDS x y z
SIZE 4 4 4
TYPE F F F
COUNT 1 1 1
WIDTH 1395
HEIGHT 1
VIEWPOINT 0 0 0 1 0 0 0
POINTS 1395
DATA ascii
-0.02611593 -0.059798401 0.050936799
-0.096450947 -0.015092864 -0.027964406
-0.02611593 -0.059798401 0.050936799
-0.02611593 -0.059798401 0.050936799
-0.1095304 -0.011956274 -0.032664381
-0.02611593 -0.059798401 0.050936799
-0.094451316 -0.01510004 -0.028001986
-0.11242537 -0.014053703 -0.026646078
-0.02611593 -0.059798401 0.050936799
-0.10242721 -0.014089592 -0.026833981
-0.02611593 -0.059798401 0.050936799
-0.02611593 -0.059798401 0.050936799
-0.11345479 -0.012014274 -0.028590575
-0.02611593 -0.059798401 0.050936799
-0.098409213 -0.014122037 -0.025909487
-0.12647414 -0.0079321181 -0.030273542
-0.02611593 -0.059798401 0.050936799
-0.10941807 -0.012064808 -0.02666641
-0.02611593 -0.059798401 0.050936799
-0.02611593 -0.059798401 0.050936799
-0.11637934 -0.012075864 -0.024535559
-0.02611593 -0.059798401 0.050936799
-0.10438939 -0.014118592 -0.024797082
-0.1344461 -0.0059218379 -0.029087514
-0.02611593 -0.059798401 0.050936799
-0.11742748 -0.010018347 -0.027479712
-0.02611593 -0.059798401 0.050936799
-0.02611593 -0.059798401 0.050936799
-0.12839888 -0.0079972968 -0.026237316
-0.02611593 -0.059798401 0.050936799
-0.11441322 -0.011047034 -0.026554439
-0.14544709 -0.0018649483 -0.02980841
-0.02611593 -0.059798401 0.050936799
-0.12641796 -0.0079863854 -0.027274556
-0.02611593 -0.059798401 0.050936799
-0.02611593 -0.059798401 0.050936799
-0.13738544 -0.0049655079 -0.026014149
-0.02611593 -0.059798401 0.050936799
-0.12443706 -0.007975474 -0.028311804
-0.158429 0.0021810229 -0.029492062
-0.02611593 -0.059798401 0.050936799
-0.13538581 -0.0049726856 -0.02605173
-0.02611593 -0.059798401 0.050936799
-0.02611593 -0.059798401 0.050936799
-0.15240051 0.00012364995 -0.027641524
-0.02611593 -0.059798401 0.050936799
-0.13240509 -0.0049653635 -0.02710776
-0.16937776 0.005183815 -0.027231991
-0.02611593 -0.059798401 0.050936799
-0.14435759 -0.0029588169 -0.024846915
-0.02611593 -0.059798401 0.050936799
-0.02611593 -0.059798401 0.050936799
-0.16236818 0.003140942 -0.026399896
-0.02611593 -0.059798401 0.050936799
-0.14137685 -0.0029514944 -0.025902949
-0.18636981 0.011261892 -0.027804092
-0.02611593 -0.059798401 0.050936799
-0.1573543 0.0021050775 -0.025512207
-0.02611593 -0.059798401 0.050936799
-0.02611593 -0.059798401 0.050936799
-0.17632724 0.0081722513 -0.025047075
-0.02611593 -0.059798401 0.050936799
-0.15236306 8.7471679e-05 -0.025642198
-0.20735328 0.019353993 -0.028265007
-0.02611593 -0.059798401 0.050936799
-0.16830307 0.0051078694 -0.023252137
-0.02611593 -0.059798401 0.050936799
-0.02611593 -0.059798401 0.050936799
-0.19932908 0.016289612 -0.026470073
-0.02611593 -0.059798401 0.050936799
-0.16231595 0.0020868441 -0.023418933
-0.2292991 0.027413499 -0.026707802
-0.02611593 -0.059798401 0.050936799
-0.18729474 0.011193125 -0.023786664
-0.02611593 -0.059798401 0.050936799
-0.02611593 -0.059798401 0.050936799
-0.22231215 0.024388883 -0.026893392
-0.02611593 -0.059798401 0.050936799
-0.18230352 0.009175526 -0.023916654
-0.26025024 0.038522884 -0.025927093
-0.02611593 -0.059798401 0.050936799
-0.21331079 0.02033918 -0.026134931
-0.02611593 -0.059798401 0.050936799
-0.02611593 -0.059798401 0.050936799
-0.25328201 0.035516359 -0.02711235
-0.02611593 -0.059798401 0.050936799
-0.20734242 0.017336242 -0.027301379
-0.96486622 0.33273777 -0.21447664
-0.02611593 -0.059798401 0.050936799
-0.2402705 0.029434541 -0.025465418
-0.02611593 -0.059798401 0.050936799
-0.97649658 0.33543664 -0.19520354
-0.95909292 0.32791606 -0.22567576
-0.02611593 -0.059798401 0.050936799
-0.2333023 0.026428025 -0.02665066
-0.9820835 0.33506021 -0.17309827
-0.97170818 0.3296006 -0.20540221
-0.25615436 0.034400672 -0.020076364
-0.02611593 -0.059798401 0.050936799
-0.99772388 0.33979118 -0.15471363
-0.97933233 0.32926756 -0.18525869
-0.02611593 -0.059798401 0.050936799
-0.26627177 0.037562676 -0.026832037
-1.0033109 0.33941472 -0.13260835
-0.99294347 0.33195549 -0.16494834
-0.97957659 0.32448545 -0.19734469
-0.02611593 -0.059798401 0.050936799
-1.0209283 0.34513465 -0.11316845
-0.99854922 0.33159715 -0.14384271
-0.98616737 0.32311279 -0.17523865
-0.96881294 0.3126289 -0.20776424
-1.0385458 0.35085458 -0.09372855
-1.019181 0.33834574 -0.12532809
-1.0007972 0.32582241 -0.15590917
-0.98544621 0.3143459 -0.1884152
-1.0451247 0.35248134 -0.071568429
-1.0287632 0.33898345 -0.10312963
-1.0063881 0.32444617 -0.1338219
-0.99103725 0.31296962 -0.16632794
-1.0587093 0.35715091 -0.050222389
-1.0423517 0.34265316 -0.081801593
-1.0259904 0.3291553 -0.11336279
-0.99763185 0.31059715 -0.14423989
-1.0692649 0.35977381 -0.026969425
-1.0559442 0.34532303 -0.060491577
-1.0365912 0.32981476 -0.09214519
-1.0162382 0.31430289 -0.12381758
-1.0798353 0.36341465 -0.0046981052
-1.0665187 0.34796405 -0.038238287
-1.0461696 0.33145231 -0.069928706
-1.0338488 0.31700519 -0.10343207
-1.095397 0.36907309 0.017703194
-1.0800884 0.35161564 -0.015910603
-1.0627389 0.33511469 -0.047544643
-1.0374026 0.31558552 -0.079383068
-1.1039529 0.37168881 0.040918566
-1.0876298 0.35320988 0.0082676187
-1.0822997 0.34078753 -0.025068179
-1.0479848 0.31622693 -0.057165802
-1.1204729 0.37831452 0.065356001
-1.1001811 0.35683981 0.031576179
-1.0868534 0.33937147 -0.001000382
-1.0685494 0.32090345 -0.034688562
-1.1559806 0.39202529 0.089276925
-1.1297017 0.36752957 0.055330306
-1.0924177 0.33997679 0.022122588
-1.0861036 0.32355148 -0.01130408
-0.02611593 -0.059798401 0.050936799
-1.1282604 0.36509219 0.079267338
-1.1109452 0.34461001 0.046561569
-1.0896388 0.32211381 0.013744593
-1.1809592 0.40217608 0.14194606
-1.1567252 0.37572408 0.10600166
-1.1254587 0.34821096 0.071907021
-1.0901784 0.31966552 0.038718875
-0.02611593 -0.059798401 0.050936799
-0.02611593 -0.059798401 0.050936799
-1.1359956 0.35081577 0.096159644
-1.1107055 0.32430589 0.063195437
-1.2248425 0.4213393 0.19813335
-1.1896756 0.38788518 0.15985683
-1.167441 0.36144033 0.12394999
-1.1501791 0.33699501 0.089172825
-1.232316 0.42587873 0.22536464
-0.02611593 -0.059798401 0.050936799
-1.1689352 0.36095911 0.15097842
-0.02611593 -0.059798401 0.050936799
-1.2596834 0.43741643 0.25709647
-1.2335334 0.40401271 0.2179894
-1.1963705 0.36955157 0.17965724
-1.1920984 0.34715259 0.14516038
-1.2382654 0.4299081 0.28056762
-1.2579089 0.41353995 0.24962883
-1.2187732 0.3770901 0.21022339
-0.02611593 -0.059798401 0.050936799
-0.02611593 -0.059798401 0.050936799
-1.2712988 0.42002824 0.28100753
-1.2640615 0.39363724 0.24538256
-0.02611593 -0.059798401 0.050936799
-1.2948717 0.45688149 0.35013893
-1.2926601 0.42852682 0.31357223
-1.2595457 0.39111671 0.27326187
-1.2224133 0.3536742 0.23387599
-1.3291098 0.47233504 0.38807237
-1.3040352 0.43399 0.34589499
-1.2948102 0.40459234 0.3101784
-1.2766399 0.37119925 0.27222127
-1.3603295 0.48775983 0.42694905
-1.3153917 0.43943512 0.37921739
-1.2862804 0.40103957 0.33896419
-1.2681103 0.36764646 0.30100706
-1.7410619 0.6476323 0.57401919
-1.3535501 0.45583057 0.42124265
-1.3294568 0.41747102 0.38008374
-0.02611593 -0.059798401 0.050936799
-1.7283566 0.64590204 0.61176276
-1.8246957 0.64157301 0.59548271
-1.3338262 0.41989154 0.41322055
-1.3276124 0.38750514 0.37750626
-1.7156659 0.64518964 0.64852476
-1.825837 0.6447655 0.64057714
-1.9499938 0.64739108 0.63294655
-1.3349251 0.38988215 0.41369843
-1.7039753 0.64448088 0.68530548
-1.8081218 0.64099956 0.67919046
-1.9441334 0.64654106 0.67883706
-2.0862343 0.64817721 0.67452574
-1.6893077 0.64277965 0.72101229
-1.8003328 0.64121449 0.72106266
-1.9313009 0.64368433 0.72356027
-2.0802617 0.64721864 0.72641408
-1.6746364 0.64207822 0.75673699
-1.7885672 0.64043337 0.76184207
-1.9313676 0.64680088 0.77263445
-2.0792656 0.64725971 0.77941418
-1.658969 0.64037335 0.79242492
-1.7797557 0.64162648 0.80471319
-1.9175127 0.64492232 0.81835663
-2.0722706 0.64727926 0.8323015
-1.6462744 0.64066076 0.82920492
-1.7590824 0.63688606 0.8412528
-1.9006997 0.64206928 0.86200505
-2.0583258 0.64431047 0.88300389
-1.6246684 0.63798881 0.86176306
-1.7462943 0.63708311 0.88303107
-1.8858637 0.6402052 0.90670872
-2.0443625 0.64132345 0.93470597
-1.6070201 0.63629484 0.89641374
-1.7335249 0.63729823 0.92380971
-1.8700091 0.63831949 0.95239317
-2.0363448 0.64232123 0.98859215
-1.5943257 0.63658226 0.93319374
-1.7128249 0.63453943 0.96138501
-1.8601042 0.63941848 1.0002439
-2.0253358 0.64130855 1.0423858
-1.5737154 0.63491374 0.96578878
-1.696079 0.63375843 1.0010707
-1.8402917 0.63655478 1.0438359
-2.0054069 0.63933593 1.0919939
-1.5540862 0.63323069 0.99940217
-1.6763749 0.63200301 1.0386828
-1.8214753 0.6346944 1.0874648
-1.9993291 0.64128649 1.1489347
-1.5364488 0.63355458 1.0330892
-1.6576294 0.63121486 1.0783311
-1.8055902 0.63579005 1.134203
-1.9793814 0.63929594 1.1995424
-1.5118846 0.62990814 1.0635737
-1.6389024 0.63044482 1.1169797
-1.7867548 0.63391161 1.1788316
-1.9436065 0.63239348 1.2417619
-1.4922477 0.6302247 1.0972233
-1.6181947 0.62968558 1.154591
-1.7629579 0.63205135 1.2213668
-1.9344876 0.63529682 1.3006638
-1.4706563 0.62857074 1.1287997
-1.5866208 0.62399644 1.1859076
-1.7332448 0.62824237 1.2597545
-1.9135177 0.63428444 1.3522704
-1.4510005 0.62886924 1.1634488
-1.5639321 0.62324816 1.2224815
-1.7124246 0.62737465 1.3033638
-1.8866129 0.6313051 1.4007292
-1.4234929 0.62526631 1.1908779
-1.5451825 0.62345982 1.2621478
-1.6826928 0.62354755 1.3427513
-1.8616811 0.63031453 1.4502612
-1.3999166 0.624623 1.2214353
-1.5185359 0.62173361 1.2966294
-1.6657627 0.62660301 1.3915062
-1.8347538 0.62831694 1.4997376
-1.3773404 0.62398332 1.2520114
-1.4938662 0.62099624 1.3321663
-1.6350496 0.6227904 1.4298751
-1.8048642 0.62634474 1.5471586
-1.3547266 0.62330741 1.2845868
-1.4652613 0.61829907 1.3645929
-1.6023893 0.62002474 1.4652255
-1.7720166 0.62339813 1.5925057
-1.3272151 0.62070441 1.3120339
-1.4376149 0.61656922 1.3990557
-1.5854031 0.62302601 1.5169795
-1.7597516 0.63016343 1.6584207
-1.2967644 0.61714494 1.3364077
-1.4119456 0.61582834 1.4345737
-1.5517242 0.6202386 1.5533106
-1.720988 0.62526798 1.6996204
-1.2751237 0.61845428 1.3700376
-1.3852723 0.61608362 1.470091
-1.5160871 0.61648041 1.5875871
-1.6753606 0.61947423 1.7336729
-1.2486081 0.61685455 1.3975215
-1.3527471 0.61244476 1.4984256
-1.4843626 0.61566371 1.6259913
-1.6346306 0.61560756 1.7728536
-1.2201117 0.61526585 1.4239683
-1.3241156 0.61172926 1.5318881
-1.4496838 0.61287266 1.6623039
-1.5968175 0.61367905 1.8161255
-1.1935548 0.61462992 1.4534695
-1.2954655 0.61099565 1.56635
-1.4062059 0.60723084 1.6883967
-1.5638833 0.61365962 1.8655251
-1.1689709 0.61598265 1.4840442
-1.2648718 0.61030912 1.5977755
-1.3764209 0.6073668 1.7298557
-1.5202103 0.60983652 1.9016505
-1.1394746 0.61439031 1.5104719
-1.2332596 0.60960096 1.6301818
-1.3456095 0.6094808 1.7723312
-1.4784541 0.60794783 1.9418483
-1.1119367 0.61376888 1.5389547
-1.200685 0.60892534 1.66057
-1.3070065 0.60674787 1.8045701
-1.441558 0.60795021 1.9891735
-1.080497 0.61222363 1.5623461
-1.1661522 0.60727888 1.6889033
-1.2732785 0.60692376 1.8429549
-1.3988167 0.60707593 2.0283709
-1.0499969 0.61162758 1.5887733
-1.1306384 0.60564691 1.716218
-1.2326906 0.6052016 1.8741744
-1.3541173 0.60523075 2.0655131
-1.0195343 0.61106765 1.613201
-1.0980637 0.60497129 1.7466062
-1.190167 0.60152674 1.9023212
-1.3093991 0.60336757 2.1036551
-0.9870947 0.60951889 1.6365736
-1.0596106 0.60238302 1.7708477
-1.1495941 0.60082239 1.9325591
-1.2656355 0.6034714 2.143851
-0.95561761 0.60793751 1.6619642
-1.0250739 0.60173643 1.7991991
-1.1099646 0.60006738 1.9658146
-1.2131363 0.59877902 2.1707926
-0.9231928 0.60740662 1.6843551
-0.98853749 0.60108268 1.8275127
-1.0683956 0.59835964 1.9960157
-1.1635354 0.59600651 2.2028246
-0.88687414 0.60395229 1.7016187
-0.95108014 0.59949785 1.851791
-1.0258229 0.59764814 2.026216
-1.1168283 0.59615386 2.2399652
-0.85538912 0.60437053 1.7270453
-0.91451716 0.60082555 1.8811405
-0.98131055 0.59598398 2.0533619
-1.0662236 0.5943777 2.2719965
-0.82192707 0.60379988 1.7514167
-0.87510151 0.59826994 1.9033637
-0.93777555 0.59530509 2.0815439
-1.014694 0.5926702 2.3000104
-0.78754014 0.60329801 1.7717707
-0.83562189 0.59765971 1.9286221
-0.89328194 0.5936588 2.1076901
-0.96500236 0.5938248 2.3361135
-0.75123632 0.60086161 1.7880524
-0.79715681 0.59807086 1.9529176
-0.84868705 0.59392196 2.1388705
-0.91147304 0.5921101 2.3640893
-0.71485364 0.59935272 1.8083509
-0.75477916 0.59554058 1.9730853
-0.80130631 0.59237355 2.1589622
-0.85986054 0.59233004 2.3961377
-0.67756867 0.59693086 1.8236141
-0.71531433 0.59594822 1.997362
-0.75668871 0.59361839 2.1911602
-0.79212606 0.58028698 2.3836477
-0.64026505 0.59449095 1.8398771
-0.67386854 0.59636682 2.0206015
-0.70926666 0.59303367 2.2132692
-0.71328342 0.55701685 2.325731
-0.60773098 0.59786886 1.8673384
-0.62962627 0.59295613 2.033716
-0.65894663 0.59052891 2.2302876
-0.63655275 0.53386259 2.2618539
-0.57224274 0.59927261 1.8927081
-0.58912027 0.59432387 2.0599911
-0.60680336 0.58618021 2.2382355
-0.56654692 0.51347965 2.2121577
-0.53111613 0.59498143 1.8998628
-0.5438742 0.59190941 2.0731049
-0.54451823 0.56957203 2.2027569
-0.49957013 0.49514326 2.1605544
-0.49368447 0.59643227 1.9221957
-0.49865082 0.58851331 2.0852008
-0.4814136 0.55012357 2.1582081
-0.43741608 0.47866166 2.1180782
-0.45445603 0.59405744 1.9344225
-0.45429921 0.58901155 2.1033857
-0.4222028 0.53359848 2.1187873
-0.38102055 0.4659839 2.0877829
-0.41426525 0.59171528 1.944631
-0.4072299 0.58475304 2.1074286
-0.36511186 0.51518953 2.0733702
-0.32391781 0.45057443 2.0424194
-0.37499154 0.591304 1.9588933
-0.3549242 0.56816262 2.0731375
-0.31181329 0.50161314 2.0381145
-0.27319798 0.44362772 2.0283396
-0.3355602 0.59274763 1.9811885
-0.302791 0.55073524 2.0298316
-0.26573986 0.49835804 2.0421946
-0.23097098 0.45633858 2.0908
-0.29438835 0.59041995 1.9903789
-0.25849947 0.55028796 2.0449996
-0.22538835 0.5139671 2.1107447
-0.18660541 0.47091529 2.1602566
-0.25315246 0.59003758 2.002604
-0.21932018 0.56506354 2.1045535
-0.18125533 0.52676123 2.1681693
-0.14019886 0.48644844 2.2316928
-0.21195793 0.58869165 2.0128119
-0.17700653 0.58070147 2.1710665
-0.13560426 0.54708004 2.2517104
-0.0965278 0.56918645 2.570487
-0.16974486 0.58732396 2.0240004
-0.12974907 0.5812794 2.1841967
-0.088240102 0.57674241 2.3714008
-0.036449105 0.56788087 2.5743396
-0.12756926 0.58599257 2.03319
-0.082551725 0.58091176 2.1943097
-0.034280494 0.57356721 2.3693323
0.023494622 0.56570208 2.5711768
-0.085367069 0.58664262 2.0434151
-0.034553576 0.57772189 2.1943536
0.019878136 0.5732106 2.3773148
0.084776074 0.56821126 2.5850794
-0.042150259 0.58627123 2.0546031
0.01366624 0.57833242 2.2054653
0.073883049 0.57199895 2.3772817
0.14456216 0.56417745 2.5738833
0.0019461624 0.58400518 2.0597382
0.061687052 0.57612425 2.2065268
0.12794806 0.57173276 2.3802655
0.20673111 0.56679165 2.5817697
0.045106798 0.58368802 2.0679269
0.11073032 0.57489431 2.2085872
0.18187416 0.56959361 2.3762157
0.26752093 0.56375414 2.5705726
0.089090899 0.58153045 2.067064
0.1598938 0.5755555 2.2166812
0.23684143 0.56841445 2.3741648
-0.02611593 -0.059798401 0.050936799
0.13323262 0.58122784 2.0742345
0.20988072 0.57437623 2.2157238
-0.02611593 -0.059798401 0.050936799
0.3871088 0.55968595 2.5482523
0.17835546 0.58093971 2.0803866
-0.02611593 -0.059798401 0.050936799
0.18260673 0.29101956 1.3508155
0.44914669 0.56242675 2.5491407
-0.02611593 -0.059798401 0.050936799
0.14829388 0.2692464 1.1790059
0.22475582 0.3078202 1.4083498
0.27228653 0.28705797 1.4400951
0.1374542 0.29522717 1.18268
0.36006314 0.57463872 2.2239194
0.2644659 0.31802714 1.443803
0.56874639 0.56135798 2.5268745
0.31450996 0.57827103 2.0877917
0.2579003 0.35175705 1.4605416
0.29738104 0.3169812 1.4391662
0.34438267 0.29070848 1.4438126
0.35935885 0.57523668 2.0798945
0.45978573 0.57051569 2.2089727
0.33248004 0.31976467 1.4435608
0.37828678 0.29167667 1.4381933
0.27403 0.38067663 1.4617631
0.51073897 0.57036883 2.2060151
0.36957866 0.32254094 1.4479179
0.41214949 0.29168129 1.4305569
0.45453656 0.57671458 2.0881422
0.56065494 0.57026178 2.2010767
0.39928055 0.31970507 1.4323052
0.80249333 0.55867285 2.4584267
0.50152797 0.57654589 2.0872591
0.60939074 0.56732148 2.1871064
0.42784369 0.31499982 1.4096777
0.85798448 0.55594271 2.431329
0.54847801 0.57541358 2.0843587
0.66133291 0.56918883 2.1831663
0.45754951 0.31316382 1.394083
-0.02611593 -0.059798401 0.050936799
0.59639037 0.57431376 2.0794399
0.71215117 0.56816876 2.1731932
0.45666859 0.28888315 1.298628
0.46468475 0.24359182 1.2016258
0.6422056 0.57231188 2.0695426
0.76195091 0.56717038 2.1622391
0.3867318 0.220633 1.0496185
0.54370606 0.27346492 1.3027209
0.68908072 0.57125187 2.0626435
-0.02611593 -0.059798401 0.050936799
0.52787423 0.29644608 1.3074347
1.0812732 0.5557453 2.3381133
0.73800075 0.57214826 2.0577419
0.41136163 0.24803561 1.0776626
1.0004092 0.56587255 2.2377765
1.1347725 0.55502194 2.3110893
-0.02611593 -0.059798401 0.050936799
0.52308649 0.3062548 1.2636868
1.0447035 0.56036317 2.200835
1.1892984 0.55627662 2.2850823
0.46876597 0.30271211 1.1946164
0.96919048 0.56912905 2.1193798
1.0952823 0.56057811 2.1778841
1.2427455 0.55660737 2.2550776
0.53952271 0.3318674 1.2818485
1.013661 0.56545663 2.0914714
1.1478794 0.56076777 2.1558955
1.2941704 0.55596364 2.2240927
0.51828784 0.29796767 1.1695949
1.0623298 0.56458849 2.0735383
1.1994767 0.56096101 2.1339254
1.3414649 0.55546081 2.1861851
0.98528534 0.57290918 2.0171123
1.1130022 0.56471294 2.0555856
1.2479396 0.56029189 2.104996
1.392875 0.55583495 2.1542187
1.0319279 0.57006663 1.9981811
1.1636972 0.56581914 2.038651
1.2984622 0.56056106 2.0790462
1.4453489 0.55815089 2.1252682
1.0806756 0.57012594 1.9842647
1.213291 0.56501979 2.0167003
1.346925 0.55989188 2.050117
1.4905649 0.55672777 2.0833817
1.1283447 0.56926125 1.9663504
1.258788 0.56332529 1.9898088
1.3943546 0.56026226 2.0192251
1.5368598 0.55622858 2.0454931
1.1780733 0.5693351 1.9514158
1.3053074 0.56260902 1.9639161
1.4407429 0.55967265 1.9863348
1.5811212 0.55677259 2.0056608
1.2226226 0.56659019 1.9275239
1.3548903 0.56382728 1.9410021
1.4861313 0.55908656 1.9534633
1.6253603 0.55633479 1.9648106
1.2733551 0.56766021 1.9125882
1.4013683 0.56214744 1.913092
1.5315051 0.5595184 1.9196101
1.672704 0.55879527 1.9289566
1.32505 0.56876284 1.8956348
1.4550557 0.56626052 1.8951552
1.5850577 0.56275821 1.8946576
1.7128875 0.55842614 1.8851827
1.370607 0.56801403 1.8717601
1.5056198 0.56749332 1.8712226
1.6212114 0.55942202 1.8499051
1.7540934 0.55903518 1.8424078
1.4181637 0.567258 1.8478479
1.5530866 0.56782752 1.8423302
1.6706485 0.56178498 1.8190119
1.79934 0.56059349 1.8015749
1.4687611 0.56745481 1.8258967
1.594416 0.56631023 1.8065169
1.7119293 0.5623216 1.7802356
1.8334311 0.56033629 1.7529156
1.5173216 0.56769496 1.8019838
1.6326855 0.56385821 1.7677429
1.7633886 0.56565899 1.7503223
1.8736186 0.56096697 1.7091599
1.5627851 0.56703657 1.7731109
1.6862569 0.5670799 1.74379
1.8046509 0.56621373 1.7105464
1.9127913 0.56261915 1.6644411
1.6143488 0.56826586 1.7491596
1.7306082 0.56653357 1.708938
1.8449132 0.56677204 1.6707892
1.9469237 0.56332564 1.617799
1.6618532 0.56856388 1.7222663
1.7780268 0.5689218 1.6770825
1.8769966 0.56452245 1.6221313
1.9810185 0.56406832 1.5691576
1.71032 0.56889451 1.6933552
1.8223631 0.5693934 1.6412488
1.9213035 0.56702989 1.5843344
2.018173 0.56574583 1.5234767
1.7557086 0.56830841 1.6604837
1.8616219 0.56895548 1.6014924
1.9574728 0.567693 1.5396541
2.0482311 0.56653899 1.4729112
1.8071826 0.57062793 1.6315521
1.9110214 0.57135457 1.5685998
1.9966832 0.569309 1.4969347
2.0782893 0.56733221 1.4223458
1.853575 0.57103813 1.5986798
1.949224 0.57097453 1.5258632
2.0328338 0.56999022 1.4512547
2.1103697 0.56909996 1.3727603
1.9019668 0.57144111 1.5657699
1.9844084 0.57062328 1.4821832
2.0700257 0.57163155 1.4075731
2.1424689 0.5708496 1.3241744
1.9452622 0.57095271 1.5279377
2.0266516 0.5711925 1.4413887
2.0970576 0.57045394 1.3560282
2.1664722 0.57171857 1.2707226
1.9844793 0.56955105 1.4861637
2.0658619 0.5728085 1.3986695
2.1301718 0.57118207 1.3084054
2.1894753 0.57259119 1.2172896
2.0348601 0.57196468 1.4522527
2.1070905 0.57439929 1.356912
2.1653078 0.5728848 1.2617625
2.2236011 0.57631528 1.1697019
2.0801442 0.57348675 1.4134192
2.1432185 0.57409883 1.3102144
2.1903255 0.57273227 1.2092736
2.2405226 0.57528198 1.1123469
2.1243682 0.57406694 1.3715876
2.1823914 0.57575095 1.2654957
2.2234473 0.57546014 1.1616867
2.2665706 0.57810742 1.0608929
2.1696107 0.57462537 1.3307369
2.2084236 0.57457691 1.2139696
2.2524869 0.57627499 1.1101402
2.2936187 0.5809291 1.0094202
2.2097571 0.57429242 1.2849636
2.2455368 0.57529068 1.1662716
2.2825716 0.57904977 1.0606103
2.3075445 0.58090645 0.95213962
2.2499256 0.57494128 1.2402081
2.2816765 0.57798976 1.119628
2.3055525 0.57894063 1.0061597
2.3265529 0.58279324 0.89879972
2.2900383 0.57564425 1.1924536
2.3187749 0.57972145 1.0709482
2.3325963 0.58076251 0.95466882
2.339479 0.58277428 0.84153795
2.3341911 0.57729661 1.1466414
2.3548586 0.58247471 1.0213056
2.3535812 0.58166033 0.90027374
2.3534462 0.58371532 0.78627479
2.3773263 0.57897055 1.0998482
2.3798537 0.58134037 0.96779889
2.3725441 0.58158368 0.84489858
2.3714397 0.58662355 0.7319721
2.4244678 0.58262992 1.0530159
2.4129007 0.5841406 0.91621333
2.3955324 0.58347416 0.79048389
2.383393 0.58858979 0.6757648
2.4534247 0.58151746 0.99743474
2.4338403 0.58307493 0.85978293
2.4134991 0.58440083 0.73514545
2.3893015 0.58861399 0.61763489
2.4884255 0.58234698 0.94377619
2.4638274 0.58494031 0.8052367
2.4344921 0.58729833 0.68078637
2.405314 0.59151131 0.5643695
2.5254493 0.58415109 0.89109778
2.4867933 0.58584911 0.74980438
2.4524438 0.58924299 0.62446642
2.4112458 0.59251732 0.50725728
2.5654531 0.58596247 0.83736342
2.5137625 0.58774334 0.69431496
2.4673927 0.59019858 0.56818473
2.4131742 0.59253776 0.4502022
2.6024244 0.58882064 0.78170401
2.5366948 0.58968812 0.63690126
2.4823265 0.59217203 0.51092148
2.4231315 0.59551102 0.39405051
2.6353509 0.58972973 0.7240845
2.5606267 0.59162933 0.57946885
2.4962604 0.59414911 0.45367691
2.4240599 0.59553498 0.33701423
2.6612189 0.58971834 0.66357946
2.5795145 0.59162492 0.52009499
2.5081909 0.5951336 0.39645195
2.4250112 0.59654081 0.28099564
2.6880903 0.59070319 0.60307372
2.5994101 0.59361672 0.46073845
2.5180881 0.59716111 0.33728325
2.4319916 0.60050648 0.22591801
2.7179241 0.59171349 0.54051214
2.6203053 0.59560478 0.40136307
2.5219975 0.59719253 0.27919096
2.4249179 0.59955943 0.16901401
2.7307112 0.5898214 0.47621673
2.6351604 0.59665084 0.34008306
2.5208848 0.59626013 0.22017491
2.4429078 0.60648513 0.11378375
2.7756181 0.59572268 0.41646242
2.6319654 0.59379822 0.27706996
2.4496396 0.5776543 0.15815124
2.4418595 0.60749811 0.057802729
2.7963781 0.59683758 0.35007143
2.5075064 0.56154788 0.20679295
2.47261 0.58458012 0.10182735
2.4398341 0.60949647 0.0028581815
2.8041289 0.59499973 0.28387061
2.5644944 0.57435071 0.14993832
2.4665174 0.58364761 0.04390493
2.3557746 0.58975661 -0.048942633
2.8188865 0.59513634 0.21757433
2.6184268 0.58721852 0.090141043
2.4474525 0.5797261 -0.011827951
2.3057625 0.57887518 -0.10022049
2.8496382 0.59923297 0.15004978
2.6593084 0.59616983 0.028516661
2.3303635 0.55110621 -0.063170843
-0.02611593 -0.059798401 0.050936799
2.8653617 0.60040206 0.081753388
2.6891468 0.60319722 -0.034936383
-0.02611593 -0.059798401 0.050936799
1.0509179 0.23816299 -0.067878611
2.8850887 0.60255653 0.01339986
2.3049452 0.5104562 -0.077435091
1.1251409 0.24067983 -0.057219125
1.0524762 0.2405896 -0.091872036
2.8457756 0.59192497 -0.054079279
-0.02611593 -0.059798401 0.050936799
1.1166477 0.23917918 -0.083096027
2.352751 0.60764939 -0.31965411
1.252715 0.22961071 -0.025797229
1.179849 0.23573655 -0.072337948
2.3612559 0.56899405 -0.285501
-0.02611593 -0.059798401 0.050936799
1.2751086 0.23412441 -0.059146158
2.3498113 0.52333927 -0.24709958
2.381156 0.57700282 -0.34574917
1.0431038 0.24495642 -0.16564257
2.693028 0.55495793 -0.24495286
2.4865005 0.55921274 -0.32503629
-0.02611593 -0.059798401 0.050936799
1.0416585 0.24639396 -0.18959762
2.4841101 0.50845426 -0.28289539
2.4684248 0.5573054 -0.38175157
1.0996845 0.24113238 -0.18777859
-0.02611593 -0.059798401 0.050936799
2.5358517 0.52051032 -0.35266972
2.2538664 0.5064621 -0.39966026
2.2812948 0.56206727 -0.49419996
-0.02611593 -0.059798401 0.050936799
2.2713084 0.46181172 -0.36778367
2.2817318 0.51547819 -0.46203998
2.2962189 0.5710758 -0.5533365
1.0283097 0.25175685 -0.26227534
2.291182 0.46783894 -0.42906752
2.3155515 0.52752656 -0.52747744
2.4266067 0.6112777 -0.64808261
1.0238464 0.25322324 -0.28717366
2.3249714 0.47690585 -0.49555871
2.421036 0.55769318 -0.61493629
2.4424031 0.62140906 -0.71421754
0.18079767 0.002692706 -0.020831097
2.3846154 0.49304101 -0.57140917
2.4846008 0.57790381 -0.69578826
2.4014695 0.61644006 -0.76255733
0.20257774 0.0098477146 -0.034113962
2.4282646 0.50521618 -0.6460315
2.4426074 0.57199275 -0.7471264
-0.02611593 -0.059798401 0.050936799
-0.02611593 -0.059798401 0.050936799
2.4877999 0.52245975 -0.72786194
2.3797662 0.56099516 -0.78916299
-0.02611593 -0.059798401 0.050936799
0.17754002 0.0039565503 -0.034751963
2.4179149 0.50952381 -0.77180243
-0.02611593 -0.059798401 0.050936799
0.18450432 -4.9802009e-05 -0.035955235
-0.02611593 -0.059798401 0.050936799
-0.02611593 -0.059798401 0.050936799
0.18650694 -0.0040743914 -0.035065223
-0.02611593 -0.059798401 0.050936799
0.15153602 -0.002967034 -0.033389885
-0.02611593 -0.059798401 0.050936799
-0.02611593 -0.059798401 0.050936799
0.15353864 -0.0069916239 -0.032499872
-0.02611593 -0.059798401 0.050936799
0.17948073 -0.011048077 -0.035059821
0.16743854 -0.007951254 -0.037779268
-0.02611593 -0.059798401 0.050936799
0.13152002 -0.0078944089 -0.033104166
-0.02611593 -0.059798401 0.050936799
-0.02611593 -0.059798401 0.050936799
0.13450378 -0.011904495 -0.033232611
-0.02611593 -0.059798401 0.050936799
0.15048121 -0.016961068 -0.033623353
0.14740384 -0.012860536 -0.038493209
-0.02611593 -0.059798401 0.050936799
0.11254131 -0.012861548 -0.030837912
-0.02611593 -0.059798401 0.050936799
-0.02611593 -0.059798401 0.050936799
0.12047583 -0.014835653 -0.034023251
-0.02611593 -0.059798401 0.050936799
0.13146897 -0.020892201 -0.033338409
0.12442584 -0.017813317 -0.0361518
-0.02611593 -0.059798401 0.050936799
0.10149802 -0.014785552 -0.032666579
-0.02611593 -0.059798401 0.050936799
-0.02611593 -0.059798401 0.050936799
0.10150103 -0.018802959 -0.031738985
-0.02611593 -0.059798401 0.050936799
0.11247545 -0.024841417 -0.032053795
0.11039791 -0.020744476 -0.036942452
-0.02611593 -0.059798401 0.050936799
0.094435282 -0.016705822 -0.035570066
-0.02611593 -0.059798401 0.050936799
-0.02611593 -0.059798401 0.050936799
0.091476284 -0.020748643 -0.032586787
-0.02611593 -0.059798401 0.050936799
0.099451251 -0.026776332 -0.032845218
0.10035446 -0.022672066 -0.038789898
-0.02611593 -0.059798401 0.050936799
0.075531453 -0.021745315 -0.029305167
-0.02611593 -0.059798401 0.050936799
-0.02611593 -0.059798401 0.050936799
0.080466516 -0.023708655 -0.032434143
-0.02611593 -0.059798401 0.050936799
0.083479851 -0.029754579 -0.0305993
0.086367883 -0.024639569 -0.037563212
-0.02611593 -0.059798401 0.050936799
0.069491185 -0.022687435 -0.031209763
-0.02611593 -0.059798401 0.050936799
-0.02611593 -0.059798401 0.050936799
0.072445333 -0.024661679 -0.033301491
-0.02611593 -0.059798401 0.050936799
0.075436004 -0.031689346 -0.032484338
0.075376831 -0.027617672 -0.036410909
-0.02611593 -0.059798401 0.050936799
0.060503695 -0.024672881 -0.030077025
-0.02611593 -0.059798401 0.050936799
-0.02611593 -0.059798401 0.050936799
0.062458031 -0.026643543 -0.032149967
-0.02611593 -0.059798401 0.050936799
0.065429986 -0.033653118 -0.032332469
0.065389529 -0.029599532 -0.035259381
-0.02611593 -0.059798401 0.050936799
0.049550094 -0.02768716 -0.0269254
-0.02611593 -0.059798401 0.050936799
-0.02611593 -0.059798401 0.050936799
0.050523333 -0.029672323 -0.027979895
-0.02611593 -0.059798401 0.050936799
0.052518122 -0.03569657 -0.027125921
0.058349438 -0.030538062 -0.037145186
-0.02611593 -0.059798401 0.050936799
0.046494476 -0.027622128 -0.029868014
-0.02611593 -0.059798401 0.050936799
-0.02611593 -0.059798401 0.050936799
0.044483054 -0.030614438 -0.029884487
-0.02611593 -0.059798401 0.050936799
0.048425235 -0.03559177 -0.032049071
0.052331805 -0.030498436 -0.038032103
-0.02611593 -0.059798401 0.050936799
0.04243904 -0.027553506 -0.032791827
-0.02611593 -0.059798401 0.050936799
-0.02611593 -0.059798401 0.050936799
0.039461315 -0.031578235 -0.03080821
-0.02611593 -0.059798401 0.050936799
0.039475199 -0.037613392 -0.028917003
0.044329345 -0.031469557 -0.037899792
-0.02611593 -0.059798401 0.050936799
0.034470089 -0.029560633 -0.030678224
-0.02611593 -0.059798401 0.050936799
-0.02611593 -0.059798401 0.050936799
0.036390908 -0.030495282 -0.034732476
-0.02611593 -0.059798401 0.050936799
0.03443867 -0.037559271 -0.03082237
0.038307793 -0.032429766 -0.038804736
-0.02611593 -0.059798401 0.050936799
0.028485984 -0.030557016 -0.029583842
-0.02611593 -0.059798401 0.050936799
-0.02611593 -0.059798401 0.050936799
0.027455658 -0.033534832 -0.030618764
-0.02611593 -0.059798401 0.050936799
0.029416934 -0.038523067 -0.031746104
0.030357569 -0.034454983 -0.035691466
-0.02611593 -0.059798401 0.050936799
-0.02611593 -0.059798401 0.050936799
-0.02611593 -0.059798401 0.050936799
-0.02611593 -0.059798401 0.050936799
0.024418766 -0.033487882 -0.032561712
-0.02611593 -0.059798401 0.050936799
0.025361499 -0.038454447 -0.034669928
0.024354743 -0.035433277 -0.035596743
-0.02611593 -0.059798401 0.050936799
-0.02611593 -0.059798401 0.050936799
-0.02611593 -0.059798401 0.050936799
-0.02611593 -0.059798401 0.050936799
-0.02611593 -0.059798401 0.050936799
-0.02611593 -0.059798401 0.050936799
-0.02611593 -0.059798401 0.050936799
0.020318028 -0.035382748 -0.037520897
-0.02611593 -0.059798401 0.050936799
-0.02611593 -0.059798401 0.050936799
-0.02611593 -0.059798401 0.050936799
-0.02611593 -0.059798401 0.050936799
-0.02611593 -0.059798401 0.050936799
-0.02611593 -0.059798401 0.050936799
-0.02611593 -0.059798401 0.050936799
0.016262593 -0.03531412 -0.040444721
-0.02611593 -0.059798401 0.050936799
-0.02611593 -0.059798401 0.050936799
-0.02611593 -0.059798401 0.050936799
-0.02611593 -0.059798401 0.050936799
-0.02611593 -0.059798401 0.050936799
-0.02611593 -0.059798401 0.050936799
-0.02611593 -0.059798401 0.050936799
-0.02611593 -0.059798401 0.050936799
-0.02611593 -0.059798401 0.050936799
-0.02611593 -0.059798401 0.050936799
-0.02611593 -0.059798401 0.050936799
-0.02611593 -0.059798401 0.050936799
-0.02611593 -0.059798401 0.050936799
-0.02611593 -0.059798401 0.050936799
-0.02611593 -0.059798401 0.050936799
-0.02611593 -0.059798401 0.050936799
-0.02611593 -0.059798401 0.050936799
-0.02611593 -0.059798401 0.050936799
-0.02611593 -0.059798401 0.050936799
-0.02611593 -0.059798401 0.050936799
-0.02611593 -0.059798401 0.050936799
-0.02611593 -0.059798401 0.050936799
-0.02611593 -0.059798401 0.050936799
-0.02611593 -0.059798401 0.050936799
-0.02611593 -0.059798401 0.050936799
-0.02611593 -0.059798401 0.050936799
-0.02611593 -0.059798401 0.050936799
-0.02611593 -0.059798401 0.050936799
-0.02611593 -0.059798401 0.050936799
-0.02611593 -0.059798401 0.050936799
-0.02611593 -0.059798401 0.050936799
-0.02611593 -0.059798401 0.050936799
-0.02611593 -0.059798401 0.050936799
-0.02611593 -0.059798401 0.050936799
-0.02611593 -0.059798401 0.050936799
-0.02611593 -0.059798401 0.050936799
-0.02611593 -0.059798401 0.050936799
-0.02611593 -0.059798401 0.050936799
-0.02611593 -0.059798401 0.050936799
-0.02611593 -0.059798401 0.050936799
-0.02611593 -0.059798401 0.050936799
-0.02611593 -0.059798401 0.050936799
-0.02611593 -0.059798401 0.050936799
-0.02611593 -0.059798401 0.050936799
-0.02611593 -0.059798401 0.050936799
-0.02611593 -0.059798401 0.050936799
-0.02611593 -0.059798401 0.050936799
-0.02611593 -0.059798401 0.050936799
-0.02611593 -0.059798401 0.050936799
-0.02611593 -0.059798401 0.050936799
-0.02611593 -0.059798401 0.050936799
-0.02611593 -0.059798401 0.050936799
-0.02611593 -0.059798401 0.050936799
-0.02611593 -0.059798401 0.050936799
-0.02611593 -0.059798401 0.050936799
-0.02611593 -0.059798401 0.050936799
-0.02611593 -0.059798401 0.050936799
-0.02611593 -0.059798401 0.050936799
-0.02611593 -0.059798401 0.050936799
-0.02611593 -0.059798401 0.050936799
-0.02611593 -0.059798401 0.050936799
-0.02611593 -0.059798401 0.050936799
-0.02611593 -0.059798401 0.050936799
-0.02611593 -0.059798401 0.050936799
-0.02611593 -0.059798401 0.050936799
-0.02611593 -0.059798401 0.050936799
-0.02611593 -0.059798401 0.050936799
-0.02611593 -0.059798401 0.050936799
-0.02611593 -0.059798401 0.050936799
-0.02611593 -0.059798401 0.050936799
-0.02611593 -0.059798401 0.050936799
-0.02611593 -0.059798401 0.050936799
-0.02611593 -0.059798401 0.050936799
-0.02611593 -0.059798401 0.050936799
-0.02611593 -0.059798401 0.050936799
-0.02611593 -0.059798401 0.050936799
-0.02611593 -0.059798401 0.050936799
-0.02611593 -0.059798401 0.050936799
-0.02611593 -0.059798401 0.050936799
-0.02611593 -0.059798401 0.050936799
-0.02611593 -0.059798401 0.050936799
-0.02611593 -0.059798401 0.050936799
-0.02611593 -0.059798401 0.050936799
-0.02611593 -0.059798401 0.050936799
-0.02611593 -0.059798401 0.050936799
-0.02611593 -0.059798401 0.050936799
-0.02611593 -0.059798401 0.050936799
-0.02611593 -0.059798401 0.050936799
-0.02611593 -0.059798401 0.050936799
-0.02611593 -0.059798401 0.050936799
-0.02611593 -0.059798401 0.050936799
-0.02611593 -0.059798401 0.050936799
-0.02611593 -0.059798401 0.050936799
-0.02611593 -0.059798401 0.050936799
-0.02611593 -0.059798401 0.050936799
-0.02611593 -0.059798401 0.050936799
-0.02611593 -0.059798401 0.050936799
-0.02611593 -0.059798401 0.050936799
-0.02611593 -0.059798401 0.050936799
-0.02611593 -0.059798401 0.050936799
-0.02611593 -0.059798401 0.050936799
-0.02611593 -0.059798401 0.050936799
-0.02611593 -0.059798401 0.050936799
-0.02611593 -0.059798401 0.050936799
-0.02611593 -0.059798401 0.050936799
-0.02611593 -0.059798401 0.050936799
-0.02611593 -0.059798401 0.050936799
-0.02611593 -0.059798401 0.050936799
-0.02611593 -0.059798401 0.050936799
-0.02611593 -0.059798401 0.050936799
-0.02611593 -0.059798401 0.050936799
-0.02611593 -0.059798401 0.050936799
-0.02611593 -0.059798401 0.050936799
-0.02611593 -0.059798401 0.050936799
-0.02611593 -0.059798401 0.050936799
-0.02611593 -0.059798401 0.050936799
-0.02611593 -0.059798401 0.050936799
-0.02611593 -0.059798401 0.050936799
-0.02611593 -0.059798401 0.050936799
-0.02611593 -0.059798401 0.050936799
-0.02611593 -0.059798401 0.050936799
-0.02611593 -0.059798401 0.050936799
-0.02611593 -0.059798401 0.050936799
-0.02611593 -0.059798401 0.050936799
-0.02611593 -0.059798401 0.050936799
-0.02611593 -0.059798401 0.050936799
-0.02611593 -0.059798401 0.050936799
-0.02611593 -0.059798401 0.050936799
-0.02611593 -0.059798401 0.050936799
-0.02611593 -0.059798401 0.050936799
-0.02611593 -0.059798401 0.050936799
-0.02611593 -0.059798401 0.050936799
-0.02611593 -0.059798401 0.050936799
-0.02611593 -0.059798401 0.050936799
-0.02611593 -0.059798401 0.050936799
-0.02611593 -0.059798401 0.050936799
-0.02611593 -0.059798401 0.050936799
-0.02611593 -0.059798401 0.050936799
-0.02611593 -0.059798401 0.050936799
-0.02611593 -0.059798401 0.050936799
-0.02611593 -0.059798401 0.050936799
-0.02611593 -0.059798401 0.050936799
-0.02611593 -0.059798401 0.050936799
-0.02611593 -0.059798401 0.050936799
-0.02611593 -0.059798401 0.050936799
-0.02611593 -0.059798401 0.050936799
-0.02611593 -0.059798401 0.050936799
-0.02611593 -0.059798401 0.050936799
-0.02611593 -0.059798401 0.050936799
-0.02611593 -0.059798401 0.050936799
-0.02611593 -0.059798401 0.050936799
-0.067665868 -0.035066921 -0.03586733
-0.02611593 -0.059798401 0.050936799
-0.02611593 -0.059798401 0.050936799
-0.02611593 -0.059798401 0.050936799
-0.02611593 -0.059798401 0.050936799
-0.02611593 -0.059798401 0.050936799
-0.02611593 -0.059798401 0.050936799
-0.02611593 -0.059798401 0.050936799
-0.071627691 -0.035088744 -0.03379285
-0.02611593 -0.059798401 0.050936799
-0.02611593 -0.059798401 0.050936799
-0.02611593 -0.059798401 0.050936799
-0.02611593 -0.059798401 0.050936799
-0.02611593 -0.059798401 0.050936799
-0.02611593 -0.059798401 0.050936799
-0.078596823 -0.037099458 -0.031698026
-0.077645317 -0.035049118 -0.034679767
-0.02611593 -0.059798401 0.050936799
-0.02611593 -0.059798401 0.050936799
-0.02611593 -0.059798401 0.050936799
-0.02611593 -0.059798401 0.050936799
-0.02611593 -0.059798401 0.050936799
-0.02611593 -0.059798401 0.050936799
-0.081521384 -0.037161045 -0.027643006
-0.084673621 -0.032988161 -0.036511518
-0.02611593 -0.059798401 0.050936799
-0.02611593 -0.059798401 0.050936799
-0.02611593 -0.059798401 0.050936799
-0.02611593 -0.059798401 0.050936799
-0.02611593 -0.059798401 0.050936799
-0.02611593 -0.059798401 0.050936799
-0.089586958 -0.035060324 -0.031455293
-0.088616729 -0.03302807 -0.033437371
-0.02611593 -0.059798401 0.050936799
-0.080595545 -0.03207504 -0.032570016
-0.02611593 -0.059798401 0.050936799
-0.02611593 -0.059798401 0.050936799
-0.087612979 -0.032031827 -0.033438142
-0.02611593 -0.059798401 0.050936799
-0.096581742 -0.03403537 -0.031305742
-0.093615808 -0.033010125 -0.033343419
-0.02611593 -0.059798401 0.050936799
-0.084542565 -0.033114783 -0.029513888
-0.02611593 -0.059798401 0.050936799
-0.02611593 -0.059798401 0.050936799
-0.091556087 -0.032071739 -0.030363988
-0.02611593 -0.059798401 0.050936799
-0.10153946 -0.033053771 -0.029194448
-0.10264376 -0.030941987 -0.035137583
-0.02611593 -0.059798401 0.050936799
-0.08852312 -0.033118516 -0.02843906
-0.02611593 -0.059798401 0.050936799
-0.02611593 -0.059798401 0.050936799
-0.095499188 -0.032111652 -0.027289849
-0.02611593 -0.059798401 0.050936799
-0.10548256 -0.03309368 -0.026120301
-0.10862001 -0.029938711 -0.034007166
-0.02611593 -0.059798401 0.050936799
-0.093480825 -0.032136917 -0.02632777
-0.02611593 -0.059798401 0.050936799
-0.02611593 -0.059798401 0.050936799
-0.1025127 -0.031068612 -0.028139953
-0.02611593 -0.059798401 0.050936799
-0.11551032 -0.031021956 -0.027895678
-0.11254439 -0.029996712 -0.029933352
-0.02611593 -0.059798401 0.050936799
-0.098461188 -0.032137062 -0.025234159
-0.02611593 -0.059798401 0.050936799
-0.02611593 -0.059798401 0.050936799
-0.10950749 -0.030043658 -0.027990405
-0.02611593 -0.059798401 0.050936799
-0.12248639 -0.03001509 -0.026746467
-0.1245905 -0.02789972 -0.032670818
-0.02611593 -0.059798401 0.050936799
-0.10850768 -0.030047245 -0.028009195
-0.02611593 -0.059798401 0.050936799
-0.02611593 -0.059798401 0.050936799
-0.11243597 -0.031105077 -0.023953404
-0.02611593 -0.059798401 0.050936799
-0.13349132 -0.026958033 -0.027485374
-0.13459954 -0.025846081 -0.033446535
-0.02611593 -0.059798401 0.050936799
-0.11550246 -0.029022295 -0.027859643
-0.02611593 -0.059798401 0.050936799
-0.02611593 -0.059798401 0.050936799
-0.12345962 -0.028029932 -0.025691979
-0.02611593 -0.059798401 0.050936799
-0.1464998 -0.024893628 -0.028204728
-0.14255671 -0.024853718 -0.031278878
-0.02611593 -0.059798401 0.050936799
-0.12247853 -0.028015433 -0.026710428
-0.02611593 -0.059798401 0.050936799
-0.02611593 -0.059798401 0.050936799
-0.13750537 -0.025925759 -0.02839186
-0.02611593 -0.059798401 0.050936799
-0.15040153 -0.023969887 -0.023113236
-0.15352811 -0.022832669 -0.030036476
-0.02611593 -0.059798401 0.050936799
-0.13450591 -0.025936525 -0.028448232
-0.02611593 -0.059798401 0.050936799
-0.02611593 -0.059798401 0.050936799
-0.1444627 -0.024936983 -0.026242983
-0.02611593 -0.059798401 0.050936799
-0.16742408 -0.020873208 -0.024739064
-0.16551411 -0.019790115 -0.029756933
-0.02611593 -0.059798401 0.050936799
-0.13741569 -0.027016034 -0.023411568
-0.02611593 -0.059798401 0.050936799
-0.02611593 -0.059798401 0.050936799
-0.15038282 -0.023987977 -0.022113577
-0.02611593 -0.059798401 0.050936799
-0.18542381 -0.0167912 -0.02532842
-0.17746663 -0.017783564 -0.027496092
-0.02611593 -0.059798401 0.050936799
-0.14132135 -0.027092125 -0.018338099
-0.02611593 -0.059798401 0.050936799
-0.02611593 -0.059798401 0.050936799
-0.1694198 -0.019866204 -0.024683468
-0.02611593 -0.059798401 0.050936799
-0.20640032 -0.011716683 -0.024843726
-0.20249467 -0.011640594 -0.029917203
-0.02611593 -0.059798401 0.050936799
-0.15229274 -0.025071073 -0.017095711
-0.02611593 -0.059798401 0.050936799
-0.02611593 -0.059798401 0.050936799
-0.18742342 -0.016784023 -0.025290839
-0.02611593 -0.059798401 0.050936799
-0.24145611 -0.0035019848 -0.029040225
-0.22850773 -0.0065119546 -0.031337872
-0.02611593 -0.059798401 0.050936799
-0.17536646 -0.020898765 -0.021589756
-0.02611593 -0.059798401 0.050936799
-0.02611593 -0.059798401 0.050936799
-0.21846516 -0.0096015986 -0.028580852
-0.02611593 -0.059798401 0.050936799
-0.27140442 0.0035864008 -0.027350709
-0.25446066 -0.00043775141 -0.029741548
-0.02611593 -0.059798401 0.050936799
-0.20543101 -0.014701671 -0.025916234
-0.02611593 -0.059798401 0.050936799
-0.02611593 -0.059798401 0.050936799
-0.24444075 -0.0045091379 -0.028002206
-0.02611593 -0.059798401 0.050936799
-0.97422516 0.18357833 -0.20499638
-0.02611593 -0.059798401 0.050936799
-0.02611593 -0.059798401 0.050936799
-0.23847237 -0.0075120702 -0.029168669
-0.9948833 0.18834531 -0.18751745
-0.96939939 0.17770612 -0.21319574
-0.26435044 -0.0015102238 -0.023573693
-0.02611593 -0.059798401 0.050936799
-0.99645627 0.18693663 -0.16450568
-0.9850328 0.17941952 -0.19386548
-0.02611593 -0.059798401 0.050936799
-0.25938183 -0.004509571 -0.024721362
-1.0200953 0.1916963 -0.1459707
-0.99864793 0.18110763 -0.17357314
-0.97820055 0.17052254 -0.2011568
-0.02611593 -0.059798401 0.050936799
-1.0146546 0.18924455 -0.12210882
-1.0122631 0.18279575 -0.15328082
-0.99483377 0.17223953 -0.18180776
-0.98244107 0.1617374 -0.21224007
-1.0232333 0.19087857 -0.099911131
-1.0208683 0.18244818 -0.13211882
-1.0044389 0.17189555 -0.16062698
-0.98905057 0.16038282 -0.19113368
-1.0298162 0.19150557 -0.077769026
-1.0224411 0.18103948 -0.10910705
-1.0150436 0.17155515 -0.13942739
-1.0006552 0.16004601 -0.1699153
-1.0314038 0.19111478 -0.055738896
-1.02501 0.1806342 -0.086058475
-1.0206307 0.17117873 -0.11732211
-1.0142783 0.15973449 -0.14965902
-1.0600005 0.19685605 -0.035092644
-1.0305971 0.18025778 -0.063953184
-1.0201893 0.16874492 -0.09336628
-1.0088267 0.15526499 -0.12483352
-1.0815611 0.20253605 -0.012578599
-1.0541986 0.18498127 -0.043418899
-1.040799 0.17145799 -0.072924405
-1.0174133 0.15489934 -0.10267186
-1.0921206 0.20415913 0.010656334
-1.0737712 0.18765458 -0.020996489
-1.0473897 0.17008534 -0.050818339
-1.0300176 0.15456612 -0.081434712
-1.1056756 0.2067928 0.033965662
-1.0933212 0.19130965 0.0024436042
-1.079967 0.17582287 -0.029097259
-1.0465988 0.155229 -0.059104696
-1.1232034 0.2114224 0.058385849
-1.101885 0.1919257 0.025622934
-1.088531 0.17643897 -0.0059179142
-1.0752032 0.15897062 -0.038494475
-1.1387354 0.21504503 0.08275044
-1.1194167 0.19555549 0.050025105
-1.102075 0.17705487 0.018355031
-1.0857519 0.15857595 -0.014295921
-0.02611593 -0.059798401 0.050936799
-1.1279432 0.1961354 0.075203769
-1.117615 0.17867784 0.042683579
-1.1023103 0.16022058 0.0090517625
-1.1727388 0.22324656 0.13455299
-1.1394798 0.19874382 0.099475175
-1.1211461 0.17823996 0.067750268
-1.1048496 0.15777946 0.034063622
-1.1832193 0.22579712 0.16180459
-0.02611593 -0.059798401 0.050936799
-1.1336865 0.17985214 0.092022449
-1.1153796 0.15736671 0.059261851
-1.2056636 0.23237197 0.19035342
-1.1784487 0.2059273 0.15335298
-1.1561611 0.1834456 0.11951755
-1.1269052 0.15795739 0.084496886
-0.02611593 -0.059798401 0.050936799
-1.1809386 0.20644951 0.18041822
-1.1566781 0.18197905 0.14550951
-0.02611593 -0.059798401 0.050936799
-1.2345555 0.24044706 0.24805997
-1.2053676 0.2120136 0.20998627
-1.184129 0.18657219 0.17411625
-1.1648862 0.16213779 0.13830183
-1.2549477 0.24596065 0.27955219
-0.02611593 -0.059798401 0.050936799
-1.1985903 0.18911901 0.20244268
-0.02611593 -0.059798401 0.050936799
-1.2733216 0.25144893 0.31200647
-1.2362257 0.21905984 0.26971173
-1.2249852 0.19365431 0.23402962
-1.2017963 0.16524242 0.19606864
-1.259845 0.24893232 0.33771732
-1.2496308 0.22154881 0.30101836
-0.02611593 -0.059798401 0.050936799
-0.02611593 -0.059798401 0.050936799
-0.02611593 -0.059798401 0.050936799
-1.2948679 0.23202465 0.34006801
-1.2826768 0.20365222 0.30231375
-0.02611593 -0.059798401 0.050936799
-0.02611593 -0.059798401 0.050936799
-1.3191618 0.23846197 0.3766517
-1.285092 0.20410207 0.33337766
-1.2629522 0.17273042 0.29338208
-2.8916643 0.66688406 0.92202777
-1.345418 0.24487029 0.4152723
-1.3322763 0.21353097 0.37544584
-0.02611593 -0.059798401 0.050936799
-2.8635573 0.66270238 0.98144603
-3.1156778 0.65473491 0.97902143
-1.3098133 0.20798256 0.40093359
-0.02611593 -0.059798401 0.050936799
-2.8513346 0.66348672 1.0462533
-3.0804679 0.64841986 1.04427
-3.1309717 0.58883613 0.97611475
-1.312968 0.17803459 0.39845008
-2.8172479 0.65930158 1.1045592
-3.1088316 0.6569882 1.1299852
-3.0818174 0.57850772 1.039029
-3.1383212 0.51392835 0.97189593
-2.7742493 0.65215695 1.1586432
-3.1331441 0.66448826 1.218606
-3.1419168 0.59095514 1.138413
-3.0801952 0.50158596 1.0336053
-2.7411962 0.64901143 1.2149867
-3.1078231 0.66211796 1.289113
-3.2128518 0.60629678 1.2460551
-3.1541831 0.51297528 1.1392324
-2.7200389 0.64781809 1.2765896
-3.0755672 0.65777707 1.3564534
-3.2777359 0.62056285 1.3565654
-3.2241154 0.52429593 1.2477833
-2.6988776 0.64762467 1.3382109
-3.0423305 0.65345085 1.4227754
-3.3474987 0.63673788 1.4732037
-3.2810168 0.53453398 1.3580712
-2.6727588 0.64644963 1.3977209
-2.9942393 0.64619786 1.4817638
-3.4181309 0.65279001 1.5968584
-3.3646355 0.54861492 1.4829338
-2.6407011 0.64430737 1.4541011
-2.9609838 0.64185345 1.5490854
-3.4113784 0.65408927 1.689787
-3.4619548 0.56647408 1.6231265
-2.6106248 0.64215434 1.5115185
-2.9336967 0.64051199 1.6175734
-3.3571088 0.64463413 1.7586231
-3.9097714 0.64751762 1.9410845
-2.5775673 0.64000851 1.5678798
-2.9113338 0.63911611 1.6901541
-3.3423996 0.64494103 1.8493843
-3.8967326 0.64550644 2.0498409
-2.5405557 0.635885 1.6221306
-2.8760898 0.63678229 1.7564745
-3.3464468 0.6490984 1.9525701
-3.8995066 0.64738917 2.1679668
-2.5144291 0.63670957 1.6816766
-2.8507271 0.63537562 1.8289988
-3.2783334 0.63873798 2.0131278
-3.4938152 0.57481855 2.0550203
-2.4764516 0.63361841 1.7339272
-2.8155017 0.63305986 1.8943195
-3.2427936 0.63511485 2.0954249
-3.8702495 0.64619273 2.394474
-2.4562035 0.6363557 1.79962
-2.7733567 0.62979156 1.9554921
-3.1273091 0.61514461 2.1239111
-3.7098377 0.61909837 2.4199893
-2.4054124 0.62938136 1.8425574
-2.7291965 0.62549812 2.0176086
-3.1805842 0.63179183 2.266258
-3.7736282 0.63431489 2.5885162
-2.3752866 0.63019156 1.9020283
-2.7274201 0.63281435 2.1107392
-3.1430218 0.6291433 2.349535
-2.6319551 0.42505497 1.908125
-2.332366 0.62713671 1.9511861
-2.6655409 0.62471026 2.1584504
-2.8473344 0.5700376 2.2348909
-3.2274795 0.53965807 2.4495313
-2.2943654 0.6250273 2.0044544
-2.6282558 0.62333298 2.2267506
-3.0481339 0.62199193 2.5036814
-3.9826202 0.68572909 3.1665549
-2.1433775 0.58930188 1.9559649
-2.5870461 0.62201357 2.2909768
-3.0075681 0.62033248 2.58692
-3.8892121 0.6749894 3.2426376
-1.8580624 0.51048023 1.7721349
-1.8837072 0.44094366 1.7513502
-2.3074448 0.46662095 2.0838609
-3.7770851 0.66043556 3.3042958
-1.8115062 0.50575507 1.802188
-1.8351139 0.43617508 1.783365
-1.8607321 0.3686201 1.7636158
-1.892233 0.3019779 1.7499955
-1.9511703 0.56031853 2.023865
-1.8757955 0.45517334 1.903511
-1.8130823 0.36380094 1.7986485
-1.8376672 0.29520628 1.780862
-2.0846446 0.61567956 2.255444
-2.0515573 0.51301873 2.1729393
-1.9752535 0.40894204 2.0485859
-1.9027678 0.31273356 1.9324492
-2.0358415 0.6117118 2.2984731
-2.2788119 0.58867645 2.5196803
-2.1645007 0.46333173 2.3462138
-2.0843477 0.35436812 2.2146978
-1.9870155 0.60872591 2.3425198
-2.2923191 0.60539705 2.6492796
-2.6840341 0.60086459 3.0416646
-3.3308179 0.61563051 3.6952629
