# .PCD v0.7 - Point Cloud Data file format
VERSION 0.7
FIELDS x y z
SIZE 4 4 4
TYPE F F F
COUNT 1 1 1
WIDTH 1377
HEIGHT 1
VIEWPOINT 0 0 0 1 0 0 0
POINTS 1377
DATA ascii
-0.02611593 -0.059798401 0.050936799
-0.14451954 -0.048969083 -0.024676107
-0.02611593 -0.059798401 0.050936799
-0.17058967 -0.048803415 -0.028186198
-0.16964211 -0.047752906 -0.031185955
-0.02611593 -0.059798401 0.050936799
-0.18354984 -0.048792936 -0.025942594
-0.02611593 -0.059798401 0.050936799
-0.02611593 -0.059798401 0.050936799
-0.16055405 -0.048875481 -0.02637478
-0.02611593 -0.059798401 0.050936799
-0.18252739 -0.047814783 -0.024943709
-0.18362081 -0.047720753 -0.029923223
-0.02611593 -0.059798401 0.050936799
-0.19950557 -0.047771864 -0.02362461
-0.02611593 -0.059798401 0.050936799
-0.02611593 -0.059798401 0.050936799
-0.17251441 -0.048868593 -0.024149973
-0.02611593 -0.059798401 0.050936799
-0.20050144 -0.046768442 -0.023587801
-0.19657706 -0.046710443 -0.027661607
-0.02611593 -0.059798401 0.050936799
-0.23759913 -0.044527464 -0.028854478
-0.02611593 -0.059798401 0.050936799
-0.02611593 -0.059798401 0.050936799
-0.18750775 -0.047814928 -0.023850095
-0.02611593 -0.059798401 0.050936799
-0.23759913 -0.044527464 -0.028854478
-0.22460544 -0.045573942 -0.029116772
-0.02611593 -0.059798401 0.050936799
-0.2595163 -0.043521032 -0.024424423
-0.02611593 -0.059798401 0.050936799
-0.02611593 -0.059798401 0.050936799
-0.21757321 -0.046635076 -0.027267005
-0.02611593 -0.059798401 0.050936799
-0.26455286 -0.043466907 -0.026329797
-0.25763294 -0.044419505 -0.030477993
-0.02611593 -0.059798401 0.050936799
-1.0111039 0.01093593 -0.21843337
-0.02611593 -0.059798401 0.050936799
-0.02611593 -0.059798401 0.050936799
-0.24556808 -0.046534587 -0.026740871
-1.0237044 0.011602545 -0.1971782
-1.0292395 0.0091274921 -0.22512881
-1.0146699 0.0054723015 -0.24747528
-0.02611593 -0.059798401 0.050936799
-1.0282691 0.012204273 -0.17407402
-1.0328082 0.0087257996 -0.20206143
-1.031311 0.0051896214 -0.22816229
-1.0107355 -0.0015046904 -0.2496759
-1.0458874 0.012906915 -0.15372455
-1.0464123 0.0083961738 -0.18080549
-1.0408826 0.0038096278 -0.20500018
-1.0253623 -0.0028124638 -0.22941884
-1.0574694 0.013551861 -0.1314885
-1.0539804 0.0080088368 -0.15766297
-1.0524911 0.0024729979 -0.18379983
-1.0419887 -0.0041130637 -0.20912421
-1.0519835 0.013063601 -0.10559127
-1.0595486 0.007614322 -0.13455802
-1.0580593 0.0020784833 -0.16069488
-1.058619 -0.0064134919 -0.18884756
-1.0645614 0.014711958 -0.083318412
-1.0630985 0.0071945405 -0.11049099
-1.0575953 0.00062642619 -0.13572139
-1.0521224 -0.008923091 -0.16200551
-1.0731251 0.015328034 -0.060139075
-1.0666485 0.0067747589 -0.086423963
-1.0541356 -0.0018362287 -0.11082228
-1.0657307 -0.010252547 -0.14076756
-1.0796745 0.01491902 -0.036015674
-1.0732166 0.0063838325 -0.063300237
-1.0657214 -0.0021911208 -0.088604234
-1.0652704 -0.012704435 -0.11581209
-1.1072457 0.017621042 -0.013442941
-1.0777662 0.0059676394 -0.03921441
-1.0742931 -0.0035746959 -0.065460935
-1.0858773 -0.014008764 -0.094442606
-1.1228082 0.018262247 0.0098679364
-1.1023421 0.0076590655 -0.016716063
-1.0788429 -0.0039908886 -0.041375116
-1.0864316 -0.015439148 -0.070449978
-1.1423286 0.019881461 0.035271309
-1.1349015 0.0083612818 0.0069142506
-1.1144431 -0.0042415578 -0.019705772
-1.1070012 -0.016779656 -0.047081195
-1.1458559 0.020443412 0.060356021
-1.1394325 0.0079270005 0.03199973
-1.1359898 -0.0045967386 0.0046994761
-1.1075594 -0.019209865 -0.023106568
-1.1603771 0.022044688 0.085665442
-1.1539578 0.0085284384 0.057291135
-1.1345258 -0.0060523883 0.029654201
-1.1401229 -0.019507479 0.00050572306
-1.1678849 0.022602914 0.11182497
-1.1544894 0.0080797998 0.082301453
-1.1480365 -0.0064724595 0.055908456
-1.1586591 -0.021891173 0.025818236
-1.1843685 0.024175176 0.1391713
-1.1819749 0.0086917086 0.10983646
-1.1475911 -0.0079064239 0.079882309
-0.02611593 -0.059798401 0.050936799
-1.1748835 0.02367256 0.16499338
-1.1844687 0.0082140714 0.13688368
-1.1720809 -0.0083051054 0.10734291
-0.02611593 -0.059798401 0.050936799
-1.2053231 0.026258726 0.1946201
-1.1979569 0.0087757492 0.16415562
-0.02611593 -0.059798401 0.050936799
-0.02611593 -0.059798401 0.050936799
-0.02611593 -0.059798401 0.050936799
-1.21143 0.0083194999 0.19240919
-0.02611593 -0.059798401 0.050936799
-0.02611593 -0.059798401 0.050936799
-1.2252214 0.028284414 0.25304911
-0.02611593 -0.059798401 0.050936799
-0.02611593 -0.059798401 0.050936799
-0.02611593 -0.059798401 0.050936799
-0.02611593 -0.059798401 0.050936799
-1.2263373 0.0083275884 0.25070822
-0.02611593 -0.059798401 0.050936799
-0.02611593 -0.059798401 0.050936799
-0.02611593 -0.059798401 0.050936799
-1.2507296 0.0088382922 0.28318512
-1.2354182 -0.012636544 0.25049892
-1.2221103 -0.035104029 0.21783227
-1.2773906 0.032740649 0.35013935
-1.2840415 0.010308763 0.31984785
-0.02611593 -0.059798401 0.050936799
-0.02611593 -0.059798401 0.050936799
-0.02611593 -0.059798401 0.050936799
-0.02611593 -0.059798401 0.050936799
-0.02611593 -0.059798401 0.050936799
-0.02611593 -0.059798401 0.050936799
-6.2171035 0.4034889 1.8328331
-0.02611593 -0.059798401 0.050936799
-0.02611593 -0.059798401 0.050936799
-0.02611593 -0.059798401 0.050936799
-3.0849104 0.17005119 1.005687
-3.1432779 0.1113694 0.94469762
-0.02611593 -0.059798401 0.050936799
-1.2777454 -0.043192159 0.34577096
-3.1142941 0.17362404 1.0913308
-3.0831997 0.10609109 1.002497
-6.2460542 0.15059626 1.8307998
-0.02611593 -0.059798401 0.050936799
-3.1773636 0.17902912 1.193644
-3.1155567 0.10663901 1.0901424
-3.08444 0.040087804 1.0023261
-6.225801 -0.00030870549 1.8196871
-3.2483304 0.18637216 1.301142
-3.1835997 0.10902639 1.1944948
-3.1098325 0.036629386 1.0887682
-3.0857382 -0.035895683 1.0009755
-3.3132455 0.19263954 1.4115082
-3.2505867 0.11135589 1.3018275
-3.1838341 0.034984708 1.1961604
-3.1190856 -0.042379145 1.090513
-3.3929071 0.20072527 1.5351878
-3.3164766 0.11459121 1.4141577
-3.2607563 0.034278266 1.3076257
-3.1821609 -0.048008356 1.1946273
-3.4794364 0.20870948 1.6659967
-3.3991387 0.11767046 1.5388033
-3.3167088 0.031514883 1.4176606
-3.2650266 -0.053764768 1.3101138
-4.7814064 0.31251594 2.4055014
-3.4886119 0.12059394 1.6735772
-3.4053106 0.030544 1.5463455
-3.3338614 -0.060607441 1.4273186
-4.6640439 0.30574384 2.4782062
-4.7648897 0.18545845 2.4038935
-3.4898231 0.028468473 1.6799355
-3.4055793 -0.066548042 1.5505955
-4.5972052 0.30271989 2.5759332
-4.6484933 0.17765391 2.4785981
-4.7621579 0.055234637 2.4144902
-3.4979978 -0.073702529 1.6902438
-3.4473543 0.21381624 2.0416157
-4.6083503 0.17443743 2.5928271
-4.6259174 0.046503183 2.480804
-4.9309092 -0.088849396 2.5100758
-4.6484632 0.31244096 2.8801718
-3.4386175 0.11367432 2.0466423
-4.6233644 0.041025486 2.6177034
-4.7004733 -0.097162053 2.5326188
-3.5165486 0.22350292 2.2961729
-4.6308661 0.1722554 2.8853085
-3.4347794 0.010442328 2.0577068
-4.8146448 -0.10844545 2.7396224
-4.415957 0.30012071 3.0136411
-3.3348849 0.10563551 2.1926043
-4.6042647 0.029020034 2.8912215
-3.356777 -0.10129756 2.0252142
-4.3007431 0.29350048 3.0783863
-4.401237 0.1578197 3.0257957
-3.2430375 -0.001992505 2.1509237
-3.2500253 -0.10643705 2.0651362
-2.6028938 0.15491123 1.9627129
-3.2577796 0.10034939 2.3581214
-4.3726201 0.013559207 3.0326526
-3.199631 -0.11298683 2.1400995
-2.7460742 0.16883621 2.1647141
-2.6009028 0.066593409 1.9790835
-4.2622638 0.0048125312 3.105453
-3.1907086 -0.12089219 2.2438247
-3.993947 0.27765238 3.2804241
-2.7351911 0.072559781 2.1767728
-2.597882 -0.023763824 1.9973987
-2.6735749 -0.11715308 1.9791204
-3.9045897 0.27299848 3.3526912
-3.9731877 0.13127623 3.2953925
-4.0496488 -0.0095440969 3.24526
-2.5426104 -0.12062271 1.9766047
-1.9113482 0.10340196 1.7287543
-2.4066327 0.054644741 2.1002712
-2.6149998 -0.031450301 2.2056508
-2.4758108 -0.12465499 2.0192957
-1.8588226 0.10069109 1.7567313
-1.8945109 0.02922691 1.734099
-2.5717647 -0.03581249 2.2717848
-2.43662 -0.13096629 2.0834694
-1.8161602 0.098889321 1.7919118
-1.8458909 0.026439948 1.7671496
-1.8785985 -0.045016915 1.7434613
-1.9202077 -0.12054933 1.725868
-1.9549817 0.11345606 2.0128493
-1.8699459 0.027669575 1.8706572
-1.8299451 -0.048839878 1.778493
-1.8616872 -0.12428156 1.7537143
-2.1415167 0.13298565 2.3017931
-2.0331914 0.034748375 2.1239276
-1.9462308 -0.05097292 1.9776993
-1.8287126 -0.12835461 1.806041
-3.3344989 0.24596243 3.7296562
-2.245049 0.043685611 2.4511666
-2.1201162 -0.053232983 2.252007
-2.013658 -0.14155525 2.0793576
-3.2393899 0.24052228 3.7887974
-3.2907376 0.0914689 3.7460482
-3.3509631 -0.055661064 3.709502
-2.2315378 -0.15766457 2.4102578
-3.1463137 0.23612535 3.8459947
-3.2034543 0.086894535 3.8143542
-3.2527609 -0.061202381 3.7735846
-3.3080752 -0.21629466 3.7338014
-3.0610826 0.2326123 3.9113574
-3.1093264 0.081439905 3.8745136
-3.1556187 -0.067685679 3.8346691
-3.2127495 -0.22395152 3.8049023
-2.9631197 0.22830597 3.9624627
-3.0083306 0.076086827 3.9275436
-3.0614157 -0.073212653 3.8988276
-3.1125889 -0.23046365 3.86693
-2.8739495 0.22383294 4.0247335
-2.9190705 0.07052353 3.9947948
-2.9632549 -0.079717621 3.9608932
-3.0094662 -0.2369504 3.9269023
-2.7857561 0.22034526 4.0880408
-2.8249762 0.066104926 4.0529733
-2.8680933 -0.086211823 4.023015
-2.9141924 -0.24355315 3.9950223
-2.69468 0.2159555 4.1452756
-2.7327914 0.060603224 4.116169
-2.7748716 -0.091753297 4.088191
-2.8169754 -0.25010878 4.0601058
-2.5996978 0.21164185 4.1974368
-2.6396592 0.056152038 4.1763649
-2.6787252 -0.097233176 4.1493125
-2.7178333 -0.25659928 4.1211524
-2.5134668 0.20812514 4.2627807
-2.5484705 0.051653758 4.2395978
-2.5855222 -0.10275654 4.2134895
-2.6196687 -0.26210442 4.1832361
-2.4204092 0.20374632 4.3189783
-2.4524364 0.046282403 4.2947211
-2.4883795 -0.10923985 4.2745743
-2.5214889 -0.26862749 4.2463017
-2.3283334 0.19935301 4.3761945
-2.3582859 0.041809537 4.3558984
-2.3931956 -0.11475231 4.3377137
-2.4231973 -0.27525908 4.3153644
-2.2400653 0.19579297 4.4435
-2.2641201 0.036318749 4.418057
-2.2921436 -0.12015969 4.3937435
-2.3279235 -0.28186181 4.3834839
-2.1479855 0.19239944 4.5007339
-2.1709504 0.031831384 4.4802532
-2.1978471 -0.1257771 4.4628992
-2.2286689 -0.28846085 4.4505296
-2.0539091 0.18799895 4.5579123
-2.0777247 0.027289741 4.5454473
-2.1016259 -0.13132933 4.5280199
-2.1246364 -0.29386088 4.5055027
-1.964679 0.18447152 4.6232004
-1.9835553 0.022798784 4.6076245
-2.0024948 -0.13580206 4.5881033
-2.0263448 -0.30049247 4.5745654
-1.0017581 0.066866562 2.5033259
-1.0293567 -0.018723955 2.5413074
-1.9052174 -0.14141215 4.6562033
-1.9260905 -0.30709508 4.641592
-0.91786844 0.060593773 2.4446218
-0.94623041 -0.02221073 2.4946721
-1.8050531 -0.14692447 4.7182488
-1.8189874 -0.3135781 4.7004895
-0.83799672 0.054353435 2.3849936
-0.85380244 -0.026063938 2.4108434
-1.7018931 -0.15344739 4.780221
-1.7137716 -0.32016245 4.7654223
-0.76868838 0.048736341 2.3485818
-0.77676862 -0.029438745 2.3593228
-1.6025186 -0.15815526 4.8532996
-1.6104431 -0.32684815 4.836391
-0.69951117 0.043245886 2.3051727
-0.70279425 -0.03374834 2.3048413
-1.4963965 -0.16465278 4.9132161
-1.5051486 -0.33250505 4.9053407
-0.63519794 0.038646579 2.268873
-1.3219547 -0.0092931837 4.7457032
-1.3940454 -0.17035317 4.9852209
-1.3988582 -0.33916533 4.9742537
-0.56649256 0.032608498 2.2004542
-1.2824073 -0.011770062 5.0410185
-1.2877884 -0.17597747 5.0521526
-1.2913994 -0.34599203 5.0521445
-0.50544107 0.028273202 2.1502159
-1.1789398 -0.016582757 5.1190205
-1.1794943 -0.18164513 5.1210451
-1.1772226 -0.35257256 5.1149092
-0.4573867 0.025029093 2.1532583
-1.0735853 -0.021294065 5.1909866
-1.0691072 -0.18741041 5.1948996
-1.0675583 -0.3596054 5.2037587
-0.44549596 0.030272491 2.3592005
-0.96423531 -0.027019575 5.2628603
-0.95666796 -0.19423696 5.271697
-0.95014286 -0.36743164 5.2794442
-0.38815886 0.02668006 2.3240499
-1.4616324 -0.010632083 9.2348156
-1.4320395 -0.30148533 9.1619759
-1.3983921 -0.59742439 9.0929689
-0.32922316 0.021460637 2.2678332
-1.1943922 -0.022235662 8.8214617
-1.1598312 -0.29701909 8.7438192
-1.1241922 -0.57589591 8.6710825
-0.26974088 0.015671942 2.1875875
-0.95146179 -0.03140121 8.4446201
-0.91285038 -0.29320121 8.367135
-0.8742801 -0.55596489 8.2876329
-0.22185509 0.012590632 2.1816332
-0.72807819 -0.040929101 8.0921459
-0.68654722 -0.28961548 8.0078421
-0.6430167 -0.53830898 7.9235001
-0.17564666 0.010208815 2.1927288
-0.52210701 -0.049953364 7.7710185
-0.47946906 -0.28569978 7.6899281
-0.43576419 -0.52352178 7.6127815
-0.38303131 0.17815277 7.5704722
-0.33356309 -0.057456002 7.4802537
-0.28886354 -0.28222957 7.4003239
-0.24139312 -0.50779665 7.3083234
-0.20818704 0.16037644 7.2977848
-0.1576423 -0.065273769 7.2097263
-0.11109105 -0.27987534 7.1199427
-0.064648211 -0.49336854 7.024179
-0.047807962 0.14414716 7.0534058
0.0058129728 -0.071551725 6.9674706
0.052231073 -0.27699199 6.8688521
0.10096707 -0.48274696 6.78719
0.10172686 0.12881242 6.8172483
0.15645784 -0.077963911 6.7354555
0.20398599 -0.27448168 6.6409793
0.25155553 -0.47003579 6.5485191
0.24258944 0.11520214 6.5982909
0.29633334 -0.083553866 6.5156612
0.34579891 -0.2719897 6.4162931
0.39566159 -0.45980561 6.3379354
0.37469709 0.10138904 6.3924975
0.43158811 -0.088487811 6.3159719
0.47911897 -0.26995388 6.2187662
0.53197515 -0.44974571 6.1384974
0.50028586 0.0901483 6.2118821
0.55582613 -0.093364194 6.1154895
0.6064254 -0.26687855 6.0203714
0.65727192 -0.43962821 5.9382668
0.61866212 0.077131987 6.0203652
0.67536479 -0.098512076 5.9310961
0.72499162 -0.26502401 5.836123
0.77790278 -0.43081823 5.7561059
0.72932863 0.065872736 5.8440299
0.78711462 -0.10283038 5.7578673
-0.02611593 -0.059798401 0.050936799
-0.02611593 -0.059798401 0.050936799
0.83728027 0.055352733 5.6827641
0.89407134 -0.10732971 5.5957284
0.17391065 -0.10085996 1.1758302
0.18442722 -0.1325503 1.1560534
-0.02611593 -0.059798401 0.050936799
-0.02611593 -0.059798401 0.050936799
0.1954011 -0.10045052 1.1484261
0.20590287 -0.13112295 1.1276675
1.0358355 0.036761805 5.3946123
1.0924075 -0.11466928 5.2937794
0.21696255 -0.10111324 1.1250024
0.22956541 -0.12988363 1.1092408
0.26899529 -0.0379062 1.3802581
0.28559953 -0.075725593 1.3662583
0.24075218 -0.1010004 1.1135552
0.2522991 -0.12971294 1.0948132
1.2153378 0.018293314 5.1038184
0.33484519 -0.077109829 1.4323337
0.26344842 -0.10079353 1.0971285
0.27284983 -0.12835434 1.0704448
1.3019606 0.010218658 4.9780078
0.3484678 -0.077842817 1.3590406
0.2861782 -0.10162265 1.082683
0.29777035 -0.1283717 1.0659763
1.3814725 0.0022776499 4.8463311
0.3655619 -0.078038976 1.3107005
0.3153187 -0.10287127 1.0901173
0.33207458 -0.1308009 1.0822958
1.4613025 -0.0059708804 4.7316484
0.40497753 -0.080594651 1.3329239
0.34229505 -0.10295008 1.0886103
0.35906965 -0.13089781 1.0817884
1.5371373 -0.013205223 4.6170592
0.37045938 -0.078082487 1.1455522
0.36928615 -0.10404681 1.0880849
0.39330289 -0.13225481 1.0941271
-0.02611593 -0.059798401 0.050936799
0.39845034 -0.079182804 1.145008
0.40355688 -0.10544 1.1024228
0.43064791 -0.13373113 1.1124073
0.44032082 -0.051031828 1.238765
0.4326649 -0.080521725 1.156347
0.45028952 -0.10832831 1.1415091
1.8425956 -0.34845352 4.117106
1.7467796 -0.033970445 4.2806444
1.8077674 -0.14165851 4.1935248
1.8617197 -0.24426809 4.1036286
1.9137031 -0.34388903 4.014823
1.8137321 -0.040281177 4.1722398
1.8685721 -0.14278579 4.0763264
1.9226152 -0.24146837 3.9905002
1.9808149 -0.33831033 3.9126327
1.8768355 -0.046722285 4.071908
1.9368024 -0.14535405 3.9819703
1.9887825 -0.24095762 3.8922374
2.043853 -0.33264494 3.806519
1.9410506 -0.053275511 3.977555
1.9980153 -0.14787909 3.8867466
2.0489366 -0.23940739 3.7931056
2.1091487 -0.3282398 3.7143447
2.0012708 -0.058814548 3.8832953
2.0591908 -0.15036798 3.7895234
2.119463 -0.23825485 3.7137792
2.1693704 -0.32374442 3.6182661
2.0594535 -0.064310238 3.7870741
2.1215382 -0.1520234 3.7012959
2.1797063 -0.23779491 3.619628
2.2296522 -0.31830338 3.5252042
2.1218603 -0.07003735 3.7027733
2.1798491 -0.15362829 3.6111448
2.2328281 -0.23518357 3.5186462
2.2930758 -0.31501755 3.4400475
2.1791744 -0.075656064 3.6135683
2.237119 -0.15619326 3.5189948
2.2942586 -0.2349081 3.4344726
2.3493168 -0.31052583 3.3450434
2.2334704 -0.081245922 3.5234203
2.2955194 -0.15888844 3.4338238
2.3506191 -0.2335425 3.3464119
2.4036748 -0.30513567 3.256093
2.2909155 -0.086991265 3.4412131
2.3529804 -0.16063446 3.3516886
2.4049988 -0.23218784 3.2593892
2.4621553 -0.30188611 3.1740294
2.3453839 -0.091744095 3.3600798
2.4013119 -0.16222155 3.2627246
2.4604907 -0.23094527 3.178345
2.5186584 -0.29764766 3.0930204
2.3957555 -0.097391963 3.2740054
2.4608848 -0.1640833 3.1865499
2.5170195 -0.22974248 3.0992815
2.5690131 -0.29324296 3.0041273
2.4513173 -0.10223883 3.1978517
2.5133653 -0.16582945 3.1055081
2.5684557 -0.2284313 3.0153139
2.6275911 -0.28908402 2.9270794
2.5038047 -0.10700258 3.1177554
2.5617905 -0.16750699 3.0215428
2.6229813 -0.22822118 2.93627
2.6760023 -0.28472641 2.841223
2.5542886 -0.11275898 3.0376792
2.6173413 -0.17033613 2.9444253
2.6765299 -0.2270257 2.8582625
2.7325766 -0.28156012 2.7641947
2.6078923 -0.11663501 2.9635801
2.6668601 -0.1721077 2.8654394
2.7209113 -0.22563514 2.7714274
2.7749703 -0.27716291 2.6774514
2.659436 -0.12144944 2.886502
2.7133412 -0.17383233 2.7845106
2.7714972 -0.22446507 2.6954756
2.8275678 -0.27300057 2.6015162
2.7019291 -0.12517746 2.8066118
2.7680314 -0.17478482 2.7144458
2.8200469 -0.22325167 2.6175623
2.8740544 -0.26870811 2.5196955
2.7494552 -0.12995943 2.7286091
2.8094766 -0.17645533 2.6316113
2.860466 -0.22188292 2.5328016
2.9794881 -0.26956379 2.4886959
2.7990742 -0.13483906 2.6555672
2.8560328 -0.17825232 2.5546811
2.9648962 -0.22373483 2.5018022
3.019886 -0.26415953 2.4020078
2.8476746 -0.13969697 2.5815442
2.9543815 -0.18201001 2.5197599
3.0134077 -0.22248524 2.4218898
3.0734608 -0.26098248 2.325036
2.8972752 -0.14455849 2.5075026
3.0110674 -0.18396951 2.4496393
3.0599346 -0.22224638 2.3429961
3.1321287 -0.25791383 2.2529688
2.9875419 -0.15021476 2.4686971
3.0514936 -0.18561834 2.3658245
3.1125767 -0.22113778 2.2700057
3.1786523 -0.25365758 2.1731474
3.0300686 -0.15497878 2.3907881
3.1072359 -0.18762854 2.2987218
3.1581454 -0.21993169 2.1931484
3.2191586 -0.24936171 2.0924397
3.0827475 -0.1589236 2.3207068
3.148741 -0.18835348 2.2189043
3.2087505 -0.21877973 2.1181965
4.6592813 -0.32457942 2.8443708
3.1273112 -0.16373099 2.2447598
3.1962974 -0.19015405 2.1419556
3.2593365 -0.21760967 2.0422447
4.7241688 -0.31877652 2.7302225
3.1769302 -0.16861059 2.1717176
3.2560346 -0.19317842 2.0747592
4.6969371 -0.28227925 2.7644041
4.7880754 -0.3129881 2.6170921
3.2275491 -0.17349379 2.0986569
4.677722 -0.25084606 2.8003442
4.7658834 -0.28056237 2.6541069
4.5874634 -0.29474652 2.3700943
3.2842646 -0.17748912 2.0304997
4.7376394 -0.25207826 2.6891625
4.7651577 -0.27592888 2.5081546
4.6595745 -0.28918579 2.2678101
4.7146173 -0.23386361 2.7379398
4.8147149 -0.25553393 2.5866222
4.6565452 -0.26702553 2.3152838
4.9949017 -0.296785 2.2833996
4.7816858 -0.23928307 2.6355515
4.6243081 -0.24656188 2.3522701
4.6842976 -0.26396266 2.1947787
5.0829682 -0.29224536 2.1787975
4.5881257 -0.23617259 2.3941495
4.7055135 -0.25015855 2.2566521
5.0517941 -0.27485713 2.2197094
5.1387644 -0.28631967 2.0598197
-0.02611593 -0.059798401 0.050936799
5.0306873 -0.26359421 2.2653239
5.1226988 -0.27411106 2.1073573
13.58782 -0.63607824 4.9742913
4.9442325 -0.2577714 2.2940576
5.0925484 -0.26477933 2.1511054
13.502095 -0.61084723 5.0913935
13.782332 -0.6224975 4.6777954
5.0646172 -0.26670617 2.2086132
5.1534057 -0.26696068 2.0368881
13.704638 -0.60836565 4.7985463
13.973756 -0.60781562 4.3763747
5.1244359 -0.27386498 2.0933247
13.614913 -0.60720664 4.9202886
13.882022 -0.60463172 4.497191
14.174081 -0.5940755 4.0697689
13.532569 -0.63353854 5.0674038
13.807385 -0.61365151 4.6254687
14.090508 -0.60211742 4.2012324
14.380391 -0.57933897 3.7620685
13.724125 -0.65210438 4.7793841
13.99478 -0.62100583 4.3267255
14.292793 -0.59838271 3.8944087
14.550445 -0.56422001 3.4410493
13.902436 -0.67138821 4.4785948
14.198186 -0.62943554 4.0286636
14.481986 -0.59451097 3.5828309
13.831916 -0.51822066 2.9321616
14.088806 -0.6897552 4.1806722
14.405424 -0.63771683 3.72153
14.278423 -0.57642895 3.1788323
13.200324 -0.47846976 2.4735503
14.3002 -0.7102477 3.884243
14.599592 -0.64487916 3.4106593
13.406659 -0.53464448 2.659734
12.744974 -0.44559419 2.0805371
14.490285 -0.7293576 3.5712323
13.640136 -0.60611254 2.8561363
12.737348 -0.50204539 2.2177052
12.255042 -0.41299099 1.7101742
14.701513 -0.74968725 3.2658067
13.077031 -0.58314556 2.4259489
12.110923 -0.47146523 1.8228528
11.776591 -0.38189745 1.3655777
13.438136 -0.69985795 2.6631572
12.454245 -0.55825317 2.0129194
11.570239 -0.44493121 1.4673353
11.293489 -0.35312924 1.0400326
12.78191 -0.67843032 2.2276835
11.832026 -0.53290355 1.6298978
11.09419 -0.42125967 1.1455675
6.0137005 -0.20748946 0.43631425
12.265635 -0.66245961 1.8425082
11.289584 -0.51161468 1.2883232
6.0978942 -0.25411829 0.50791878
6.0641046 -0.20116597 0.29643756
11.684781 -0.642636 1.4796187
6.1981511 -0.30789378 0.5840947
5.974072 -0.24591725 0.35733435
6.0494189 -0.19150119 0.15183833
11.499196 -0.64158058 1.1840122
6.0001693 -0.30026415 0.42588592
6.0024638 -0.24351412 0.21779896
3.877836 -0.13868502 0.025408726
6.0914655 -0.37311268 0.50788665
6.0575361 -0.30296427 0.28571546
3.8934927 -0.17651038 0.067445613
3.9511073 -0.13529032 -0.067933351
5.966619 -0.37090701 0.3572129
6.0468526 -0.30234849 0.14287822
3.8797803 -0.17280345 -0.024261683
3.6126878 -0.12361717 -0.14241131
5.9979563 -0.37749508 0.2164593
3.8714221 -0.21554185 0.01813608
3.6252627 -0.16335908 -0.10435274
3.6740177 -0.12023369 -0.23252892
3.8811336 -0.26845166 0.066013396
-0.02611593 -0.059798401 0.050936799
-0.02611593 -0.059798401 0.050936799
3.7682149 -0.11584219 -0.33024621
-0.02611593 -0.059798401 0.050936799
3.6122534 -0.20549469 -0.14988679
4.1092777 -0.17138243 -0.31963292
3.800498 -0.11130052 -0.42279986
3.6518729 -0.26143932 -0.1066259
-0.02611593 -0.059798401 0.050936799
3.7980735 -0.16102308 -0.3826403
1.9357237 -0.083295777 -0.23831718
3.6851728 -0.26695383 -0.19637953
-0.02611593 -0.059798401 0.050936799
3.8502471 -0.15946223 -0.48062208
4.0483484 -0.10422602 -0.64738846
-0.02611593 -0.059798401 0.050936799
3.8079231 -0.21414892 -0.43380302
-0.02611593 -0.059798401 0.050936799
3.4366682 -0.09219411 -0.62671149
3.8095706 -0.27900991 -0.38699126
1.9404091 -0.13921376 -0.24441847
4.0192199 -0.15822981 -0.69683671
4.0208082 -0.092686243 -0.83772856
4.3394141 -0.31309494 -0.55358446
4.2410612 -0.23217693 -0.69332665
3.5750637 -0.14536688 -0.7032904
3.3857837 -0.082201131 -0.78163052
4.31847 -0.31616274 -0.65628254
3.4898891 -0.20204361 -0.6477021
3.5116975 -0.14180611 -0.77606428
3.4568539 -0.077600464 -0.88591325
4.034483 -0.30209994 -0.70872897
3.9264166 -0.22041757 -0.83327031
3.4782135 -0.13824448 -0.85539979
2.6545372 -0.07013651 -0.73670614
3.4071167 -0.26823142 -0.67535907
3.3612053 -0.19696884 -0.79024929
3.7043808 -0.14138831 -1.0077428
2.5508754 -0.066098064 -0.77170414
3.3636751 -0.26868749 -0.75157982
3.5247808 -0.20428383 -0.91948807
2.6148396 -0.11548223 -0.76479268
2.4373648 -0.062168449 -0.79851693
3.5292263 -0.28200865 -0.88096416
3.7010684 -0.212374 -1.063984
2.3909376 -0.10971534 -0.75849426
-0.02611593 -0.059798401 0.050936799
3.7433636 -0.2981253 -1.0323162
3.5909395 -0.2078618 -1.1238606
2.416585 -0.10850983 -0.83097714
0.18832803 -0.059108395 -0.034094501
3.6331558 -0.29454055 -1.0962096
3.4937854 -0.20437798 -1.1849995
-0.02611593 -0.059798401 0.050936799
-0.02611593 -0.059798401 0.050936799
2.0316439 -0.19330497 -0.648242
-0.02611593 -0.059798401 0.050936799
0.18427558 -0.063057184 -0.036090732
0.16431369 -0.059004169 -0.034643196
3.4676206 -0.29147738 -1.2301003
0.19125468 -0.068081453 -0.036312357
-0.02611593 -0.059798401 0.050936799
-0.02611593 -0.059798401 0.050936799
-0.02611593 -0.059798401 0.050936799
-0.02611593 -0.059798401 0.050936799
0.15530355 -0.061971355 -0.034528136
0.1403368 -0.058936127 -0.033192556
0.17925595 -0.073055618 -0.035177313
0.16624446 -0.066973813 -0.036824241
-0.02611593 -0.059798401 0.050936799
-0.02611593 -0.059798401 0.050936799
-0.02611593 -0.059798401 0.050936799
-0.02611593 -0.059798401 0.050936799
0.14124994 -0.06186685 -0.037264053
0.12530209 -0.058846112 -0.034910016
0.15722646 -0.07194066 -0.03674522
0.14819157 -0.066854939 -0.039484996
-0.02611593 -0.059798401 0.050936799
-0.02611593 -0.059798401 0.050936799
-0.02611593 -0.059798401 0.050936799
-0.02611593 -0.059798401 0.050936799
0.11929141 -0.061824065 -0.034851328
0.10832393 -0.05880319 -0.033590928
0.13623424 -0.07086546 -0.036332604
0.13019881 -0.065790512 -0.039128754
-0.02611593 -0.059798401 0.050936799
-0.02611593 -0.059798401 0.050936799
-0.02611593 -0.059798401 0.050936799
-0.02611593 -0.059798401 0.050936799
0.10627899 -0.0607595 -0.0355887
0.10025443 -0.057702292 -0.037421227
0.11427962 -0.069822848 -0.033901874
0.11222082 -0.065743998 -0.037790865
-0.02611593 -0.059798401 0.050936799
-0.02611593 -0.059798401 0.050936799
-0.02611593 -0.059798401 0.050936799
-0.02611593 -0.059798401 0.050936799
0.091319181 -0.060741842 -0.033307526
0.087275535 -0.057673726 -0.036177292
0.10720602 -0.069725372 -0.037768982
0.096246384 -0.064704835 -0.036472537
-0.02611593 -0.059798401 0.050936799
-0.02611593 -0.059798401 0.050936799
-0.02611593 -0.059798401 0.050936799
-0.02611593 -0.059798401 0.050936799
0.080302477 -0.060684271 -0.03410048
0.076296262 -0.057652339 -0.034970928
0.093212508 -0.068675295 -0.037487898
0.086229496 -0.064650856 -0.037284292
-0.02611593 -0.059798401 0.050936799
-0.02611593 -0.059798401 0.050936799
-0.02611593 -0.059798401 0.050936799
-0.02611593 -0.059798401 0.050936799
0.070308223 -0.059648551 -0.033894558
0.063354805 -0.05765995 -0.031727664
0.078275345 -0.067675911 -0.034189027
0.07721635 -0.063600637 -0.038096815
-0.02611593 -0.059798401 0.050936799
-0.02611593 -0.059798401 0.050936799
-0.02611593 -0.059798401 0.050936799
-0.02611593 -0.059798401 0.050936799
0.058366597 -0.059659757 -0.030670092
0.05339409 -0.057660237 -0.029540442
0.070239358 -0.067611016 -0.036038037
0.067218177 -0.063564748 -0.037908912
-0.02611593 -0.059798401 0.050936799
-0.02611593 -0.059798401 0.050936799
-0.02611593 -0.059798401 0.050936799
-0.02611593 -0.059798401 0.050936799
0.05431116 -0.059591129 -0.033593908
0.050319746 -0.057577115 -0.033482708
0.061241012 -0.067578718 -0.03586892
0.058219828 -0.063532449 -0.037739795
-0.02611593 -0.059798401 0.050936799
-0.02611593 -0.059798401 0.050936799
-0.02611593 -0.059798401 0.050936799
-0.02611593 -0.059798401 0.050936799
0.049255904 -0.059518918 -0.036498949
0.044302121 -0.057537489 -0.034369629
0.053227682 -0.066532083 -0.036700238
0.052183475 -0.063474737 -0.039626379
-0.02611593 -0.059798401 0.050936799
-0.02611593 -0.059798401 0.050936799
-0.02611593 -0.059798401 0.050936799
-0.02611593 -0.059798401 0.050936799
0.042257186 -0.059493795 -0.036367413
0.040250614 -0.056469038 -0.037275434
0.046228964 -0.066506967 -0.036568705
0.042245407 -0.062493287 -0.036421467
-0.02611593 -0.059798401 0.050936799
-0.02611593 -0.059798401 0.050936799
-0.02611593 -0.059798401 0.050936799
-0.02611593 -0.059798401 0.050936799
0.034296095 -0.059501261 -0.034217764
0.034251709 -0.056447502 -0.037162691
0.039230239 -0.066481844 -0.036437169
0.037208878 -0.062439162 -0.038326833
-0.02611593 -0.059798401 0.050936799
-0.02611593 -0.059798401 0.050936799
-0.02611593 -0.059798401 0.050936799
-0.02611593 -0.059798401 0.050936799
-0.02611593 -0.059798401 0.050936799
0.027290434 -0.056458563 -0.03503184
0.032250244 -0.06647481 -0.035305977
0.032172345 -0.062385041 -0.040232208
-0.02611593 -0.059798401 0.050936799
-0.02611593 -0.059798401 0.050936799
-0.02611593 -0.059798401 0.050936799
-0.02611593 -0.059798401 0.050936799
0.024264408 -0.058429364 -0.036011167
0.022272628 -0.056422528 -0.035937544
0.027236363 -0.065438941 -0.036193669
0.023267603 -0.062443182 -0.035064787
-0.02611593 -0.059798401 0.050936799
-0.02611593 -0.059798401 0.050936799
-0.02611593 -0.059798401 0.050936799
-0.02611593 -0.059798401 0.050936799
-0.02611593 -0.059798401 0.050936799
-0.02611593 -0.059798401 0.050936799
0.021237461 -0.065417409 -0.036080923
0.019230887 -0.062392652 -0.036988944
-0.02611593 -0.059798401 0.050936799
-0.02611593 -0.059798401 0.050936799
-0.02611593 -0.059798401 0.050936799
-0.02611593 -0.059798401 0.050936799
-0.02611593 -0.059798401 0.050936799
-0.02611593 -0.059798401 0.050936799
0.017200753 -0.065366872 -0.03800508
0.015194179 -0.062342118 -0.038913108
-0.02611593 -0.059798401 0.050936799
-0.02611593 -0.059798401 0.050936799
-0.02611593 -0.059798401 0.050936799
-0.02611593 -0.059798401 0.050936799
-0.02611593 -0.059798401 0.050936799
-0.02611593 -0.059798401 0.050936799
-0.02611593 -0.059798401 0.050936799
-0.02611593 -0.059798401 0.050936799
-0.02611593 -0.059798401 0.050936799
-0.02611593 -0.059798401 0.050936799
-0.02611593 -0.059798401 0.050936799
-0.02611593 -0.059798401 0.050936799
-0.02611593 -0.059798401 0.050936799
-0.02611593 -0.059798401 0.050936799
-0.02611593 -0.059798401 0.050936799
-0.02611593 -0.059798401 0.050936799
-0.02611593 -0.059798401 0.050936799
-0.02611593 -0.059798401 0.050936799
-0.02611593 -0.059798401 0.050936799
-0.02611593 -0.059798401 0.050936799
-0.02611593 -0.059798401 0.050936799
-0.02611593 -0.059798401 0.050936799
-0.02611593 -0.059798401 0.050936799
-0.02611593 -0.059798401 0.050936799
-0.02611593 -0.059798401 0.050936799
-0.02611593 -0.059798401 0.050936799
-0.02611593 -0.059798401 0.050936799
-0.02611593 -0.059798401 0.050936799
-0.02611593 -0.059798401 0.050936799
-0.02611593 -0.059798401 0.050936799
-0.02611593 -0.059798401 0.050936799
-0.02611593 -0.059798401 0.050936799
-0.02611593 -0.059798401 0.050936799
-0.02611593 -0.059798401 0.050936799
-0.02611593 -0.059798401 0.050936799
-0.02611593 -0.059798401 0.050936799
-0.02611593 -0.059798401 0.050936799
-0.02611593 -0.059798401 0.050936799
-0.02611593 -0.059798401 0.050936799
-0.02611593 -0.059798401 0.050936799
-0.02611593 -0.059798401 0.050936799
-0.02611593 -0.059798401 0.050936799
-0.02611593 -0.059798401 0.050936799
-0.02611593 -0.059798401 0.050936799
-0.02611593 -0.059798401 0.050936799
-0.02611593 -0.059798401 0.050936799
-0.02611593 -0.059798401 0.050936799
-0.02611593 -0.059798401 0.050936799
-0.02611593 -0.059798401 0.050936799
-0.02611593 -0.059798401 0.050936799
-0.02611593 -0.059798401 0.050936799
-0.02611593 -0.059798401 0.050936799
-0.02611593 -0.059798401 0.050936799
-0.02611593 -0.059798401 0.050936799
-0.02611593 -0.059798401 0.050936799
-0.02611593 -0.059798401 0.050936799
-0.02611593 -0.059798401 0.050936799
-0.02611593 -0.059798401 0.050936799
-0.02611593 -0.059798401 0.050936799
-0.02611593 -0.059798401 0.050936799
-0.02611593 -0.059798401 0.050936799
-0.02611593 -0.059798401 0.050936799
-0.02611593 -0.059798401 0.050936799
-0.02611593 -0.059798401 0.050936799
-0.02611593 -0.059798401 0.050936799
-0.02611593 -0.059798401 0.050936799
-0.02611593 -0.059798401 0.050936799
-0.02611593 -0.059798401 0.050936799
-0.02611593 -0.059798401 0.050936799
-0.02611593 -0.059798401 0.050936799
-0.02611593 -0.059798401 0.050936799
-0.02611593 -0.059798401 0.050936799
-0.02611593 -0.059798401 0.050936799
-0.02611593 -0.059798401 0.050936799
-0.02611593 -0.059798401 0.050936799
-0.02611593 -0.059798401 0.050936799
-0.02611593 -0.059798401 0.050936799
-0.02611593 -0.059798401 0.050936799
-0.02611593 -0.059798401 0.050936799
-0.02611593 -0.059798401 0.050936799
-0.02611593 -0.059798401 0.050936799
-0.02611593 -0.059798401 0.050936799
-0.02611593 -0.059798401 0.050936799
-0.02611593 -0.059798401 0.050936799
-0.02611593 -0.059798401 0.050936799
-0.02611593 -0.059798401 0.050936799
-0.02611593 -0.059798401 0.050936799
-0.02611593 -0.059798401 0.050936799
-0.02611593 -0.059798401 0.050936799
-0.02611593 -0.059798401 0.050936799
-0.02611593 -0.059798401 0.050936799
-0.02611593 -0.059798401 0.050936799
-0.02611593 -0.059798401 0.050936799
-0.02611593 -0.059798401 0.050936799
-0.02611593 -0.059798401 0.050936799
-0.02611593 -0.059798401 0.050936799
-0.02611593 -0.059798401 0.050936799
-0.02611593 -0.059798401 0.050936799
-0.02611593 -0.059798401 0.050936799
-0.02611593 -0.059798401 0.050936799
-0.02611593 -0.059798401 0.050936799
-0.02611593 -0.059798401 0.050936799
-0.02611593 -0.059798401 0.050936799
-0.02611593 -0.059798401 0.050936799
-0.02611593 -0.059798401 0.050936799
-0.02611593 -0.059798401 0.050936799
-0.02611593 -0.059798401 0.050936799
-0.02611593 -0.059798401 0.050936799
-0.02611593 -0.059798401 0.050936799
-0.02611593 -0.059798401 0.050936799
-0.02611593 -0.059798401 0.050936799
-0.02611593 -0.059798401 0.050936799
-0.02611593 -0.059798401 0.050936799
-0.02611593 -0.059798401 0.050936799
-0.02611593 -0.059798401 0.050936799
-0.02611593 -0.059798401 0.050936799
-0.02611593 -0.059798401 0.050936799
-0.02611593 -0.059798401 0.050936799
-0.02611593 -0.059798401 0.050936799
-0.02611593 -0.059798401 0.050936799
-0.02611593 -0.059798401 0.050936799
-0.02611593 -0.059798401 0.050936799
-0.02611593 -0.059798401 0.050936799
-0.02611593 -0.059798401 0.050936799
-0.02611593 -0.059798401 0.050936799
-0.02611593 -0.059798401 0.050936799
-0.02611593 -0.059798401 0.050936799
-0.02611593 -0.059798401 0.050936799
-0.02611593 -0.059798401 0.050936799
-0.02611593 -0.059798401 0.050936799
-0.02611593 -0.059798401 0.050936799
-0.02611593 -0.059798401 0.050936799
-0.02611593 -0.059798401 0.050936799
-0.02611593 -0.059798401 0.050936799
-0.02611593 -0.059798401 0.050936799
-0.02611593 -0.059798401 0.050936799
-0.02611593 -0.059798401 0.050936799
-0.02611593 -0.059798401 0.050936799
-0.02611593 -0.059798401 0.050936799
-0.02611593 -0.059798401 0.050936799
-0.02611593 -0.059798401 0.050936799
-0.02611593 -0.059798401 0.050936799
-0.02611593 -0.059798401 0.050936799
-0.02611593 -0.059798401 0.050936799
-0.02611593 -0.059798401 0.050936799
-0.02611593 -0.059798401 0.050936799
-0.02611593 -0.059798401 0.050936799
-0.02611593 -0.059798401 0.050936799
-0.02611593 -0.059798401 0.050936799
-0.02611593 -0.059798401 0.050936799
-0.02611593 -0.059798401 0.050936799
-0.069801137 -0.060019314 -0.038279537
-0.02611593 -0.059798401 0.050936799
-0.02611593 -0.059798401 0.050936799
-0.02611593 -0.059798401 0.050936799
-0.02611593 -0.059798401 0.050936799
-0.02611593 -0.059798401 0.050936799
-0.02611593 -0.059798401 0.050936799
-0.02611593 -0.059798401 0.050936799
-0.0747815 -0.06001946 -0.037185926
-0.02611593 -0.059798401 0.050936799
-0.02611593 -0.059798401 0.050936799
-0.02611593 -0.059798401 0.050936799
-0.02611593 -0.059798401 0.050936799
-0.075736016 -0.058052383 -0.035131771
-0.02611593 -0.059798401 0.050936799
-0.079736203 -0.063055269 -0.034147039
-0.078724593 -0.060059369 -0.034111779
-0.02611593 -0.059798401 0.050936799
-0.02611593 -0.059798401 0.050936799
-0.02611593 -0.059798401 0.050936799
-0.02611593 -0.059798401 0.050936799
-0.080716379 -0.058052529 -0.034038156
-0.02611593 -0.059798401 0.050936799
-0.086753644 -0.063012056 -0.035015166
-0.084723502 -0.060037836 -0.033999033
-0.02611593 -0.059798401 0.050936799
-0.02611593 -0.059798401 0.050936799
-0.02611593 -0.059798401 0.050936799
-0.02611593 -0.059798401 0.050936799
-0.084678203 -0.058074355 -0.031963669
-0.082674645 -0.057081699 -0.03198323
-0.09175273 -0.062994108 -0.034921214
-0.093815468 -0.059915088 -0.038828224
-0.02611593 -0.059798401 0.050936799
-0.02611593 -0.059798401 0.050936799
-0.02611593 -0.059798401 0.050936799
-0.02611593 -0.059798401 0.050936799
-0.090677112 -0.058052815 -0.031850927
-0.089692086 -0.05703849 -0.032851364
-0.097714186 -0.063008755 -0.032809153
-0.098777108 -0.059933323 -0.036734954
-0.02611593 -0.059798401 0.050936799
-0.02611593 -0.059798401 0.050936799
-0.02611593 -0.059798401 0.050936799
-0.02611593 -0.059798401 0.050936799
-0.096676007 -0.058031283 -0.031738184
-0.093635179 -0.057078399 -0.029777218
-0.1047129 -0.062983632 -0.032677617
-0.10779418 -0.059882935 -0.037565496
-0.02611593 -0.059798401 0.050936799
-0.02611593 -0.059798401 0.050936799
-0.02611593 -0.059798401 0.050936799
-0.02611593 -0.059798401 0.050936799
-0.10163765 -0.058049519 -0.02964491
-0.098615542 -0.057078544 -0.028683599
-0.11270751 -0.061955094 -0.032509275
-0.11171856 -0.059940934 -0.03349169
-0.02611593 -0.059798401 0.050936799
-0.02611593 -0.059798401 0.050936799
-0.02611593 -0.059798401 0.050936799
-0.02611593 -0.059798401 0.050936799
-0.10863637 -0.058024395 -0.029513378
-0.10868861 -0.056970298 -0.032494344
-0.12172458 -0.061904706 -0.033339821
-0.12177289 -0.059850778 -0.036302768
-0.02611593 -0.059798401 0.050936799
-0.02611593 -0.059798401 0.050936799
-0.02611593 -0.059798401 0.050936799
-0.02611593 -0.059798401 0.050936799
-0.11765345 -0.057974007 -0.030343916
-0.11363152 -0.05700662 -0.029401407
-0.13274522 -0.062846966 -0.034150802
-0.12973399 -0.059858244 -0.034153119
-0.02611593 -0.059798401 0.050936799
-0.02611593 -0.059798401 0.050936799
-0.02611593 -0.059798401 0.050936799
-0.02611593 -0.059798401 0.050936799
-0.12768906 -0.057901941 -0.032155342
-0.11755984 -0.058064453 -0.02534562
-0.1407024 -0.061854601 -0.031983141
-0.14075071 -0.059800681 -0.034946084
-0.02611593 -0.059798401 0.050936799
-0.02611593 -0.059798401 0.050936799
-0.02611593 -0.059798401 0.050936799
-0.02611593 -0.059798401 0.050936799
-0.14072412 -0.057819106 -0.033910386
-0.13366923 -0.057898492 -0.031042933
-0.15068184 -0.061836801 -0.030795567
-0.15377098 -0.060735762 -0.035719488
-0.02611593 -0.059798401 0.050936799
-0.02611593 -0.059798401 0.050936799
-0.02611593 -0.059798401 0.050936799
-0.02611593 -0.059798401 0.050936799
-0.15272586 -0.058775868 -0.033702917
-0.14163032 -0.057905961 -0.028893292
-0.16670156 -0.06276112 -0.031512603
-0.16069481 -0.060782995 -0.031589311
-0.02611593 -0.059798401 0.050936799
-0.02611593 -0.059798401 0.050936799
-0.02611593 -0.059798401 0.050936799
-0.02611593 -0.059798401 0.050936799
-0.15863113 -0.058844782 -0.028591871
-0.15364686 -0.057844806 -0.029667456
-0.18068026 -0.062728971 -0.030249871
-0.17972876 -0.060678624 -0.033231609
-0.02611593 -0.059798401 0.050936799
-0.02611593 -0.059798401 0.050936799
-0.02611593 -0.059798401 0.050936799
-0.02611593 -0.059798401 0.050936799
-0.17162876 -0.058798127 -0.028347593
-0.16764429 -0.05779456 -0.029404387
-0.1996768 -0.062660776 -0.029892851
-0.19874401 -0.06059235 -0.033874247
-0.02611593 -0.059798401 0.050936799
-0.02611593 -0.059798401 0.050936799
-0.02611593 -0.059798401 0.050936799
-0.02611593 -0.059798401 0.050936799
-0.19064401 -0.058711845 -0.028990224
-0.181623 -0.057762407 -0.02814167
-0.22167277 -0.062581822 -0.029479459
-0.21368511 -0.060592782 -0.03059341
-0.02611593 -0.059798401 0.050936799
-0.02611593 -0.059798401 0.050936799
-0.02611593 -0.059798401 0.050936799
-0.02611593 -0.059798401 0.050936799
-0.21064427 -0.059639897 -0.028632432
-0.20164199 -0.058672369 -0.02878353
-0.24866782 -0.06248492 -0.028972112
-0.23968035 -0.060499471 -0.030104857
-0.02611593 -0.059798401 0.050936799
-0.02611593 -0.059798401 0.050936799
-0.02611593 -0.059798401 0.050936799
-0.02611593 -0.059798401 0.050936799
-0.23865786 -0.059521317 -0.029105965
-0.22463779 -0.058589824 -0.028351348
-1.0502841 -0.071081474 -0.26519927
-0.26464227 -0.061445754 -0.02765378
-0.02611593 -0.059798401 0.050936799
-0.02611593 -0.059798401 0.050936799
-1.0518118 -0.070526704 -0.24015217
-0.02611593 -0.059798401 0.050936799
-0.25254691 -0.060579438 -0.022862948
-0.25263658 -0.059489165 -0.027843229
-1.0673931 -0.069867402 -0.21784094
-1.0607797 -0.067513004 -0.2389293
-0.02611593 -0.059798401 0.050936799
-0.02611593 -0.059798401 0.050936799
-1.074957 -0.069254912 -0.19468036
-1.0753837 -0.067839034 -0.21765457
-1.0536793 -0.065628909 -0.23402651
-1.0470741 -0.065274164 -0.25515091
-1.0784843 -0.06869296 -0.16959567
-1.0809106 -0.067269899 -0.1925323
-1.0672837 -0.06595853 -0.21277057
-1.0596823 -0.0666072 -0.23393178
-1.0920472 -0.06805893 -0.1463224
-1.0784242 -0.067747392 -0.1665787
-1.0718187 -0.06739264 -0.18770309
-1.0622176 -0.068048492 -0.20890191
-1.1026145 -0.068435498 -0.1231235
-1.086992 -0.068131134 -0.14341737
-1.0864267 -0.068718508 -0.16644639
-1.0647757 -0.070471518 -0.1848897
-1.1291938 -0.067736723 -0.10060559
-1.1115942 -0.068421289 -0.12195472
-1.1020157 -0.070058882 -0.14417121
-1.0974405 -0.072678342 -0.16631177
-1.1297216 -0.067185536 -0.075577259
-1.1211431 -0.068819538 -0.097774945
-1.1165863 -0.071420915 -0.12091516
-1.0939581 -0.074159257 -0.14039496
-1.1402477 -0.066598453 -0.050361007
-1.129692 -0.069221377 -0.073613964
-1.1271352 -0.07181558 -0.096716598
-1.1145691 -0.076463424 -0.11904351
-1.1307399 -0.066119321 -0.023521259
-1.1332233 -0.069659241 -0.048547268
-1.1236527 -0.073296495 -0.070799798
-1.1291435 -0.078825295 -0.095805481
-1.1472836 -0.065492623 0.00080806762
-1.138754 -0.070089936 -0.023443006
-1.1432223 -0.074640587 -0.047449805
-1.1376816 -0.081244886 -0.070680879
-1.1527919 -0.06494157 0.026930019
-1.1482842 -0.070506275 0.0017364249
-1.1497382 -0.076085612 -0.021345101
-1.1542372 -0.083617665 -0.046405606
-1.2033104 -0.064210944 0.052897878
-1.164813 -0.07089749 0.027047388
-1.1622717 -0.077491015 0.0038726851
-1.1577721 -0.085055381 -0.021356948
-0.02611593 -0.059798401 0.050936799
-1.1923211 -0.071267307 0.053564716
-1.1818038 -0.078871295 0.029222008
-0.02611593 -0.059798401 0.050936799
-1.2023141 -0.064169832 0.10589794
-1.204832 -0.071690969 0.079800181
-1.2123153 -0.080230184 0.055777684
-1.2068276 -0.090797618 0.030475207
-1.2127839 -0.063637011 0.13411316
-1.2203088 -0.073139876 0.10807332
-1.2078333 -0.081714682 0.081675693
-0.02611593 -0.059798401 0.050936799
-1.2182734 -0.063104056 0.16123477
-1.2218028 -0.073621102 0.13510175
-1.2213104 -0.083170764 0.10991125
-1.2228481 -0.095694654 0.083704613
-1.2207447 -0.06259995 0.18929967
-1.2252778 -0.074113235 0.16316742
-1.2187904 -0.084684268 0.13784616
-1.2193322 -0.098211572 0.11160271
-1.2341765 -0.062092546 0.21957058
-1.2317336 -0.074612699 0.19228913
-1.2312678 -0.086143933 0.16606294
-1.2727764 -0.10255975 0.14253515
-1.2326486 -0.061602797 0.24756034
-1.2342088 -0.075108424 0.22033602
-1.2576903 -0.088607453 0.19752371
-0.02611593 -0.059798401 0.050936799
-0.02611593 -0.059798401 0.050936799
-0.02611593 -0.059798401 0.050936799
-0.02611593 -0.059798401 0.050936799
-1.2826854 -0.10758686 0.2016498
-0.02611593 -0.059798401 0.050936799
-1.2750069 -0.077115223 0.2850855
-1.2755566 -0.092642181 0.25880602
-0.02611593 -0.059798401 0.050936799
-1.2877953 -0.061171301 0.34663424
-1.2684649 -0.077661335 0.31396294
-0.02611593 -0.059798401 0.050936799
-0.02611593 -0.059798401 0.050936799
-0.02611593 -0.059798401 0.050936799
-0.02611593 -0.059798401 0.050936799
-0.02611593 -0.059798401 0.050936799
-0.02611593 -0.059798401 0.050936799
-6.2432075 -0.066091761 1.8108201
-1.5251491 -0.082937993 0.44071624
-0.02611593 -0.059798401 0.050936799
-0.02611593 -0.059798401 0.050936799
-3.0929556 -0.062757432 0.99462259
-3.1451869 -0.11055308 0.93871701
-1.5162076 -0.10700238 0.44211403
-0.02611593 -0.059798401 0.050936799
-3.1044471 -0.062158242 1.0748758
-3.0850744 -0.11185016 0.99758798
-3.1392424 -0.16271047 0.94566458
-1.4863939 -0.13403311 0.43706518
-3.1745167 -0.061745264 1.1782302
-3.120424 -0.11430904 1.0862354
-3.0791378 -0.16600725 1.0044996
-3.1343598 -0.22584434 0.95143306
-3.2504499 -0.060437545 1.288713
-3.1805296 -0.11791319 1.1883302
-3.1254075 -0.17251641 1.0982798
-3.0752215 -0.23017351 1.0122682
-3.3104086 -0.060168989 1.3978775
-3.2564638 -0.1216227 1.2997226
-3.193471 -0.18014543 1.2034519
-3.1324489 -0.24069677 1.1091821
-3.3960631 -0.060096547 1.523525
-3.3174005 -0.12538606 1.410833
-3.2554798 -0.18785022 1.3115102
-3.2074556 -0.25337219 1.218394
-3.482605 -0.060129054 1.6551894
-3.4090173 -0.13034551 1.5395023
-3.3263369 -0.19566746 1.4277347
-3.2714233 -0.2651234 1.3294169
-4.7919221 -0.059334215 2.3959689
-3.486614 -0.13437346 1.668926
-3.4218979 -0.20568405 1.5603876
-3.3512087 -0.27899778 1.4507008
-4.6636081 -0.059074663 2.4645944
-5.0942211 -0.17420506 2.5646079
-3.4935338 -0.2147146 1.688609
-3.4417756 -0.29504937 1.5841514
-4.5977397 -0.059113607 2.5633938
-4.9667273 -0.17612249 2.6432128
-5.071382 -0.29557452 2.5789897
-3.5114129 -0.30910432 1.7132446
-4.7396574 -0.059497364 2.7821181
-4.854156 -0.17805842 2.7260981
-4.9478393 -0.29953152 2.6606326
-3.4193702 -0.31246164 1.7684793
-3.3209441 -0.06008153 2.061301
-3.3900971 -0.14602678 2.0170262
-4.8233533 -0.30343786 2.7392578
-3.3303456 -0.31579012 1.8227707
-3.2834637 -0.059640106 2.1396339
-3.2734406 -0.14609446 2.0508523
-4.7039042 -0.30729002 2.8159778
-3.2334723 -0.3190026 1.8689146
-3.2420068 -0.060194775 2.2168739
-3.2211432 -0.14854357 2.1198523
-4.5894341 -0.31114236 2.8937912
-3.1465559 -0.32121551 1.9172636
-3.2577863 -0.060265027 2.3352082
-3.2231469 -0.1524644 2.2268553
-3.5540388 -0.26163867 2.3631217
-3.0824039 -0.32658052 1.9789864
-2.6263819 -0.061313182 1.9782467
-3.3277395 -0.16036814 2.4107327
-3.4649396 -0.2650395 2.4214118
-3.0044708 -0.32977909 2.0284863
-2.6493101 -0.061213594 2.0887151
-2.5818729 -0.14129828 1.9669626
-3.3186626 -0.26485309 2.4346809
-2.9275603 -0.33395579 2.076987
-2.4800754 -0.062118068 2.0465159
-2.5003076 -0.14214973 1.99643
-4.1351595 -0.32696193 3.1730947
-2.8467214 -0.33707464 2.1214323
-2.4340501 -0.062274635 2.1006696
-2.455271 -0.14432047 2.0515664
-2.7928381 -0.24671556 2.2571039
-2.7935486 -0.34241828 2.1843615
-1.9059826 -0.062609434 1.72665
-2.4318748 -0.14675593 2.1261094
-2.7337744 -0.25097236 2.31394
-2.6999516 -0.34434885 2.2155848
-1.8564111 -0.063346058 1.7567188
-1.8920275 -0.13086519 1.7371576
-1.9237235 -0.19932616 1.7135047
-2.6310585 -0.34847876 2.2632363
-1.8304194 -0.063394666 1.8092492
-1.8414376 -0.13162348 1.7682073
-1.8750808 -0.20113137 1.7475729
-1.9097289 -0.27665272 1.7278488
-1.9996991 -0.065292805 2.06247
-1.9087257 -0.1379945 1.9144014
-1.8264235 -0.20395449 1.7826228
-1.8512044 -0.27938509 1.7557131
-2.1960671 -0.065959059 2.3642368
-2.0906117 -0.15026033 2.1906786
-1.9830197 -0.22366108 2.0222795
-1.8978499 -0.29452243 1.8843563
-3.3256335 -0.0711281 3.7297547
-2.2789719 -0.16300751 2.4950778
-2.1804631 -0.24833776 2.3246324
-2.0700035 -0.32663986 2.1500885
-3.2285278 -0.072557986 3.7879307
-3.2818029 -0.21765915 3.7482898
-3.3379846 -0.36284 3.7137036
-3.3873746 -0.51788139 3.6698089
-3.1403079 -0.074064098 3.8522735
-3.1905355 -0.22122997 3.8155389
-3.2417779 -0.3673743 3.7778423
-3.2979538 -0.52560717 3.7460208
-3.0442433 -0.076454036 3.9084504
-3.0914903 -0.22361258 3.8706601
-3.145571 -0.37190861 3.8419807
-3.2006993 -0.53219903 3.8131034
-2.9511368 -0.077869564 3.9667013
-3.0002789 -0.22712912 3.9349108
-3.0425384 -0.37730503 3.8969724
-3.0966105 -0.53765339 3.8710756
-2.8609774 -0.08032842 4.0279899
-2.905143 -0.23058766 3.9950874
-2.9512937 -0.38185763 3.9632044
-3.0003746 -0.54422349 3.9371774
-2.770833 -0.081769355 4.0882959
-2.8100486 -0.23500983 4.0532465
-2.8580155 -0.38745332 4.0313797
-2.9041758 -0.55075747 4.0012798
-2.6777117 -0.084202789 4.1475286
-2.7207994 -0.23855537 4.119534
-2.7619064 -0.39289707 4.0905018
-2.8059959 -0.55728054 4.0643449
-2.5885522 -0.086658068 4.2088366
-2.6276636 -0.24200675 4.1797481
-2.6657412 -0.39839503 4.1526232
-2.7097449 -0.56486863 4.1314287
-2.4964497 -0.089069828 4.2670879
-2.5315881 -0.24641442 4.2368889
-2.5706134 -0.40385324 4.2127633
-2.609622 -0.57134461 4.1914568
-2.404309 -0.091517761 4.3273387
-2.4413431 -0.25096339 4.3031397
-2.4753921 -0.40940186 4.2779026
-2.5133712 -0.57893264 4.2585406
-2.3141687 -0.093958534 4.3876276
-2.3452113 -0.25542536 4.3632793
-2.3802121 -0.41591415 4.3410244
-2.4151769 -0.58647364 4.3225875
-2.2219765 -0.097460568 4.4508591
-2.2510941 -0.2588622 4.4224749
-2.2830091 -0.4214519 4.4051261
-2.3160162 -0.59298223 4.3846335
-2.129817 -0.099926606 4.5121102
-2.159797 -0.26446885 4.4916883
-2.1897914 -0.42799318 4.470284
-2.2197316 -0.60160625 4.4536986
-2.036756 -0.10330561 4.568326
-2.0627217 -0.26888016 4.54881
-2.0896459 -0.43348742 4.5313306
