# .PCD v0.7 - Point Cloud Data file format
VERSION 0.7
FIELDS x y z
SIZE 4 4 4
TYPE F F F
COUNT 1 1 1
WIDTH 1404
HEIGHT 1
VIEWPOINT 0 0 0 1 0 0 0
POINTS 1404
DATA ascii
-2.4392323 -0.21795811 4.3026972
-2.4781363 -0.32533306 4.2754741
-2.2561979 -0.011810325 4.4230399
-2.3031151 -0.11813864 4.3949857
-2.3440592 -0.2214528 4.3648729
-2.3828814 -0.33191767 4.3425941
-2.1669624 -0.009320721 4.4874363
-2.2099152 -0.11964461 4.4582348
-2.2468863 -0.22495472 4.427011
-2.284687 -0.33945864 4.406641
-2.0738256 -0.0077548325 4.546741
-2.1157298 -0.12013625 4.520483
-2.1506612 -0.2295071 4.4921494
-2.1845078 -0.3459889 4.4696684
-1.9845151 -0.005337581 4.6151357
-2.0195115 -0.12167107 4.5846758
-2.0534511 -0.23304519 4.5562873
-2.0852201 -0.35362393 4.5386949
-1.0236632 -0.029490374 2.5270011
-1.9233267 -0.12216989 4.6468873
-1.9571508 -0.23766994 4.6254239
-1.9859883 -0.36120465 4.6047225
-0.94629532 -0.029173367 2.4925468
-1.8261646 -0.12365404 4.7080622
-1.8569825 -0.24218243 4.6874881
-1.8818848 -0.36767688 4.6636758
-0.85491163 -0.02996923 2.405792
-1.7250744 -0.12408035 4.7651811
-1.7567579 -0.24674919 4.7525511
-1.7805599 -0.37535527 4.734664
-0.78552353 -0.029641602 2.3724873
-1.6239694 -0.12552458 4.8232818
-1.6545898 -0.25126886 4.8145776
-1.676404 -0.38288161 4.7965989
-0.71719152 -0.029256117 2.3362026
-1.5266203 -0.12718962 4.894453
-1.549456 -0.25476331 4.8745661
-1.5711734 -0.39048392 4.862514
-0.64908803 -0.029653393 2.287904
-1.423478 -0.1286772 4.9545155
-1.4471194 -0.25944579 4.9455895
-1.4657784 -0.39924881 4.937407
-0.58213413 -0.029902369 2.2316267
-1.3202423 -0.13025525 5.0195756
-1.3418062 -0.26512074 5.0155382
-1.3574922 -0.40691614 5.0062642
-0.51808608 -0.030231027 2.1804044
-1.2196838 -0.1311302 5.1017051
-1.2354891 -0.26979947 5.0854869
-1.2491726 -0.41561946 5.0771031
-0.46171826 -0.030838497 2.1463265
-1.1104866 -0.13269359 5.1646538
-1.1271538 -0.2745035 5.1563978
-1.1367413 -0.42444566 5.1538639
-0.40561259 -0.031192701 2.0982535
-1.003158 -0.13437644 5.2346377
-1.0138941 -0.27915308 5.2232161
-1.0242764 -0.4343079 5.2326074
-0.35225904 -0.030771475 2.0632503
-0.8936612 -0.13622925 5.3135805
-0.90246958 -0.28495815 5.2990508
-0.90697318 -0.4420256 5.3022947
-0.30098397 -0.031270545 2.0242679
-1.285612 -0.19020714 8.9491739
-1.2958926 -0.44486016 8.9297552
-1.2960017 -0.71276385 8.9219084
-1.0219026 0.06676352 8.5627556
-1.0329692 -0.18608519 8.5543861
-1.0379345 -0.43202901 8.5500288
-1.0296199 -0.68836999 8.509222
-0.79853678 0.062270954 8.2083712
-0.80362546 -0.18154655 8.197052
-0.80172926 -0.41935405 8.1837111
-0.78656763 -0.6665408 8.1329384
-0.59352708 0.058231384 7.8883519
-0.59168321 -0.17852202 7.8720288
-0.58613074 -0.40798342 7.8387637
-0.56760126 -0.64750791 7.8060722
-0.40496749 0.054728031 7.5976591
-0.39832163 -0.17482741 7.5693736
-0.38666788 -0.39738393 7.5401192
-0.36638817 -0.62864554 7.4925399
-0.22823314 0.052104786 7.3162079
-0.2173772 -0.17164691 7.2979507
-0.20392498 -0.38799459 7.2567711
-0.17884336 -0.61205828 7.1972284
-0.065672293 0.048739493 7.0790224
-0.052111655 -0.16871652 7.0438232
-0.032992676 -0.37874299 6.9836459
-0.0075130463 -0.59716952 6.9442043
0.0859093 0.045395561 6.8430443
0.10233925 -0.16692735 6.7998815
0.12276244 -0.3712298 6.7547884
0.15311493 -0.58353055 6.7073631
0.2267215 0.042873882 6.6192865
0.24831995 -0.16461255 6.5841169
0.2705752 -0.36374211 6.5290794
0.30178255 -0.56988478 6.4727473
0.35994706 0.03998293 6.4176717
0.38439608 -0.16235229 6.373539
0.40970784 -0.35652968 6.3205347
0.44194949 -0.5586946 6.265255
0.48853317 0.037766054 6.2351623
0.51069874 -0.16027322 6.1751442
0.5401004 -0.35053802 6.1261358
0.57410312 -0.54645789 6.0569315
0.60476184 0.034936145 6.0338669
0.63322675 -0.15839687 5.988821
0.66045731 -0.34447426 5.9299254
0.69544196 -0.53536242 5.8587937
0.71978503 0.033353314 5.8746305
0.74701858 -0.15674148 5.8166628
0.77715194 -0.33872175 5.7517843
-0.02611593 -0.059798401 0.050936799
0.82448405 0.030114226 5.6985517
0.85694218 -0.15519834 5.6515765
-0.02611593 -0.059798401 0.050936799
0.16757645 -0.15270296 1.1680084
-0.02611593 -0.059798401 0.050936799
-0.02611593 -0.059798401 0.050936799
0.18468514 -0.11473425 1.1663744
0.19221614 -0.15244898 1.1485451
1.0271161 0.026488304 5.4115949
1.0582422 -0.15247801 5.3457527
0.20511961 -0.11426695 1.13599
0.21478525 -0.15111566 1.1251389
0.26710406 -0.039007388 1.3862756
-0.02611593 -0.059798401 0.050936799
0.22559153 -0.11383582 1.1076049
0.23742531 -0.15085451 1.105713
1.2067857 0.021908909 5.1270523
0.31199396 -0.084233597 1.3886179
0.25158677 -0.11392914 1.1071163
0.26016289 -0.14968397 1.0913036
1.2912452 0.020021267 4.9913907
-0.02611593 -0.059798401 0.050936799
0.27539518 -0.11383438 1.0966687
0.28604189 -0.15066858 1.0847991
1.3718368 0.01802139 4.8628025
0.34920427 -0.083654925 1.2928991
0.2970354 -0.11356965 1.0772617
0.31405157 -0.15178698 1.0852547
1.4536525 0.015800849 4.7461901
0.38759047 -0.084171176 1.3131781
0.32725063 -0.1148942 1.0886759
0.34204251 -0.15288731 1.0847105
1.5284134 0.013659671 4.6267118
0.42175278 -0.084456004 1.3215362
0.35526031 -0.11601262 1.0891315
0.37110811 -0.15406358 1.0881461
-0.02611593 -0.059798401 0.050936799
0.36530629 -0.079964183 1.0845939
0.38747522 -0.11734436 1.100508
0.4042815 -0.15636256 1.0974866
0.39323694 -0.04282729 1.126757
0.46465877 -0.083564743 1.262729
0.42168975 -0.11868329 1.1118472
0.44786096 -0.16009524 1.1286138
0.48723945 -0.040049151 1.2851009
1.784554 -0.14333196 4.2359433
1.82258 -0.29011178 4.1585503
1.8666452 -0.44096667 4.083971
1.8093897 0.0072763786 4.1981902
1.847404 -0.14250292 4.1207428
1.8926985 -0.28756142 4.0572495
1.9336114 -0.43424344 3.9738019
1.8734748 0.0058670044 4.0959306
1.9146315 -0.14105019 4.0254784
1.9557287 -0.2838957 3.9510996
1.9986491 -0.42858523 3.8676503
1.9325383 0.0034938455 3.9927466
1.9756501 -0.14037676 3.919312
2.018867 -0.28133833 3.85093
2.0638325 -0.42407155 3.7694786
1.9937737 0.0019505396 3.89854
2.0389678 -0.13999994 3.8291025
2.0841362 -0.27891475 3.7577202
2.1291468 -0.41968453 3.6783042
2.050935 0.00049395114 3.8004103
2.1002672 -0.13959786 3.7379315
2.1443875 -0.27645516 3.6636045
2.1903872 -0.41521072 3.5832059
2.1154511 -0.0013314709 3.7211425
2.1615856 -0.13921386 3.6477599
2.2016211 -0.2739667 3.5685461
2.2527397 -0.41084909 3.4940875
2.1728179 -0.002987057 3.6340089
2.217886 -0.13879384 3.5566826
2.2609701 -0.27059412 3.4794655
2.3089623 -0.40633932 3.3980839
2.2280922 -0.0045449957 3.5419147
2.2752652 -0.13744992 3.4696028
2.3214085 -0.26831543 3.3953466
2.3683717 -0.4020212 3.3120205
2.2814977 -0.0062224045 3.4568558
2.3306592 -0.13711676 3.3835428
2.3726807 -0.2658416 3.3023999
2.4267812 -0.39769948 3.225976
2.3390188 -0.0070228614 3.3777373
2.3850722 -0.13679808 3.2985008
2.4353018 -0.26475081 3.2282221
2.4801869 -0.39435959 3.1400073
2.3883872 -0.0086497217 3.2907541
2.4395976 -0.13658793 3.2194569
2.4846487 -0.26234218 3.1393116
2.5346162 -0.39004162 3.0550373
2.4419427 -0.010471843 3.2136924
2.4930487 -0.13630186 3.1364331
2.5381072 -0.26005644 3.056324
2.5931714 -0.38686448 2.9769723
2.4965351 -0.012333713 3.1386111
2.5425 -0.13600142 3.0534849
2.5926218 -0.25782853 2.9763165
2.6405454 -0.38246706 2.8891349
2.54702 -0.013072867 3.0576251
2.6001413 -0.13491076 2.9804006
2.6471739 -0.25563684 2.8983085
2.6971235 -0.37830096 2.812125
2.6026495 -0.014974516 2.9845245
2.647593 -0.13460314 2.8974895
2.6905596 -0.25324285 2.8115098
2.7506237 -0.37505156 2.7311544
2.645076 -0.016630538 2.9006717
2.6961384 -0.13438955 2.8195579
2.7471862 -0.25113067 2.7374628
2.7970726 -0.37072295 2.6473348
2.698766 -0.017579436 2.8306258
2.7507951 -0.13430604 2.7475119
2.7937167 -0.24989201 2.6585875
2.8435774 -0.36644864 2.566514
2.7392113 -0.019246355 2.7478101
2.792248 -0.13397691 2.6647136
2.836144 -0.24653076 2.5738249
2.9164784 -0.36566502 2.5071435
2.7857866 -0.021061435 2.6718795
2.8377938 -0.13375255 2.5868385
2.9009712 -0.2456461 2.5106058
2.9842901 -0.36377323 2.4428861
2.8344216 -0.021938127 2.5989282
2.8873992 -0.132597 2.5119054
2.9881275 -0.24616586 2.4649494
3.0297394 -0.35944104 2.3590851
2.8789783 -0.023727942 2.5220356
2.9877772 -0.13338046 2.4780002
3.0346432 -0.24390924 2.385092
3.0823514 -0.35629654 2.2841315
2.9753575 -0.024497051 2.4882061
3.0313051 -0.13313083 2.399163
3.085211 -0.24272111 2.3081408
3.1329269 -0.35310876 2.2072163
3.019937 -0.025305115 2.4123309
3.0879984 -0.13309067 2.3290784
3.1358202 -0.24056931 2.2332065
3.1804657 -0.34987399 2.1283579
3.0716424 -0.027264763 2.3433039
3.1386743 -0.13301089 2.2581072
3.1834106 -0.23838866 2.1573293
3.2350965 -0.34675485 2.0543666
3.1182404 -0.028098103 2.2683911
3.1822019 -0.13276128 2.1792698
3.2380524 -0.23728724 2.0843012
4.6827903 -0.46374089 2.7913954
3.1618164 -0.029902417 2.192517
3.2328031 -0.13260914 2.1043003
4.6638937 -0.30816597 2.8205733
4.7537107 -0.45899552 2.6791153
3.2155211 -0.031869233 2.1234522
3.2834415 -0.13249318 2.0313294
4.728826 -0.30541679 2.7093694
4.8195982 -0.45319617 2.5649478
3.2691927 -0.03280006 2.0524065
4.7139006 -0.16187227 2.7392559
4.8048687 -0.30281565 2.6039572
-0.02611593 -0.059798401 0.050936799
4.6990671 -0.023435423 2.7750499
4.782917 -0.16122755 2.6329393
4.6043005 -0.28762785 2.3599043
-0.02611593 -0.059798401 0.050936799
4.7671103 -0.025822787 2.6706975
-0.02611593 -0.059798401 0.050936799
4.6572766 -0.28387195 2.2509434
5.0414662 -0.44010067 2.2339187
4.8139319 -0.027917726 2.5547435
-0.02611593 -0.059798401 0.050936799
5.0167518 -0.29571941 2.275007
5.1164041 -0.43538773 2.1225634
-0.02611593 -0.059798401 0.050936799
4.9566007 -0.15881322 2.2946167
5.0856833 -0.2929846 2.1637282
13.487164 -1.0203787 5.1202741
-0.02611593 -0.059798401 0.050936799
5.065906 -0.15960132 2.2035248
5.1435084 -0.28910196 2.0466762
13.683674 -1.007805 4.8237219
5.0451946 -0.0333037 2.2482121
5.1287746 -0.15879038 2.0893238
13.604124 -0.64952189 4.9397321
13.867983 -0.99398929 4.516417
5.1131258 -0.035582542 2.1378617
13.541471 -0.3172954 5.0549536
13.793649 -0.6429581 4.6452022
14.073398 -0.98135734 4.2146974
13.466813 -0.0010774359 5.1731119
13.731994 -0.31575251 4.7613149
13.98406 -0.63628948 4.344656
14.284675 -0.96962017 3.9058495
13.668591 -0.0058443174 4.8941526
13.918554 -0.3142314 4.4697509
14.187472 -0.62866759 4.0438838
14.479849 -0.95571733 3.5913401
13.85518 -0.011376299 4.6054611
14.110943 -0.31356889 4.1690588
14.393807 -0.62198395 3.739038
14.666877 -0.94164115 3.2689836
14.043675 -0.016825028 4.3117342
14.31435 -0.31196409 3.8691778
14.548745 -0.61271971 3.4131942
13.436697 -0.84495634 2.6675611
14.245113 -0.022266135 4.0147638
14.50157 -0.31112081 3.5595827
13.723817 -0.56794161 2.8842697
12.839621 -0.78776467 2.2326272
14.431328 -0.02743635 3.706079
14.580181 -0.30727527 3.2180645
13.062209 -0.52906477 2.4252048
12.194082 -0.72990376 1.8266222
14.55927 -0.033126898 3.3834715
13.893907 -0.29074761 2.7280464
12.488596 -0.4964942 2.0193956
11.682404 -0.68140525 1.4669577
14.231312 -0.039288044 2.9643579
13.182312 -0.27477789 2.2745044
11.941667 -0.46568614 1.6500678
15.796803 -0.87484133 1.5914682
13.50633 -0.045978297 2.4946516
12.574722 -0.26117253 1.8739907
11.572508 -0.44130829 1.321309
6.0903468 -0.36496574 0.50005233
12.868219 -0.051827732 2.070349
12.001766 -0.2483042 1.5068262
6.2083645 -0.25795627 0.58580744
5.9795351 -0.34879461 0.34836811
12.264854 -0.057522926 1.685412
11.477361 -0.23615083 1.1687497
6.0013628 -0.24625888 0.42584044
6.0079322 -0.34037444 0.20794114
11.719198 -0.062110402 1.3374273
6.1021671 -0.15102352 0.50270188
6.0567241 -0.24091698 0.28385243
3.8731377 -0.2343021 0.059778735
6.181004 -0.062762298 0.5828495
5.9832897 -0.14680359 0.3499521
6.0480595 -0.23530923 0.1410677
-0.02611593 -0.059798401 0.050936799
5.9880013 -0.065167047 0.42536619
6.0036798 -0.14537156 0.21054903
3.8815675 -0.16854954 0.016795725
-0.02611593 -0.059798401 0.050936799
6.0544076 -0.0669358 0.28704402
3.90166 -0.11447728 0.064413793
3.8159287 -0.16271062 -0.070899449
-0.02611593 -0.059798401 0.050936799
6.0507483 -0.069380797 0.14602053
6.1943707 -0.14399146 -0.074092746
3.6104395 -0.15347826 -0.14991193
-0.02611593 -0.059798401 0.050936799
3.878021 -0.067606628 0.021689735
3.623404 -0.1082889 -0.1073228
3.6857216 -0.15210851 -0.24232794
3.8067503 -0.19988595 -0.39250907
-0.02611593 -0.059798401 0.050936799
-0.02611593 -0.059798401 0.050936799
3.7549715 -0.14968121 -0.33661255
3.8439429 -0.19427195 -0.49013695
3.6217859 -0.069550127 -0.14760539
-0.02611593 -0.059798401 0.050936799
3.8061683 -0.14713503 -0.4335579
-0.02611593 -0.059798401 0.050936799
-0.02611593 -0.059798401 0.050936799
3.8111749 -0.10597055 -0.38789153
1.9355553 -0.10220211 -0.24365783
-0.02611593 -0.059798401 0.050936799
-0.02611593 -0.059798401 0.050936799
3.8743055 -0.10541284 -0.48809737
4.2094531 -0.14813064 -0.68821281
3.4642379 -0.1631825 -0.68953305
3.806515 -0.073201895 -0.4292255
3.9433601 -0.10480431 -0.59241462
3.4263787 -0.12800738 -0.63516957
3.4596665 -0.15663502 -0.7743578
1.9397107 -0.067240506 -0.24210271
4.012321 -0.10410534 -0.70173013
3.368053 -0.12350092 -0.70602
3.460053 -0.15106913 -0.86129385
4.2496877 -0.077250093 -0.68968445
4.0015216 -0.10333632 -0.79754651
3.4690158 -0.12091711 -0.8159008
3.7111011 -0.15017675 -1.0210321
3.4306238 -0.075066932 -0.63229036
3.9160242 -0.10056981 -0.87692267
3.5022347 -0.11832444 -0.91150826
2.5997558 -0.11835553 -0.76856351
3.3642795 -0.075530894 -0.70308065
3.4862161 -0.094117872 -0.86375427
2.6383061 -0.10096528 -0.74296206
2.3450809 -0.10867704 -0.75061417
3.4632609 -0.077975258 -0.81101465
3.7532115 -0.096246213 -1.0258466
2.5376437 -0.096937612 -0.77801639
3.46048 -0.12567587 -1.2159626
3.5322888 -0.079348296 -0.91636759
2.5910072 -0.083437718 -0.7617659
2.4360597 -0.09197887 -0.80903536
-0.02611593 -0.059798401 0.050936799
2.6334467 -0.074987933 -0.74040031
2.4108419 -0.080593072 -0.76934373
-0.02611593 -0.059798401 0.050936799
0.18029898 -0.062061083 -0.034997899
2.5218077 -0.074956283 -0.77332079
3.4715672 -0.088667378 -1.2185017
0.19127823 -0.062082466 -0.036204249
-0.02611593 -0.059798401 0.050936799
2.4311235 -0.075963639 -0.80865312
-0.02611593 -0.059798401 0.050936799
-0.02611593 -0.059798401 0.050936799
0.15232675 -0.060978856 -0.033454083
-0.02611593 -0.059798401 0.050936799
0.18428344 -0.061057519 -0.036054697
0.17022984 -0.060953006 -0.038790621
-0.02611593 -0.059798401 0.050936799
0.18928251 -0.061075468 -0.036148649
-0.02611593 -0.059798401 0.050936799
-0.02611593 -0.059798401 0.050936799
0.13233432 -0.059907246 -0.033060253
-0.02611593 -0.059798401 0.050936799
0.15430765 -0.060967941 -0.03449133
0.14427598 -0.059896044 -0.036284722
-0.02611593 -0.059798401 0.050936799
0.15732582 -0.060996801 -0.033548035
-0.02611593 -0.059798401 0.050936799
-0.02611593 -0.059798401 0.050936799
0.11731834 -0.059835322 -0.03377806
-0.02611593 -0.059798401 0.050936799
0.13827707 -0.059874512 -0.03617198
0.13022237 -0.059791531 -0.039020643
-0.02611593 -0.059798401 0.050936799
0.13534859 -0.060935929 -0.032134984
-0.02611593 -0.059798401 0.050936799
-0.02611593 -0.059798401 0.050936799
0.10134392 -0.05879616 -0.032459725
-0.02611593 -0.059798401 0.050936799
0.11729962 -0.059817232 -0.034777712
0.11028218 -0.059774019 -0.035645846
-0.02611593 -0.059798401 0.050936799
0.12031388 -0.060845919 -0.033852451
-0.02611593 -0.059798401 0.050936799
-0.02611593 -0.059798401 0.050936799
0.087365218 -0.058764003 -0.031196997
-0.02611593 -0.059798401 0.050936799
0.1023211 -0.059781488 -0.033496201
0.094307765 -0.058734857 -0.034327511
-0.02611593 -0.059798401 0.050936799
0.10729753 -0.060781173 -0.034607828
-0.02611593 -0.059798401 0.050936799
-0.02611593 -0.059798401 0.050936799
0.07932923 -0.058699112 -0.033046
-0.02611593 -0.059798401 0.050936799
0.090304568 -0.05972033 -0.034270369
0.08823397 -0.058640964 -0.038213421
-0.02611593 -0.059798401 0.050936799
0.093300089 -0.060730927 -0.034344759
-0.02611593 -0.059798401 0.050936799
-0.02611593 -0.059798401 0.050936799
0.071311973 -0.058652312 -0.033895329
-0.02611593 -0.059798401 0.050936799
0.077325664 -0.059691764 -0.033026438
0.078235805 -0.058605079 -0.038025513
-0.02611593 -0.059798401 0.050936799
0.0803212 -0.060702361 -0.033100829
-0.02611593 -0.059798401 0.050936799
-0.02611593 -0.059798401 0.050936799
0.055427238 -0.058703426 -0.027596716
-0.02611593 -0.059798401 0.050936799
0.0712706 -0.059615966 -0.035912681
0.066256717 -0.058580101 -0.03680037
-0.02611593 -0.059798401 0.050936799
0.068342112 -0.060677387 -0.031875677
-0.02611593 -0.059798401 0.050936799
-0.02611593 -0.059798401 0.050936799
0.052356821 -0.057620469 -0.03152097
-0.02611593 -0.059798401 0.050936799
0.065238185 -0.058558419 -0.037781235
0.060220376 -0.058522388 -0.038686942
-0.02611593 -0.059798401 0.050936799
0.061324671 -0.060634173 -0.032743808
-0.02611593 -0.059798401 0.050936799
-0.02611593 -0.059798401 0.050936799
0.045376826 -0.05761344 -0.030389778
-0.02611593 -0.059798401 0.050936799
0.051353082 -0.058616713 -0.031520199
0.056146212 -0.058435678 -0.042610426
-0.02611593 -0.059798401 0.050936799
0.050382853 -0.060648963 -0.029538129
-0.02611593 -0.059798401 0.050936799
-0.02611593 -0.059798401 0.050936799
0.041302666 -0.057526723 -0.034313258
-0.02611593 -0.059798401 0.050936799
0.04531673 -0.058559 -0.033406772
0.046204217 -0.058454055 -0.039423544
-0.02611593 -0.059798401 0.050936799
0.045327596 -0.060576752 -0.032443158
-0.02611593 -0.059798401 0.050936799
-0.02611593 -0.059798401 0.050936799
0.033364229 -0.056552451 -0.03114593
-0.02611593 -0.059798401 0.050936799
0.040280204 -0.058504879 -0.035312153
0.040186591 -0.058414433 -0.040310457
-0.02611593 -0.059798401 0.050936799
0.036366694 -0.060580626 -0.030274719
-0.02611593 -0.059798401 0.050936799
-0.02611593 -0.059798401 0.050936799
0.029308792 -0.056483828 -0.034069754
-0.02611593 -0.059798401 0.050936799
0.034262579 -0.058465254 -0.036199071
0.033210523 -0.057407569 -0.039161246
-0.02611593 -0.059798401 0.050936799
0.032311257 -0.060512006 -0.033198535
-0.02611593 -0.059798401 0.050936799
-0.02611593 -0.059798401 0.050936799
0.025290802 -0.056451384 -0.034994259
-0.02611593 -0.059798401 0.050936799
0.026320212 -0.058490809 -0.033049755
0.027211616 -0.057386037 -0.039048504
-0.02611593 -0.059798401 0.050936799
0.026312357 -0.06049047 -0.033085793
-0.02611593 -0.059798401 0.050936799
-0.02611593 -0.059798401 0.050936799
-0.02611593 -0.059798401 0.050936799
-0.02611593 -0.059798401 0.050936799
0.022264773 -0.058422189 -0.035973582
0.022193812 -0.057350002 -0.039954208
-0.02611593 -0.059798401 0.050936799
-0.02611593 -0.059798401 0.050936799
-0.02611593 -0.059798401 0.050936799
-0.02611593 -0.059798401 0.050936799
-0.02611593 -0.059798401 0.050936799
-0.02611593 -0.059798401 0.050936799
-0.02611593 -0.059798401 0.050936799
-0.02611593 -0.059798401 0.050936799
-0.02611593 -0.059798401 0.050936799
-0.02611593 -0.059798401 0.050936799
-0.02611593 -0.059798401 0.050936799
-0.02611593 -0.059798401 0.050936799
-0.02611593 -0.059798401 0.050936799
-0.02611593 -0.059798401 0.050936799
-0.02611593 -0.059798401 0.050936799
-0.02611593 -0.059798401 0.050936799
-0.02611593 -0.059798401 0.050936799
-0.02611593 -0.059798401 0.050936799
-0.02611593 -0.059798401 0.050936799
-0.02611593 -0.059798401 0.050936799
-0.02611593 -0.059798401 0.050936799
-0.02611593 -0.059798401 0.050936799
-0.02611593 -0.059798401 0.050936799
-0.02611593 -0.059798401 0.050936799
-0.02611593 -0.059798401 0.050936799
-0.02611593 -0.059798401 0.050936799
-0.02611593 -0.059798401 0.050936799
-0.02611593 -0.059798401 0.050936799
-0.02611593 -0.059798401 0.050936799
-0.02611593 -0.059798401 0.050936799
-0.02611593 -0.059798401 0.050936799
-0.02611593 -0.059798401 0.050936799
-0.02611593 -0.059798401 0.050936799
-0.02611593 -0.059798401 0.050936799
-0.02611593 -0.059798401 0.050936799
-0.02611593 -0.059798401 0.050936799
-0.02611593 -0.059798401 0.050936799
-0.02611593 -0.059798401 0.050936799
-0.02611593 -0.059798401 0.050936799
-0.02611593 -0.059798401 0.050936799
-0.02611593 -0.059798401 0.050936799
-0.02611593 -0.059798401 0.050936799
-0.02611593 -0.059798401 0.050936799
-0.02611593 -0.059798401 0.050936799
-0.02611593 -0.059798401 0.050936799
-0.02611593 -0.059798401 0.050936799
-0.02611593 -0.059798401 0.050936799
-0.02611593 -0.059798401 0.050936799
-0.02611593 -0.059798401 0.050936799
-0.02611593 -0.059798401 0.050936799
-0.02611593 -0.059798401 0.050936799
-0.02611593 -0.059798401 0.050936799
-0.02611593 -0.059798401 0.050936799
-0.02611593 -0.059798401 0.050936799
-0.02611593 -0.059798401 0.050936799
-0.02611593 -0.059798401 0.050936799
-0.02611593 -0.059798401 0.050936799
-0.02611593 -0.059798401 0.050936799
-0.02611593 -0.059798401 0.050936799
-0.02611593 -0.059798401 0.050936799
-0.02611593 -0.059798401 0.050936799
-0.02611593 -0.059798401 0.050936799
-0.02611593 -0.059798401 0.050936799
-0.02611593 -0.059798401 0.050936799
-0.02611593 -0.059798401 0.050936799
-0.02611593 -0.059798401 0.050936799
-0.02611593 -0.059798401 0.050936799
-0.02611593 -0.059798401 0.050936799
-0.02611593 -0.059798401 0.050936799
-0.02611593 -0.059798401 0.050936799
-0.02611593 -0.059798401 0.050936799
-0.02611593 -0.059798401 0.050936799
-0.02611593 -0.059798401 0.050936799
-0.02611593 -0.059798401 0.050936799
-0.02611593 -0.059798401 0.050936799
-0.02611593 -0.059798401 0.050936799
-0.02611593 -0.059798401 0.050936799
-0.02611593 -0.059798401 0.050936799
-0.02611593 -0.059798401 0.050936799
-0.02611593 -0.059798401 0.050936799
-0.02611593 -0.059798401 0.050936799
-0.02611593 -0.059798401 0.050936799
-0.02611593 -0.059798401 0.050936799
-0.02611593 -0.059798401 0.050936799
-0.02611593 -0.059798401 0.050936799
-0.02611593 -0.059798401 0.050936799
-0.02611593 -0.059798401 0.050936799
-0.02611593 -0.059798401 0.050936799
-0.02611593 -0.059798401 0.050936799
-0.02611593 -0.059798401 0.050936799
-0.02611593 -0.059798401 0.050936799
-0.02611593 -0.059798401 0.050936799
-0.02611593 -0.059798401 0.050936799
-0.02611593 -0.059798401 0.050936799
-0.02611593 -0.059798401 0.050936799
-0.02611593 -0.059798401 0.050936799
-0.02611593 -0.059798401 0.050936799
-0.02611593 -0.059798401 0.050936799
-0.02611593 -0.059798401 0.050936799
-0.02611593 -0.059798401 0.050936799
-0.02611593 -0.059798401 0.050936799
-0.02611593 -0.059798401 0.050936799
-0.02611593 -0.059798401 0.050936799
-0.02611593 -0.059798401 0.050936799
-0.02611593 -0.059798401 0.050936799
-0.02611593 -0.059798401 0.050936799
-0.02611593 -0.059798401 0.050936799
-0.02611593 -0.059798401 0.050936799
-0.02611593 -0.059798401 0.050936799
-0.02611593 -0.059798401 0.050936799
-0.02611593 -0.059798401 0.050936799
-0.02611593 -0.059798401 0.050936799
-0.02611593 -0.059798401 0.050936799
-0.02611593 -0.059798401 0.050936799
-0.02611593 -0.059798401 0.050936799
-0.02611593 -0.059798401 0.050936799
-0.02611593 -0.059798401 0.050936799
-0.02611593 -0.059798401 0.050936799
-0.02611593 -0.059798401 0.050936799
-0.02611593 -0.059798401 0.050936799
-0.02611593 -0.059798401 0.050936799
-0.02611593 -0.059798401 0.050936799
-0.02611593 -0.059798401 0.050936799
-0.02611593 -0.059798401 0.050936799
-0.02611593 -0.059798401 0.050936799
-0.02611593 -0.059798401 0.050936799
-0.02611593 -0.059798401 0.050936799
-0.02611593 -0.059798401 0.050936799
-0.02611593 -0.059798401 0.050936799
-0.02611593 -0.059798401 0.050936799
-0.02611593 -0.059798401 0.050936799
-0.02611593 -0.059798401 0.050936799
-0.02611593 -0.059798401 0.050936799
-0.02611593 -0.059798401 0.050936799
-0.02611593 -0.059798401 0.050936799
-0.02611593 -0.059798401 0.050936799
-0.02611593 -0.059798401 0.050936799
-0.02611593 -0.059798401 0.050936799
-0.02611593 -0.059798401 0.050936799
-0.02611593 -0.059798401 0.050936799
-0.02611593 -0.059798401 0.050936799
-0.02611593 -0.059798401 0.050936799
-0.02611593 -0.059798401 0.050936799
-0.02611593 -0.059798401 0.050936799
-0.02611593 -0.059798401 0.050936799
-0.02611593 -0.059798401 0.050936799
-0.02611593 -0.059798401 0.050936799
-0.02611593 -0.059798401 0.050936799
-0.02611593 -0.059798401 0.050936799
-0.02611593 -0.059798401 0.050936799
-0.02611593 -0.059798401 0.050936799
-0.02611593 -0.059798401 0.050936799
-0.02611593 -0.059798401 0.050936799
-0.02611593 -0.059798401 0.050936799
-0.02611593 -0.059798401 0.050936799
-0.02611593 -0.059798401 0.050936799
-0.02611593 -0.059798401 0.050936799
-0.02611593 -0.059798401 0.050936799
-0.02611593 -0.059798401 0.050936799
-0.02611593 -0.059798401 0.050936799
-0.02611593 -0.059798401 0.050936799
-0.02611593 -0.059798401 0.050936799
-0.02611593 -0.059798401 0.050936799
-0.02611593 -0.059798401 0.050936799
-0.02611593 -0.059798401 0.050936799
-0.02611593 -0.059798401 0.050936799
-0.02611593 -0.059798401 0.050936799
-0.071791999 -0.052995235 -0.039115485
-0.02611593 -0.059798401 0.050936799
-0.02611593 -0.059798401 0.050936799
-0.02611593 -0.059798401 0.050936799
-0.02611593 -0.059798401 0.050936799
-0.02611593 -0.059798401 0.050936799
-0.02611593 -0.059798401 0.050936799
-0.02611593 -0.059798401 0.050936799
-0.075753823 -0.053017057 -0.037041005
-0.02611593 -0.059798401 0.050936799
-0.02611593 -0.059798401 0.050936799
-0.02611593 -0.059798401 0.050936799
-0.02611593 -0.059798401 0.050936799
-0.02611593 -0.059798401 0.050936799
-0.02611593 -0.059798401 0.050936799
-0.02611593 -0.059798401 0.050936799
-0.079715647 -0.05303888 -0.034966514
-0.02611593 -0.059798401 0.050936799
-0.02611593 -0.059798401 0.050936799
-0.02611593 -0.059798401 0.050936799
-0.02611593 -0.059798401 0.050936799
-0.02611593 -0.059798401 0.050936799
-0.02611593 -0.059798401 0.050936799
-0.083633088 -0.056114458 -0.029947102
-0.084677294 -0.053057116 -0.032873243
-0.02611593 -0.059798401 0.050936799
-0.02611593 -0.059798401 0.050936799
-0.02611593 -0.059798401 0.050936799
-0.02611593 -0.059798401 0.050936799
-0.083609521 -0.050115477 -0.029838994
-0.02611593 -0.059798401 0.050936799
-0.088613451 -0.056114603 -0.028853483
-0.090690985 -0.052017659 -0.033742141
-0.02611593 -0.059798401 0.050936799
-0.092620574 -0.058099911 -0.02881436
-0.02611593 -0.059798401 0.050936799
-0.02611593 -0.059798401 0.050936799
-0.089604497 -0.049094118 -0.029708233
-0.02611593 -0.059798401 0.050936799
-0.097682767 -0.055010121 -0.032665007
-0.09668988 -0.051996127 -0.033629399
-0.02611593 -0.059798401 0.050936799
-0.097600937 -0.058100052 -0.027720749
-0.02611593 -0.059798401 0.050936799
-0.02611593 -0.059798401 0.050936799
-0.096640654 -0.049032815 -0.031576019
-0.02611593 -0.059798401 0.050936799
-0.10162587 -0.05505003 -0.029590856
-0.10267007 -0.051992685 -0.032516994
-0.02611593 -0.059798401 0.050936799
-0.10256258 -0.058118287 -0.025627475
-0.02611593 -0.059798401 0.050936799
-0.02611593 -0.059798401 0.050936799
-0.10157965 -0.048069309 -0.028465059
-0.02611593 -0.059798401 0.050936799
-0.10658751 -0.055068262 -0.027497578
-0.10864633 -0.050989404 -0.031386565
-0.02611593 -0.059798401 0.050936799
-0.11257946 -0.058064308 -0.026439231
-0.02611593 -0.059798401 0.050936799
-0.02611593 -0.059798401 0.050936799
-0.10656001 -0.048069455 -0.027371448
-0.02611593 -0.059798401 0.050936799
-0.11763774 -0.053974688 -0.030271843
-0.11764468 -0.050957106 -0.031217452
-0.02611593 -0.059798401 0.050936799
-0.12363362 -0.057970561 -0.029231519
-0.02611593 -0.059798401 0.050936799
-0.02611593 -0.059798401 0.050936799
-0.11152165 -0.048087686 -0.025278177
-0.02611593 -0.059798401 0.050936799
-0.12763591 -0.053938799 -0.030083936
-0.12665783 -0.049906887 -0.032029986
-0.02611593 -0.059798401 0.050936799
-0.12855782 -0.058024973 -0.025138922
-0.02611593 -0.059798401 0.050936799
-0.02611593 -0.059798401 0.050936799
-0.12257188 -0.046994112 -0.028052438
-0.02611593 -0.059798401 0.050936799
-0.13459718 -0.053949855 -0.027953085
-0.13868915 -0.048827812 -0.033785801
-0.02611593 -0.059798401 0.050936799
-0.14055562 -0.057981908 -0.024913438
-0.02611593 -0.059798401 0.050936799
-0.02611593 -0.059798401 0.050936799
-0.12749608 -0.047048524 -0.023959842
-0.02611593 -0.059798401 0.050936799
-0.14357287 -0.052935816 -0.026766289
-0.14866859 -0.048810016 -0.032598235
-0.02611593 -0.059798401 0.050936799
-0.15762347 -0.056848709 -0.028574623
-0.02611593 -0.059798401 0.050936799
-0.02611593 -0.059798401 0.050936799
-0.14256036 -0.044922676 -0.027640596
-0.02611593 -0.059798401 0.050936799
-0.15554804 -0.051911004 -0.025523126
-0.16166228 -0.047763526 -0.032335941
-0.02611593 -0.059798401 0.050936799
-0.15847351 -0.056989834 -0.020558544
-0.02611593 -0.059798401 0.050936799
-0.02611593 -0.059798401 0.050936799
-0.14950292 -0.044951819 -0.024510082
-0.02611593 -0.059798401 0.050936799
-0.17158255 -0.051817406 -0.027221795
-0.17263761 -0.046742309 -0.031111564
-0.02611593 -0.059798401 0.050936799
-0.17952189 -0.055860367 -0.023144901
-0.02611593 -0.059798401 0.050936799
-0.02611593 -0.059798401 0.050936799
-0.17058484 -0.042786345 -0.029077739
-0.02611593 -0.059798401 0.050936799
-0.18655713 -0.050781831 -0.025922257
-0.18761221 -0.045706734 -0.029812019
-0.02611593 -0.059798401 0.050936799
-0.20858756 -0.054684106 -0.026580602
-0.02611593 -0.059798401 0.050936799
-0.02611593 -0.059798401 0.050936799
-0.1764714 -0.042873349 -0.022967033
-0.02611593 -0.059798401 0.050936799
-0.21661869 -0.048602149 -0.029321153
-0.21365578 -0.043559495 -0.032286417
-0.02611593 -0.059798401 0.050936799
-0.23961541 -0.05353684 -0.027979396
-0.02611593 -0.059798401 0.050936799
-0.02611593 -0.059798401 0.050936799
-0.20556664 -0.03966124 -0.028366014
-0.02611593 -0.059798401 0.050936799
-0.24462837 -0.047483739 -0.029776666
-0.23562911 -0.042498797 -0.030855346
-0.02611593 -0.059798401 0.050936799
-1.0070297 -0.028333565 -0.26023418
-0.02611593 -0.059798401 0.050936799
-0.02611593 -0.059798401 0.050936799
-0.22753604 -0.037600718 -0.026916932
-1.0256478 -0.027627325 -0.23986593
-1.0049052 -0.0013634218 -0.25878561
-0.26863003 -0.039362784 -0.031180866
-0.02611593 -0.059798401 0.050936799
-1.0352261 -0.025989734 -0.21764942
-1.0215237 -0.00066435756 -0.23845491
-0.02611593 -0.059798401 0.050936799
-0.25754142 -0.035475302 -0.027316831
-1.0538256 -0.025301585 -0.19628151
-1.0351427 2.3933128e-05 -0.2181806
-1.0073236 0.02217295 -0.23230559
-0.02611593 -0.059798401 0.050936799
-1.0573677 -0.023721706 -0.17217845
-1.0487243 0.00067604939 -0.19590697
-1.006893 0.021756902 -0.20931339
-0.98511797 0.041963968 -0.22536099
-1.076967 -0.02302997 -0.15079173
-1.0583067 0.0013138102 -0.17370853
-1.0124613 0.021362387 -0.18620843
-0.99474168 0.041638076 -0.20517984
-1.0584233 -0.022619322 -0.12212177
-1.0608342 0.0018721812 -0.14864258
-1.0320979 0.022090305 -0.16682106
-1.0003326 0.04026182 -0.18309261
-1.0780187 -0.020927753 -0.10071704
-1.0583625 0.0024126042 -0.12367062
-1.0396806 0.022720888 -0.14466016
-1.0229834 0.042018425 -0.16463047
-1.0985951 -0.019250683 -0.078293853
-1.0669264 0.0030286903 -0.10049129
-1.0592985 0.023430709 -0.1242731
-1.0235567 0.040606134 -0.1416375
-0.02611593 -0.059798401 0.050936799
-1.0684766 0.0026017306 -0.076461844
-1.0478178 0.021921091 -0.098506644
-1.0381567 0.041279931 -0.12034474
-1.1176622 -0.017065782 -0.028880596
-1.0830541 0.004257259 -0.054151401
-1.0643948 0.023583803 -0.076158613
-1.0377301 0.039864052 -0.09737055
-0.02611593 -0.059798401 0.050936799
-1.0996164 0.0049020569 -0.030821741
-1.074981 0.023225322 -0.05395937
-1.0513344 0.039534424 -0.076114602
-1.1397061 -0.013888368 0.021606721
-1.1291686 0.0075931642 -0.0072117597
-1.0895437 0.023862939 -0.030667298
-1.074929 0.041240349 -0.054634713
-0.02611593 -0.059798401 0.050936799
-1.1297004 0.0071445266 0.017798558
-1.1051023 0.025503967 -0.0073384047
-1.0794975 0.040842243 -0.031548545
-1.1467381 -0.011782711 0.072793812
-1.1432219 0.0087422067 0.043089189
-1.1246455 0.026141439 0.01704729
-1.0970597 0.041490626 -0.0082000867
-1.15826 -0.01019221 0.098046862
-1.1587243 0.010328975 0.069417059
-1.1571783 0.028825229 0.041713297
-1.1166214 0.042146187 0.015185948
-1.195713 -0.0065630018 0.12682348
-1.1722497 0.010926824 0.094689675
-1.1576911 0.028358502 0.067723282
-1.1331689 0.041773062 0.039497245
-0.02611593 -0.059798401 0.050936799
-1.1787351 0.012463196 0.12184809
-1.1682172 0.028945584 0.092939526
-1.1506937 0.042385262 0.064845026
-1.2186445 -0.0034905358 0.18332756
-1.1971995 0.014024553 0.15023166
-1.1737293 0.028496802 0.11904345
-1.1672186 0.042993877 0.090174004
-0.02611593 -0.059798401 0.050936799
-1.2006893 0.014550336 0.1773157
-1.1822182 0.029040528 0.14622143
-1.1777072 0.043544788 0.11738957
-1.2195612 -0.00051511917 0.24041787
-1.2121551 0.016086569 0.20556773
-1.1976832 0.03059111 0.17454863
-1.1891994 0.043099452 0.1446059
-0.02611593 -0.059798401 0.050936799
-0.02611593 -0.059798401 0.050936799
-1.208153 0.031123932 0.20276386
-1.1896937 0.042614635 0.17161556
-0.02611593 -0.059798401 0.050936799
-1.2320348 0.018094175 0.26499641
-1.2226034 0.031653017 0.23205391
-0.02611593 -0.059798401 0.050936799
-0.02611593 -0.059798401 0.050936799
-1.2703567 0.02160034 0.30078942
-1.2350354 0.032156825 0.26230603
-1.2176174 0.042687465 0.22915918
-0.02611593 -0.059798401 0.050936799
-1.3146026 0.02505569 0.34069386
-1.2633817 0.034645367 0.29689351
-1.2340487 0.04320563 0.25948647
-1.3372371 0.012787016 0.41592121
-1.3289367 0.026476061 0.3759999
-0.02611593 -0.059798401 0.050936799
-0.02611593 -0.059798401 0.050936799
-3.1054745 0.11647584 0.98609626
-1.3661463 0.029870111 0.41777211
-1.3359218 0.039535161 0.37436634
-0.02611593 -0.059798401 0.050936799
-3.090091 0.12010425 1.0588986
-3.1225441 0.15073006 0.97603202
-1.3830734 0.042910825 0.41932544
-0.02611593 -0.059798401 0.050936799
-3.165128 0.12853381 1.1624911
-3.078335 0.14939994 1.040202
-3.1325712 0.17688815 0.9696908
-1.3343623 0.048023541 0.40250021
-3.2350869 0.13787292 1.2700062
-3.1543941 0.15685137 1.1427957
-3.0893698 0.17356198 1.0338435
-3.1376119 0.19501156 0.96411115
-3.2930331 0.14615102 1.3782775
-3.2213991 0.16421619 1.2482191
-3.152477 0.17900325 1.1341574
-3.0804846 0.18769006 1.0249298
-3.3816626 0.15725045 1.50318
-3.2833116 0.17147264 1.3585469
-3.2105515 0.18339057 1.2363589
-3.140619 0.19113903 1.1241517
-3.4612188 0.16824521 1.631912
-3.3590672 0.17963447 1.4771531
-3.2814283 0.18964328 1.348837
-3.2155781 0.19547883 1.2326703
-4.7970605 0.26503018 2.3799269
-3.4525313 0.18958922 1.6111286
-3.3541925 0.1957947 1.4673508
-3.2755663 0.19778322 1.3398715
-4.6915321 0.26617312 2.4599991
-4.8241663 0.29433924 2.3689609
-3.4347827 0.20281181 1.59503
-3.3592389 0.20288381 1.4635723
-4.5781593 0.26643223 2.5319052
-4.6998153 0.28955972 2.4405706
-3.5083597 0.20878592 1.7235591
-3.4458213 0.20690489 1.5923097
-3.4538326 0.19222139 2.020339
-4.5983019 0.28671768 2.5206456
-4.7237368 0.3036254 2.4422734
-3.4935875 0.20894915 1.7112814
-4.678802 0.29180542 2.8663619
-4.6778808 0.29777527 2.7013969
-4.5855722 0.29495913 2.5045509
-4.7139153 0.30175263 2.4330525
-4.5604453 0.29306453 2.9371927
-4.6810918 0.30413616 2.8486221
-4.6740298 0.30292284 2.6924148
-4.5915909 0.28998148 2.5045736
-3.1614063 0.19079249 2.1468813
-4.5657163 0.30037069 2.9214184
-4.6841955 0.3062551 2.8427162
-4.6612592 0.29305875 2.6819937
-4.3328452 0.29472366 3.0730076
-3.1705241 0.19395092 2.1401067
-4.5589314 0.29854488 2.9102545
-4.6892457 0.29327527 2.842576
-2.6110637 0.15912016 1.9529386
-4.3370924 0.29397339 3.0600691
-3.1795194 0.18996583 2.1412034
-4.573842 0.28245673 2.9182453
-2.7650688 0.17893887 2.1632516
-2.6152246 0.15627973 1.9449624
-4.3401833 0.2850399 3.0569644
-3.1765752 0.17595744 2.1408949
-4.0258927 0.29979968 3.2794223
-2.7721999 0.17407338 2.1572952
-2.6123128 0.14832458 1.941763
-4.34516 0.26195323 3.0626421
-3.9197245 0.3002829 3.3404641
-4.0192442 0.28706616 3.2630622
-2.7702243 0.16304997 2.1580594
-2.6201682 0.13215704 1.9526212
-2.0599816 0.13480377 1.8501462
-3.9248719 0.28639364 3.3353076
-4.0281491 0.26793891 3.2718856
-2.7593839 0.14208643 2.1534753
-1.8746772 0.1226905 1.7604272
-2.087652 0.12656191 1.8695219
-3.9199674 0.26237977 3.3347812
-4.0211864 0.23482896 3.2761581
-1.8231208 0.12296464 1.7894768
-1.8718371 0.11079032 1.7541566
-1.9204599 0.098525532 1.723835
-2.4228022 0.11608975 2.0796785
-1.9443045 0.14182788 1.990155
-1.8242091 0.11000662 1.7872621
-1.8708214 0.095716923 1.7578664
-1.9184265 0.078413241 1.7294348
-2.1269431 0.16846852 2.2721519
-1.9581175 0.12664551 2.0031433
-1.8231974 0.093933389 1.7909535
-1.867792 0.074601188 1.7634295
-3.3483751 0.31514564 3.7231655
-2.133867 0.14935219 2.2799382
-1.9815993 0.10917377 2.0342774
-1.8387712 0.072505966 1.8178668
-3.2521975 0.31766441 3.784431
-3.3454237 0.27905053 3.727459
-2.1641388 0.1276892 2.323128
-2.0010388 0.083616681 2.069191
-3.1590564 0.3202301 3.8437538
-3.2492802 0.27758807 3.7876527
-3.3295803 0.23498251 3.727365
-2.2168493 0.099548981 2.3976312
-3.0707982 0.32370508 3.9091864
-3.151212 0.27619079 3.8438103
-3.2372944 0.23139006 3.7955952
-3.3125374 0.17967762 3.7400496
-2.9776947 0.32630694 3.9665096
-3.0629094 0.27661198 3.9121878
-3.1440649 0.22784826 3.8608074
-3.2114375 0.1722163 3.799042
-2.8875306 0.32986513 4.0269065
-2.9678369 0.2762253 3.9684198
-3.0439904 0.22342619 3.9178734
-3.12305 0.16553015 3.8732915
-2.7973852 0.3334415 4.0863037
-2.8737268 0.27580598 4.02667
-2.9517562 0.22088781 3.9831228
-3.0238895 0.15902159 3.935338
-2.7082021 0.33698517 4.1477189
-2.7795374 0.2763142 4.0889368
-2.8526773 0.21746916 4.0402255
-2.9198604 0.15262172 3.9902935
-2.6160796 0.33957255 4.2060604
-2.6893289 0.27681866 4.1522789
-2.7575417 0.21401066 4.1004019
-2.8295069 0.14696439 4.0625234
-2.5219874 0.3441886 4.2624016
-2.5952375 0.27641746 4.2095294
-2.6643081 0.21146867 4.1656322
-2.7284405 0.14053909 4.1195345
-2.4318416 0.34776491 4.3217988
-2.502104 0.2769835 4.2688155
-2.5701494 0.20899543 4.2268457
-2.6312571 0.13501944 4.1826367
-2.3426588 0.35130861 4.383214
-2.4128392 0.27743727 4.335175
-2.4740326 0.20555142 4.2860041
-2.539016 0.12946346 4.2488313
-2.2486265 0.35497916 4.4365377
-2.317688 0.27797809 4.3954239
-2.380795 0.20400926 4.3512521
-2.4398327 0.12393665 4.3118958
-2.156496 0.35956615 4.4949155
-2.2245135 0.27950782 4.4567275
-2.2845993 0.2014927 4.4144273
-2.3445926 0.11836991 4.3780346
-2.0662115 0.36501548 4.5613461
-2.1293769 0.28106645 4.515995
-2.1874411 0.19900873 4.4755836
-2.2453678 0.11380674 4.4431162
-1.972082 0.36959538 4.6196861
-2.034188 0.28157109 4.5782423
-2.0922041 0.1974594 4.5407953
-2.14326 0.1083415 4.5021257
-1.008315 0.16983801 2.5073128
-1.0676638 0.12728265 2.5506687
-1.9940423 0.19597167 4.6019506
-2.0440726 0.10381451 4.5652084
-0.92536497 0.16451436 2.4516444
-0.97402322 0.12020929 2.4787631
-1.0225693 0.075795695 2.5118799
-1.9447957 0.098197252 4.6332707
-0.84741396 0.15920866 2.3960702
-0.89013344 0.1139365 2.4200592
-0.934699 0.069526628 2.452101
-0.98205495 0.020911153 2.4961233
-0.77236891 0.1538233 2.3455508
-0.81306612 0.1095257 2.3705199
-0.84986156 0.064304359 2.3903975
-0.90940225 0.016957358 2.4776852
-0.70043558 0.14855723 2.2890894
-0.73903948 0.10416201 2.3190191
-0.77466279 0.059774108 2.347893
-0.80651629 0.0095718503 2.3655875
-0.63236648 0.1441787 2.2397192
-0.66610634 0.098892324 2.2625394
-0.69688427 0.053631373 2.283304
-0.83316875 0.015565623 2.649291
-0.57018399 0.1397132 2.1964595
-0.59999955 0.094484828 2.2152059
-0.62781543 0.049249284 2.2339146
-0.74921894 0.01023839 2.5936038
-0.50999719 0.13625468 2.1532552
-0.53589225 0.090084486 2.1679101
-0.56259215 0.045736652 2.192616
-0.65257132 0.0041093938 2.4686413
-0.45558077 0.1336005 2.1221781
-0.47943875 0.087386936 2.1387944
-0.49946204 0.042321641 2.1463568
-0.52029097 -0.0059385039 2.1648798
-0.40135545 0.13012733 2.0810859
-0.4222514 0.083939195 2.0956466
-0.44114384 0.038743705 2.1101878
-0.4608193 -0.0086649321 2.1367075
-0.35091949 0.12746941 2.0510833
-0.36700755 0.080444366 2.0555356
-0.38305032 0.035382807 2.0620229
-0.41974065 -0.0098576583 2.1939363
-0.30142328 0.1257606 2.0241165
-0.31559053 0.07780093 2.0245147
-0.33231091 0.033435281 2.048033
-0.35240573 -0.014530521 2.105561
-0.26095074 0.12816432 2.0484107
-0.27223483 0.079302564 2.0427361
-0.28536084 0.032302964 2.0451324
-0.2935183 -0.017696006 2.0463812
-0.2218443 0.13397758 2.105803
-0.2323502 0.081311911 2.0890412
-0.24244329 0.033265505 2.0933628
-0.24979602 -0.018555803 2.0845602
-0.18062194 0.14067496 2.169174
-0.19011717 0.085987955 2.1533573
-0.20027819 0.034996342 2.1546254
-0.71311539 0.098554194 8.0633793
-0.13749751 0.14645579 2.2274909
-0.14588448 0.090656817 2.2176352
-0.15417002 0.036767073 2.2128139
-0.49940479 0.085737064 7.7290335
-0.18931784 0.47232518 5.6345105
-0.26007953 0.43236822 7.1456251
-0.28955695 0.26654315 7.4182696
-0.30315894 0.074477717 7.4230514
-0.066539675 0.46802056 5.5691118
-0.09851183 0.42306066 7.0163875
-0.11471966 0.25178444 7.1446366
-0.12034477 0.06372577 7.1473413
0.055832081 0.47222015 5.5869026
0.058715694 0.41309342 6.8692141
0.049441911 0.2377575 6.8882222
0.048685715 0.054824769 6.8829255
0.17451075 0.4720825 5.5686722
0.20561072 0.39842558 6.6521244
0.20012331 0.22629184 6.6591158
0.2042883 0.047430962 6.6487989
0.2911402 0.46794412 5.4953885
0.34273618 0.38457638 6.4472375
0.34304959 0.21461983 6.4431558
0.35021102 0.039765581 6.4318547
0.40823078 0.46637118 5.4461517
0.47313291 0.37249875 6.2565126
0.47622892 0.20474815 6.2404146
0.48727036 0.033005662 6.2220955
0.5223555 0.46377289 5.398952
0.596587 0.36039206 6.0689187
0.60150725 0.19581461 6.042841
0.6165036 0.027111508 6.0215011
0.66043144 0.4823724 5.5577564
0.71114039 0.34922698 5.8865104
0.71901178 0.18669268 5.8574133
0.73681331 0.021177284 5.8250742
0.77527511 0.48004186 5.4955435
0.8209607 0.33882642 5.7182088
0.833974 0.17914706 5.6960697
0.8526147 0.015790537 5.6547518
-0.02611593 -0.059798401 0.050936799
-0.02611593 -0.059798401 0.050936799
-0.02611593 -0.059798401 0.050936799
-0.02611593 -0.059798401 0.050936799
1.0047834 0.47860608 5.4141927
1.0251777 0.32053953 5.4119511
1.0451907 0.16585231 5.3887706
1.0665321 0.0077916682 5.3304915
0.26601329 0.077545762 1.4124132
0.26958549 0.035791785 1.3975861
0.27537501 -0.0031688437 1.3937715
0.28302532 -0.044009693 1.3828859
1.1854875 0.4589352 5.1343589
1.2129338 0.30480668 5.134057
1.2324717 0.15358922 5.084939
1.2600939 0.00025298446 5.0406332
1.2722789 0.45069775 5.0175447
1.2960852 0.29619515 4.9832926
1.3187841 0.14782172 4.9421701
1.3493614 -0.002471514 4.8948631
1.3528389 0.44069916 4.8888125
1.3808098 0.29003686 4.8625546
1.4054601 0.1437102 4.8184309
1.439101 -0.0046484247 4.7741027
1.4327103 0.43341434 4.7761474
1.4615541 0.28387487 4.7428908
1.4870621 0.139689 4.6907873
1.5206506 -0.0076155439 4.6434779
1.510582 0.42613664 4.6635194
1.5361454 0.27687931 4.6153245
1.5689825 0.13536021 4.5801373
-0.02611593 -0.059798401 0.050936799
1.5834548 0.41887686 4.5509853
-0.02611593 -0.059798401 0.050936799
-0.02611593 -0.059798401 0.050936799
0.42987025 -0.046544395 1.2140335
-0.02611593 -0.059798401 0.050936799
0.38168827 0.017961724 1.086059
0.47746846 -0.0061094817 1.2908999
1.7550143 -0.012147613 4.288888
0.4776516 0.07400354 1.2853438
0.49356648 0.033880562 1.2883209
1.7884978 0.12572008 4.2347364
1.821762 -0.013242133 4.1685772
1.7873456 0.39889792 4.2276974
1.823976 0.25756347 4.1814389
1.8564806 0.12238713 4.1273665
1.8917149 -0.014546394 4.059207
1.8535831 0.39331916 4.1343246
1.8849001 0.25331014 4.0711837
1.9162403 0.11929996 4.008152
1.9598032 -0.014970295 3.9568899
1.9146532 0.3879213 4.0320482
1.9480485 0.24883251 3.9728873
1.9886612 0.11753629 3.9237354
2.0228136 -0.016303714 3.8506501
1.9727573 0.38149813 3.9318104
2.0164285 0.24611953 3.8865287
2.0507803 0.1150981 3.823494
2.0879626 -0.015771262 3.7514062
2.0382464 0.37768763 3.8514884
2.0766563 0.24258015 3.792305
2.1140525 0.11351144 3.7312498
2.1563509 -0.016484588 3.6650836
2.0944519 0.37318087 3.7563221
2.1328099 0.23912749 3.6941581
2.1763668 0.11289202 3.641041
2.2175753 -0.01601015 3.5699139
2.1518452 0.36848956 3.671134
2.1932328 0.23740688 3.6099672
2.2305434 0.11042826 3.5439494
2.272722 -0.016441647 3.4708397
2.2092421 0.36479816 3.5859637
2.2506151 0.23473337 3.5238154
2.2909329 0.10974365 3.4577773
2.3331153 -0.016126417 3.3846855
2.2615981 0.36016101 3.4988701
2.3029227 0.23215015 3.4337585
2.3493602 0.10903005 3.3736415
2.3935499 -0.014847539 3.3005488
2.3170896 0.35638636 3.4187357
2.3614211 0.23036441 3.3536041
2.4016759 0.10844653 3.2836211
2.4478509 -0.014420327 3.2095091
2.3726401 0.35355723 3.3416183
2.4148788 0.22763287 3.2715259
2.4571226 0.1077256 3.2005417
2.5042863 -0.013127092 3.125447
2.4251165 0.35081124 3.2605584
2.4621921 0.22606747 3.181581
2.5125878 0.10698657 3.1184623
2.5596993 -0.012812015 3.0403867
2.470516 0.34716287 3.1756139
2.5208435 0.22513679 3.1094415
2.5681314 0.10717505 3.0403991
2.6131539 -0.0115261 2.957381
2.5261793 0.34422526 3.1044943
2.5744216 0.22429642 3.0333977
2.618583 0.1074719 2.9574318
2.666646 -0.010276366 2.8763747
2.5797906 0.34234887 3.0304315
2.6218655 0.22260436 2.9504509
2.6721272 0.10766754 2.8794065
2.7211754 -0.0090663955 2.7973487
2.6242688 0.33963159 2.9495225
2.6785405 0.22266263 2.8793664
2.7144823 0.10708369 2.7915733
2.7716534 -0.0067879781 2.7154171
2.6769364 0.33770451 2.8784771
2.7280962 0.22085486 2.8023798
2.769124 0.10818513 2.7185452
2.8221686 -0.0045457408 2.6354847
2.7255299 0.33586419 2.8035085
2.7736194 0.22009748 2.7234874
2.8166134 0.10845658 2.6376336
2.8665874 -0.0031913519 2.5506489
2.7711012 0.33305284 2.7275789
2.8262763 0.22018817 2.6514785
2.8651626 0.10966998 2.55972
2.9628513 0.00016548112 2.5098937
2.8125987 0.33032829 2.6477256
2.8647075 0.21954635 2.567719
2.9594684 0.11399765 2.5210197
3.0225148 0.0022307225 2.4377894
2.864331 0.33035013 2.5797346
2.9549911 0.22290662 2.5280759
3.0131104 0.11510268 2.4480107
3.0710156 0.0054980591 2.3569129
2.9282517 0.33114797 2.5215323
3.0157998 0.22382373 2.4639323
3.0606596 0.11631967 2.370116
3.117532 0.0077546462 2.277056
3.0094392 0.33363116 2.4770422
3.0623643 0.2240264 2.387038
3.1092277 0.117515 2.2932022
3.1721253 0.010910012 2.2010648
3.0530379 0.33280858 2.4021857
3.1069291 0.22423625 2.3101814
3.1578181 0.11969207 2.2173059
3.2236817 0.014112312 2.1231313
3.0976133 0.33100069 2.3262928
3.1585715 0.22534846 2.23721
3.2053716 0.12190887 2.1394296
3.2712204 0.017347068 2.0442729
3.1503263 0.3310371 2.2572827
3.2102177 0.22746046 2.1642563
3.2589986 0.12403182 2.065439
4.7191257 0.054714687 2.7630842
3.1969433 0.33018571 2.1833696
3.252764 0.22769561 2.0864379
4.6790934 0.20347473 2.7865324
4.7850103 0.059514202 2.6488984
3.2405455 0.33036292 2.1085312
4.6803408 0.34879869 2.8251507
4.7662544 0.20792753 2.6869473
4.5812626 0.057824209 2.3985977
4.5390606 0.47706094 2.7871032
4.7463436 0.35047209 2.7179089
4.768568 0.20849667 2.5438657
4.6493187 0.063453555 2.2933896
4.4160299 0.45530924 2.5779421
4.817421 0.35205519 2.6145718
4.6265392 0.20086502 2.332315
4.8434577 0.072584279 2.2439034
4.5782933 0.46644592 2.5350912
4.6036391 0.33136815 2.366116
4.6986799 0.20438994 2.2319942
5.0767651 0.083411917 2.2027171
4.5788054 0.45980635 2.4039168
4.6849122 0.33573392 2.2726417
5.0451193 0.22574627 2.2478995
5.1476183 0.090229303 2.0864744
4.6479764 0.46130618 2.3056157
5.001215 0.35934234 2.2811494
5.1180577 0.23046638 2.1365817
-0.02611593 -0.059798401 0.050936799
4.7413979 0.46548426 2.219913
4.8947115 0.348061 2.0978775
8.3224764 0.41356573 3.2102625
-0.02611593 -0.059798401 0.050936799
4.905385 0.47788492 2.1620479
5.1421599 0.36672851 2.0625701
8.2820301 0.41398269 2.973947
-0.02611593 -0.059798401 0.050936799
4.9734631 0.47947878 2.0587671
6.307157 0.4599438 2.3525426
8.4047623 0.42469463 2.796783
-0.02611593 -0.059798401 0.050936799
5.1755524 0.49565196 2.0052576
6.37853 0.4642103 2.2112355
8.4177666 0.42748678 2.5835176
-0.02611593 -0.059798401 0.050936799
5.2606158 0.49920249 1.9006937
6.3985739 0.46396831 2.0538025
8.3252134 0.4271991 2.3421633
-0.02611593 -0.059798401 0.050936799
5.3215075 0.50100237 1.7875479
6.4367771 0.46651641 1.9040827
8.3765116 0.43458268 2.1432693
-0.02611593 -0.059798401 0.050936799
5.4094992 0.50561446 1.6789471
6.5563488 0.47542897 1.7719605
