# .PCD v0.7 - Point Cloud Data file format
VERSION 0.7
FIELDS x y z
SIZE 4 4 4
TYPE F F F
COUNT 1 1 1
WIDTH 1386
HEIGHT 1
VIEWPOINT 0 0 0 1 0 0 0
POINTS 1386
DATA ascii
3.0102556 0.55666494 1.2006288
3.391577 0.54488325 1.2162815
2.4332616 0.56978923 1.0976341
2.7085702 0.56444114 1.1123878
3.0288851 0.55791366 1.1272776
3.4039497 0.54740661 1.129066
2.4562235 0.56969815 1.0421838
2.7374454 0.56641865 1.0518624
3.0474772 0.55919856 1.0519272
3.4022381 0.5470531 1.0380607
2.4852483 0.571531 0.98965561
2.7663054 0.56941414 0.99035543
3.0681329 0.56242174 0.97957426
3.4277134 0.55243874 0.95565331
2.5182993 0.57533097 0.93808806
2.7820854 0.57052892 0.92505801
3.0867667 0.56467026 0.90624118
3.4320836 0.55399096 0.86856997
2.5332212 0.57430494 0.88077074
2.8049052 0.57258224 0.86164641
3.1034005 0.566926 0.8329457
3.4425166 0.55746704 0.78440905
2.5622127 0.57717377 0.82626128
2.8136597 0.57174057 0.79544485
3.1069729 0.56728303 0.75685954
3.4439094 0.5600118 0.69839978
2.5871818 0.57907516 0.77080947
2.8384833 0.57478648 0.73201364
3.1205883 0.56956756 0.68262076
3.4453218 0.56253844 0.61339027
2.6020706 0.57908517 0.71151078
2.8542485 0.57691914 0.66573459
3.1231647 0.57092798 0.60657132
3.4407158 0.56510466 0.52749377
2.6199811 0.58006614 0.65317339
2.8610075 0.57708454 0.59958869
3.1317813 0.5732305 0.53242654
3.454175 0.57055157 0.44431216
2.639914 0.58202171 0.59581614
2.8737545 0.57924604 0.53236634
3.1343803 0.57557261 0.45739481
3.4335644 0.57117552 0.35868031
2.6477809 0.58107513 0.5356313
2.8855202 0.58139312 0.46616244
3.1419969 0.57787877 0.38326883
3.4279962 0.57370925 0.27480197
2.6797423 0.58596897 0.47910228
2.9013042 0.58350772 0.40088302
3.1355898 0.57825351 0.30837017
3.417448 0.57624274 0.19201723
2.6956198 0.58799314 0.41882122
2.8980274 0.58374518 0.33292562
3.1371932 0.58159924 0.23337525
3.4099216 0.5797472 0.11019379
2.7034721 0.58806443 0.35765472
2.9158001 0.5878703 0.26664504
3.1358113 0.58393759 0.15941834
3.3903937 0.58229488 0.028577819
2.7203348 0.5911029 0.29637322
2.9245331 0.59106421 0.19851622
3.1264272 0.58530486 0.08559376
2.9537549 0.50522643 -0.03966435
2.702112 0.5853228 0.23258823
2.9192529 0.59030885 0.13057838
3.1000347 0.58373368 0.012034535
2.9524601 0.51049197 -0.10956855
2.7320065 0.59229589 0.17213416
2.91698 0.59154248 0.062620223
2.9346473 0.55357593 -0.054437015
2.7242773 0.47234452 -0.16300453
2.7468507 0.59535962 0.10989057
2.9097412 0.59175807 -0.0032626921
2.91237 0.5528816 -0.1220554
2.7470348 0.48248696 -0.23127027
2.7576916 0.59743786 0.047704112
2.8574715 0.58213693 -0.068480201
2.7312169 0.51954663 -0.17528477
2.5011766 0.44007921 -0.2664462
2.7765241 0.60250509 -0.015578283
1.3025874 0.23757461 -0.034589902
2.7110183 0.51977265 -0.23892409
2.527998 0.45215264 -0.33175212
2.3252609 0.49602503 -0.058069941
1.2760257 0.23219353 -0.063199632
2.4941399 0.47827879 -0.27562657
2.3682284 0.42639714 -0.36623836
1.247557 0.24182563 -0.036483325
2.53508 0.51836848 -0.23365365
2.525979 0.49031612 -0.34002677
2.2983632 0.41846034 -0.41008875
1.215026 0.23443019 -0.063017033
2.4740703 0.50752646 -0.28472483
2.3362842 0.45356169 -0.36814955
2.3222222 0.43050835 -0.47333893
2.3592002 0.50787538 -0.2235471
2.5168777 0.52156025 -0.35129502
2.2764022 0.44660693 -0.41316947
2.3510468 0.4435744 -0.5386644
2.3322079 0.50291026 -0.27514902
2.3092709 0.477763 -0.37320772
2.3122442 0.45962971 -0.47762677
2.513268 0.48582396 -0.64297277
2.5138121 0.54772937 -0.35976714
2.2862933 0.47678298 -0.42481276
2.3460534 0.47369578 -0.54402786
2.4951637 0.4909696 -0.7025609
2.2792683 0.49494016 -0.37633631
2.3071976 0.48578799 -0.48506165
2.4734406 0.50889122 -0.63780808
2.455193 0.49105039 -0.75382841
2.2832265 0.49793491 -0.43237528
2.3360181 0.49785426 -0.55040509
2.5041378 0.52307653 -0.71015066
2.4002886 0.48811316 -0.80086952
2.3031266 0.5059436 -0.49262339
2.4434686 0.52904975 -0.63988292
2.4333103 0.51510715 -0.75198299
-0.02611593 -0.059798401 0.050936799
2.3419313 0.51899195 -0.55913645
2.4851489 0.54421353 -0.71341395
2.3824196 0.5111376 -0.79811764
0.17853317 -0.012098585 -0.032060068
2.4513621 0.55019838 -0.64965153
2.4192936 0.53424466 -0.75637579
-0.02611593 -0.059798401 0.050936799
-0.02611593 -0.059798401 0.050936799
2.4731164 0.55934453 -0.71791643
-0.02611593 -0.059798401 0.050936799
0.1845064 -0.0090844482 -0.034118082
0.1584876 -0.014990121 -0.033737641
2.4122603 0.54935759 -0.76097232
-0.02611593 -0.059798401 0.050936799
-0.02611593 -0.059798401 0.050936799
-0.02611593 -0.059798401 0.050936799
-0.02611593 -0.059798401 0.050936799
0.18251069 -0.0080774436 -0.034062482
0.1634423 -0.011954307 -0.03677652
0.13449501 -0.018921394 -0.032359075
-0.02611593 -0.059798401 0.050936799
-0.02611593 -0.059798401 0.050936799
-0.02611593 -0.059798401 0.050936799
-0.02611593 -0.059798401 0.050936799
0.17057993 -0.010106394 -0.029874392
0.16444603 -0.010958064 -0.036777295
0.14144541 -0.016892588 -0.035453554
0.11946724 -0.02184896 -0.033130936
-0.02611593 -0.059798401 0.050936799
-0.02611593 -0.059798401 0.050936799
-0.02611593 -0.059798401 0.050936799
-0.02611593 -0.059798401 0.050936799
0.15153027 -0.014001342 -0.031588763
0.14341545 -0.014863931 -0.037454426
0.121456 -0.019838389 -0.034132134
0.10546195 -0.023798376 -0.032903906
-0.02611593 -0.059798401 0.050936799
-0.02611593 -0.059798401 0.050936799
-0.02611593 -0.059798401 0.050936799
-0.02611593 -0.059798401 0.050936799
0.13348432 -0.016900055 -0.033303913
0.12540303 -0.018798649 -0.037188269
0.10642824 -0.022765957 -0.034903996
0.094422586 -0.024722548 -0.03471455
-0.02611593 -0.059798401 0.050936799
-0.02611593 -0.059798401 0.050936799
-0.02611593 -0.059798401 0.050936799
-0.02611593 -0.059798401 0.050936799
0.11054377 -0.021889016 -0.028963178
0.10743199 -0.021769715 -0.034904771
0.093422763 -0.024718959 -0.034695759
0.08045081 -0.027707973 -0.032506216
-0.02611593 -0.059798401 0.050936799
-0.02611593 -0.059798401 0.050936799
-0.02611593 -0.059798401 0.050936799
-0.02611593 -0.059798401 0.050936799
0.098496743 -0.02480926 -0.030791067
0.096388698 -0.02369372 -0.036733437
0.082435638 -0.02669723 -0.03352543
0.071448527 -0.028675504 -0.032355122
-0.02611593 -0.059798401 0.050936799
-0.02611593 -0.059798401 0.050936799
-0.02611593 -0.059798401 0.050936799
-0.02611593 -0.059798401 0.050936799
0.086509801 -0.026783941 -0.029601954
0.083398014 -0.026664641 -0.035543554
0.073414639 -0.027646672 -0.034374002
0.061446428 -0.029639445 -0.032185234
-0.02611593 -0.059798401 0.050936799
-0.02611593 -0.059798401 0.050936799
-0.02611593 -0.059798401 0.050936799
-0.02611593 -0.059798401 0.050936799
0.07648506 -0.028729627 -0.030449748
0.076343134 -0.026585253 -0.038410999
0.067340851 -0.027552782 -0.038259905
0.05049675 -0.031653892 -0.02901559
-0.02611593 -0.059798401 0.050936799
-0.02611593 -0.059798401 0.050936799
-0.02611593 -0.059798401 0.050936799
-0.02611593 -0.059798401 0.050936799
0.064516835 -0.030722395 -0.02826098
0.067336924 -0.028552612 -0.038277924
0.058372092 -0.029556321 -0.036127508
0.04646004 -0.031603359 -0.030939747
-0.02611593 -0.059798401 0.050936799
-0.02611593 -0.059798401 0.050936799
-0.02611593 -0.059798401 0.050936799
-0.02611593 -0.059798401 0.050936799
0.056510448 -0.032693345 -0.028146692
0.05538743 -0.030563474 -0.035089497
0.046441317 -0.031585269 -0.031939413
0.041423503 -0.031549234 -0.03284511
-0.02611593 -0.059798401 0.050936799
-0.02611593 -0.059798401 0.050936799
-0.02611593 -0.059798401 0.050936799
-0.02611593 -0.059798401 0.050936799
0.050470173 -0.033635467 -0.030051287
0.049365874 -0.031523678 -0.035994429
0.04238588 -0.031516645 -0.034863234
0.034439586 -0.032542031 -0.031731945
-0.02611593 -0.059798401 0.050936799
-0.02611593 -0.059798401 0.050936799
-0.02611593 -0.059798401 0.050936799
-0.02611593 -0.059798401 0.050936799
0.043448806 -0.034592085 -0.03093743
0.040401045 -0.032527387 -0.033844005
0.038330443 -0.031448025 -0.03778705
0.028418032 -0.03350224 -0.032636873
-0.02611593 -0.059798401 0.050936799
-0.02611593 -0.059798401 0.050936799
-0.02611593 -0.059798401 0.050936799
-0.02611593 -0.059798401 0.050936799
0.036483608 -0.035602968 -0.028824598
0.036345605 -0.032458764 -0.036767829
0.032308891 -0.032408234 -0.038691994
0.023418946 -0.033484295 -0.032542918
-0.02611593 -0.059798401 0.050936799
-0.02611593 -0.059798401 0.050936799
-0.02611593 -0.059798401 0.050936799
-0.02611593 -0.059798401 0.050936799
0.032428168 -0.035534348 -0.031748421
0.028395385 -0.034483984 -0.033654559
0.024381321 -0.033451706 -0.034561045
0.019400954 -0.033451848 -0.033467423
-0.02611593 -0.059798401 0.050936799
-0.02611593 -0.059798401 0.050936799
-0.02611593 -0.059798401 0.050936799
-0.02611593 -0.059798401 0.050936799
0.027410358 -0.035498314 -0.032654122
0.022411276 -0.035480369 -0.032560166
0.020344606 -0.033401173 -0.036485199
0.015364245 -0.033401318 -0.035391588
-0.02611593 -0.059798401 0.050936799
-0.02611593 -0.059798401 0.050936799
-0.02611593 -0.059798401 0.050936799
-0.02611593 -0.059798401 0.050936799
-0.02611593 -0.059798401 0.050936799
0.020303233 -0.034364827 -0.038502544
0.0153268 -0.033365142 -0.037390906
-0.02611593 -0.059798401 0.050936799
-0.02611593 -0.059798401 0.050936799
-0.02611593 -0.059798401 0.050936799
-0.02611593 -0.059798401 0.050936799
-0.02611593 -0.059798401 0.050936799
-0.02611593 -0.059798401 0.050936799
0.014337848 -0.035379298 -0.036408495
0.011290084 -0.033314604 -0.039315071
-0.02611593 -0.059798401 0.050936799
-0.02611593 -0.059798401 0.050936799
-0.02611593 -0.059798401 0.050936799
-0.02611593 -0.059798401 0.050936799
-0.02611593 -0.059798401 0.050936799
-0.02611593 -0.059798401 0.050936799
-0.02611593 -0.059798401 0.050936799
-0.02611593 -0.059798401 0.050936799
-0.02611593 -0.059798401 0.050936799
-0.02611593 -0.059798401 0.050936799
-0.02611593 -0.059798401 0.050936799
-0.02611593 -0.059798401 0.050936799
-0.02611593 -0.059798401 0.050936799
-0.02611593 -0.059798401 0.050936799
-0.02611593 -0.059798401 0.050936799
-0.02611593 -0.059798401 0.050936799
-0.02611593 -0.059798401 0.050936799
-0.02611593 -0.059798401 0.050936799
-0.02611593 -0.059798401 0.050936799
-0.02611593 -0.059798401 0.050936799
-0.02611593 -0.059798401 0.050936799
-0.02611593 -0.059798401 0.050936799
-0.02611593 -0.059798401 0.050936799
-0.02611593 -0.059798401 0.050936799
-0.02611593 -0.059798401 0.050936799
-0.02611593 -0.059798401 0.050936799
-0.02611593 -0.059798401 0.050936799
-0.02611593 -0.059798401 0.050936799
-0.02611593 -0.059798401 0.050936799
-0.02611593 -0.059798401 0.050936799
-0.02611593 -0.059798401 0.050936799
-0.02611593 -0.059798401 0.050936799
-0.02611593 -0.059798401 0.050936799
-0.02611593 -0.059798401 0.050936799
-0.02611593 -0.059798401 0.050936799
-0.02611593 -0.059798401 0.050936799
-0.02611593 -0.059798401 0.050936799
-0.02611593 -0.059798401 0.050936799
-0.02611593 -0.059798401 0.050936799
-0.02611593 -0.059798401 0.050936799
-0.02611593 -0.059798401 0.050936799
-0.02611593 -0.059798401 0.050936799
-0.02611593 -0.059798401 0.050936799
-0.02611593 -0.059798401 0.050936799
-0.02611593 -0.059798401 0.050936799
-0.02611593 -0.059798401 0.050936799
-0.02611593 -0.059798401 0.050936799
-0.02611593 -0.059798401 0.050936799
-0.02611593 -0.059798401 0.050936799
-0.02611593 -0.059798401 0.050936799
-0.02611593 -0.059798401 0.050936799
-0.02611593 -0.059798401 0.050936799
-0.02611593 -0.059798401 0.050936799
-0.02611593 -0.059798401 0.050936799
-0.02611593 -0.059798401 0.050936799
-0.02611593 -0.059798401 0.050936799
-0.02611593 -0.059798401 0.050936799
-0.02611593 -0.059798401 0.050936799
-0.02611593 -0.059798401 0.050936799
-0.02611593 -0.059798401 0.050936799
-0.02611593 -0.059798401 0.050936799
-0.02611593 -0.059798401 0.050936799
-0.02611593 -0.059798401 0.050936799
-0.02611593 -0.059798401 0.050936799
-0.02611593 -0.059798401 0.050936799
-0.02611593 -0.059798401 0.050936799
-0.02611593 -0.059798401 0.050936799
-0.02611593 -0.059798401 0.050936799
-0.02611593 -0.059798401 0.050936799
-0.02611593 -0.059798401 0.050936799
-0.02611593 -0.059798401 0.050936799
-0.02611593 -0.059798401 0.050936799
-0.02611593 -0.059798401 0.050936799
-0.02611593 -0.059798401 0.050936799
-0.02611593 -0.059798401 0.050936799
-0.02611593 -0.059798401 0.050936799
-0.02611593 -0.059798401 0.050936799
-0.02611593 -0.059798401 0.050936799
-0.02611593 -0.059798401 0.050936799
-0.02611593 -0.059798401 0.050936799
-0.02611593 -0.059798401 0.050936799
-0.02611593 -0.059798401 0.050936799
-0.02611593 -0.059798401 0.050936799
-0.02611593 -0.059798401 0.050936799
-0.02611593 -0.059798401 0.050936799
-0.02611593 -0.059798401 0.050936799
-0.02611593 -0.059798401 0.050936799
-0.02611593 -0.059798401 0.050936799
-0.02611593 -0.059798401 0.050936799
-0.02611593 -0.059798401 0.050936799
-0.02611593 -0.059798401 0.050936799
-0.02611593 -0.059798401 0.050936799
-0.02611593 -0.059798401 0.050936799
-0.02611593 -0.059798401 0.050936799
-0.02611593 -0.059798401 0.050936799
-0.02611593 -0.059798401 0.050936799
-0.02611593 -0.059798401 0.050936799
-0.02611593 -0.059798401 0.050936799
-0.02611593 -0.059798401 0.050936799
-0.02611593 -0.059798401 0.050936799
-0.02611593 -0.059798401 0.050936799
-0.02611593 -0.059798401 0.050936799
-0.02611593 -0.059798401 0.050936799
-0.02611593 -0.059798401 0.050936799
-0.02611593 -0.059798401 0.050936799
-0.02611593 -0.059798401 0.050936799
-0.02611593 -0.059798401 0.050936799
-0.02611593 -0.059798401 0.050936799
-0.02611593 -0.059798401 0.050936799
-0.02611593 -0.059798401 0.050936799
-0.02611593 -0.059798401 0.050936799
-0.02611593 -0.059798401 0.050936799
-0.02611593 -0.059798401 0.050936799
-0.02611593 -0.059798401 0.050936799
-0.02611593 -0.059798401 0.050936799
-0.02611593 -0.059798401 0.050936799
-0.02611593 -0.059798401 0.050936799
-0.02611593 -0.059798401 0.050936799
-0.02611593 -0.059798401 0.050936799
-0.02611593 -0.059798401 0.050936799
-0.02611593 -0.059798401 0.050936799
-0.02611593 -0.059798401 0.050936799
-0.02611593 -0.059798401 0.050936799
-0.02611593 -0.059798401 0.050936799
-0.02611593 -0.059798401 0.050936799
-0.02611593 -0.059798401 0.050936799
-0.02611593 -0.059798401 0.050936799
-0.057722952 -0.030031299 -0.039963789
-0.02611593 -0.059798401 0.050936799
-0.02611593 -0.059798401 0.050936799
-0.02611593 -0.059798401 0.050936799
-0.02611593 -0.059798401 0.050936799
-0.02611593 -0.059798401 0.050936799
-0.02611593 -0.059798401 0.050936799
-0.02611593 -0.059798401 0.050936799
-0.02611593 -0.059798401 0.050936799
-0.02611593 -0.059798401 0.050936799
-0.02611593 -0.059798401 0.050936799
-0.02611593 -0.059798401 0.050936799
-0.02611593 -0.059798401 0.050936799
-0.02611593 -0.059798401 0.050936799
-0.02611593 -0.059798401 0.050936799
-0.02611593 -0.059798401 0.050936799
-0.066713452 -0.027999341 -0.039758634
-0.02611593 -0.059798401 0.050936799
-0.02611593 -0.059798401 0.050936799
-0.02611593 -0.059798401 0.050936799
-0.02611593 -0.059798401 0.050936799
-0.02611593 -0.059798401 0.050936799
-0.02611593 -0.059798401 0.050936799
-0.069649793 -0.031060422 -0.035757672
-0.072727151 -0.02695989 -0.040627539
-0.069577917 -0.027115367 -0.032686621
-0.02611593 -0.059798401 0.050936799
-0.02611593 -0.059798401 0.050936799
-0.02611593 -0.059798401 0.050936799
-0.02611593 -0.059798401 0.050936799
-0.02611593 -0.059798401 0.050936799
-0.07361161 -0.031082243 -0.033683192
-0.075651705 -0.027021479 -0.036572523
-0.072539926 -0.027140781 -0.030630916
-0.02611593 -0.059798401 0.050936799
-0.02611593 -0.059798401 0.050936799
-0.02611593 -0.059798401 0.050936799
-0.02611593 -0.059798401 0.050936799
-0.02611593 -0.059798401 0.050936799
-0.080658644 -0.029003195 -0.036514606
-0.080646865 -0.026003703 -0.036460549
-0.076497816 -0.026162773 -0.028538417
-0.02611593 -0.059798401 0.050936799
-0.02611593 -0.059798401 0.050936799
-0.02611593 -0.059798401 0.050936799
-0.02611593 -0.059798401 0.050936799
-0.081561849 -0.03310746 -0.030569911
-0.087705679 -0.026924144 -0.039346013
-0.085608505 -0.026021939 -0.034367271
-0.081492975 -0.025144998 -0.028426446
-0.02611593 -0.059798401 0.050936799
-0.02611593 -0.059798401 0.050936799
-0.02611593 -0.059798401 0.050936799
-0.02611593 -0.059798401 0.050936799
-0.085504942 -0.033147372 -0.027495772
-0.092648596 -0.026960468 -0.036253083
-0.092636816 -0.023960976 -0.03619903
-0.090573154 -0.022022763 -0.033201586
-0.02611593 -0.059798401 0.050936799
-0.02611593 -0.059798401 0.050936799
-0.02611593 -0.059798401 0.050936799
-0.02611593 -0.059798401 0.050936799
-0.093551792 -0.03106473 -0.030308388
-0.097625032 -0.025960781 -0.035141446
-0.096594699 -0.022982972 -0.034106523
-0.093516439 -0.022066262 -0.030146223
-0.02611593 -0.059798401 0.050936799
-0.02611593 -0.059798401 0.050936799
-0.02611593 -0.059798401 0.050936799
-0.02611593 -0.059798401 0.050936799
-0.10054658 -0.030039776 -0.03015884
-0.10256796 -0.025997102 -0.032048512
-0.10255224 -0.021997783 -0.031976439
-0.1005073 -0.020041484 -0.029978655
-0.02611593 -0.059798401 0.050936799
-0.02611593 -0.059798401 0.050936799
-0.02611593 -0.059798401 0.050936799
-0.02611593 -0.059798401 0.050936799
-0.10650411 -0.029054597 -0.028028756
-0.11057734 -0.023950642 -0.032861814
-0.10854722 -0.02097642 -0.031845678
-0.10751689 -0.01799861 -0.030810747
-0.02611593 -0.059798401 0.050936799
-0.02611593 -0.059798401 0.050936799
-0.02611593 -0.059798401 0.050936799
-0.02611593 -0.059798401 0.050936799
-0.11652794 -0.025983036 -0.029786114
-0.12261561 -0.019853994 -0.035563238
-0.12060419 -0.016861679 -0.035546765
-0.11245587 -0.017035101 -0.027699791
-0.02611593 -0.059798401 0.050936799
-0.02611593 -0.059798401 0.050936799
-0.02611593 -0.059798401 0.050936799
-0.02611593 -0.059798401 0.050936799
-0.12653698 -0.023929397 -0.030561838
-0.1305915 -0.018843535 -0.034395229
-0.1295947 -0.014829717 -0.035341613
-0.12553141 -0.012898678 -0.032381751
-0.02611593 -0.059798401 0.050936799
-0.02611593 -0.059798401 0.050936799
-0.02611593 -0.059798401 0.050936799
-0.02611593 -0.059798401 0.050936799
-0.13854173 -0.020868752 -0.031281963
-0.14057788 -0.015808158 -0.034153268
-0.13856646 -0.012815844 -0.034136795
-0.13350336 -0.010888399 -0.03119573
-0.02611593 -0.059798401 0.050936799
-0.02611593 -0.059798401 0.050936799
-0.02611593 -0.059798401 0.050936799
-0.02611593 -0.059798401 0.050936799
-0.14546163 -0.019916158 -0.027133759
-0.14649796 -0.014859151 -0.030023862
-0.14550117 -0.010845331 -0.030970242
-0.14248994 -0.0078566065 -0.030972563
-0.02611593 -0.059798401 0.050936799
-0.02611593 -0.059798401 0.050936799
-0.02611593 -0.059798401 0.050936799
-0.02611593 -0.059798401 0.050936799
-0.14936335 -0.018992415 -0.022042274
-0.15947987 -0.010813176 -0.02970751
-0.15648738 -0.0078063617 -0.030709494
-0.15245759 -0.0048393179 -0.029730935
-0.02611593 -0.059798401 0.050936799
-0.02611593 -0.059798401 0.050936799
-0.02611593 -0.059798401 0.050936799
-0.02611593 -0.059798401 0.050936799
-0.17039213 -0.012863801 -0.024538547
-0.172447 -0.0077851173 -0.028409511
-0.16238873 -0.0068754461 -0.025580421
-0.16039212 -0.0028652162 -0.026545588
-0.02611593 -0.059798401 0.050936799
-0.02611593 -0.059798401 0.050936799
-0.02611593 -0.059798401 0.050936799
-0.02611593 -0.059798401 0.050936799
-0.1934205 -0.0067280121 -0.026997238
-0.19750461 0.0003936853 -0.032793913
-0.18746506 0.0013214526 -0.030964479
-0.16631219 -0.0019162045 -0.022416178
-0.02611593 -0.059798401 0.050936799
-0.02611593 -0.059798401 0.050936799
-0.02611593 -0.059798401 0.050936799
-0.02611593 -0.059798401 0.050936799
-0.22042158 0.0014037086 -0.028345067
-0.21644405 0.0054248497 -0.030347481
-0.20743392 0.0083920415 -0.030462537
-0.19338031 0.0082875295 -0.027726613
-0.02611593 -0.059798401 0.050936799
-0.02611593 -0.059798401 0.050936799
-0.02611593 -0.059798401 0.050936799
-0.02611593 -0.059798401 0.050936799
-0.24435617 0.007452637 -0.025786664
-0.2424266 0.013534889 -0.030714437
-0.22940633 0.014469975 -0.029941034
-0.21736322 0.016390391 -0.028131161
-0.02611593 -0.059798401 0.050936799
-0.02611593 -0.059798401 0.050936799
-0.02611593 -0.059798401 0.050936799
-0.02611593 -0.059798401 0.050936799
-0.96156019 0.22801259 -0.2314387
-0.27438146 0.023648033 -0.029932953
-0.26038012 0.024597619 -0.030178003
-0.24234596 0.024496842 -0.028516915
-0.9741528 0.23067889 -0.21014747
-0.02611593 -0.059798401 0.050936799
-0.02611593 -0.059798401 0.050936799
-0.02611593 -0.059798401 0.050936799
-0.98776013 0.23436666 -0.1898191
-0.97403985 0.2546567 -0.20871535
-0.96028215 0.27491057 -0.2256123
-0.2672725 0.032549031 -0.025903672
-0.99031025 0.2339433 -0.16577086
-0.99166125 0.25937676 -0.18929347
-0.98193628 0.28068101 -0.20809656
-0.02611593 -0.059798401 0.050936799
-1.0009032 0.23660238 -0.14451723
-1.0032728 0.26205754 -0.16902071
-0.9905563 0.28135136 -0.1879162
-0.97883564 0.30164856 -0.20677489
-1.0224972 0.24331836 -0.12398449
-1.0098518 0.26368439 -0.1468606
-1.0041635 0.28503913 -0.16758783
-0.98344547 0.3002868 -0.18570606
-1.0260433 0.24389839 -0.099899441
-1.0184304 0.26531836 -0.12466291
-1.0067551 0.28365213 -0.14555694
-0.99507576 0.30298567 -0.16643295
-1.0476185 0.25059628 -0.078367025
-1.0239947 0.26592368 -0.10153993
-1.0193437 0.28731823 -0.12424771
-1.0117012 0.30670235 -0.14704789
-1.0491648 0.2511692 -0.054319561
-1.0485843 0.27365026 -0.080932811
-1.0349506 0.29101318 -0.10388177
-1.0193175 0.30836892 -0.12686829
-1.0647118 0.25580972 -0.030936629
-1.0601544 0.2772947 -0.058642708
-1.0435441 0.29366511 -0.082665704
-1.0349243 0.31206387 -0.10650235
-1.0752409 0.26041421 -0.0066479594
-1.0657148 0.27889985 -0.035501711
-1.0581137 0.29732031 -0.060319223
-1.0395116 0.31168386 -0.084415853
-1.0857736 0.26401886 0.017622665
-1.0782661 0.28252977 -0.012193158
-1.0666884 0.29995412 -0.038103521
-1.0511044 0.31434655 -0.06314344
-1.1122841 0.2726801 0.042284045
-1.0877993 0.28613082 0.012058698
-1.0812579 0.30360931 -0.015757047
-1.064693 0.31801623 -0.041815408
-1.131781 0.28029829 0.06779553
-1.1053231 0.2917603 0.036496893
-1.0948052 0.30824268 0.0075883195
-1.0792626 0.32167143 -0.019468941
-1.1462678 0.28588083 0.094176695
-1.1178517 0.29637191 0.060823135
-1.0973514 0.30881914 0.031654581
-1.0908327 0.32531589 0.0028211698
-0.02611593 -0.059798401 0.050936799
-1.1293806 0.30098003 0.08513058
-1.1248763 0.31850186 0.055353109
-1.1003886 0.32793519 0.026055332
-1.19715 0.30506909 0.15049553
-1.1638175 0.31361502 0.11301334
-1.1174362 0.31604293 0.079177402
-1.1099445 0.33055452 0.049289502
-0.02611593 -0.059798401 0.050936799
-0.02611593 -0.059798401 0.050936799
-1.1528916 0.32869962 0.10607928
-1.1374545 0.33921936 0.07396967
-1.2429208 0.32413095 0.21271838
-1.2156808 0.33278885 0.17035063
-1.1674013 0.33330038 0.13144277
-0.02611593 -0.059798401 0.050936799
-1.2573102 0.33062282 0.24411586
-0.02611593 -0.059798401 0.050936799
-1.1828651 0.33986825 0.15886039
-1.1704836 0.35045296 0.12380816
-0.02611593 -0.059798401 0.050936799
-1.2425388 0.34483796 0.22909135
-1.216269 0.35146359 0.18870567
-0.02611593 -0.059798401 0.050936799
-1.2641498 0.33856466 0.30440801
-1.257924 0.35233328 0.26052564
-1.2287 0.35698465 0.21804821
-1.2074107 0.36361015 0.17875615
-0.02611593 -0.059798401 0.050936799
-1.2961987 0.3678374 0.2965349
-1.2630396 0.37052903 0.2509473
-1.2348047 0.37316626 0.20945233
-0.02611593 -0.059798401 0.050936799
-1.3204957 0.37829214 0.33219099
-1.2834014 0.37902403 0.28349322
-1.2611989 0.38271883 0.24012968
-1.339927 0.37484837 0.4165211
-1.3417743 0.38871801 0.36879039
-1.2957762 0.38449082 0.31583476
-1.2746109 0.38822535 0.27049068
-2.1240118 0.64107955 0.68810916
-1.3222841 0.38516194 0.39537019
-1.2872535 0.38395563 0.34367496
-1.2870046 0.39371023 0.30183256
-2.0912242 0.63718736 0.73043925
-1.3663962 0.40354237 0.43954352
-0.02611593 -0.059798401 0.050936799
-1.2735132 0.39017567 0.3285251
-2.0713398 0.63826865 0.77710235
-2.0261388 0.63681895 0.68119729
-1.3328104 0.40481815 0.41693014
-1.2948561 0.39865616 0.36208946
-2.0366089 0.63442361 0.81639588
-2.0112724 0.63793629 0.7269547
-1.9738452 0.63629824 0.64319599
-1.3380098 0.41606936 0.40422666
-2.0078278 0.6335634 0.85785556
-1.9894938 0.63610137 0.76852787
-1.9778994 0.64242858 0.69239944
-1.390075 0.43644199 0.45058572
-1.983023 0.63369924 0.90040797
-1.9736235 0.63821483 0.81428444
-1.9521521 0.63759792 0.7328437
-1.9405174 0.6398716 0.65964216
-1.9572227 0.63283163 0.94292361
-1.9419334 0.63341695 0.85161698
-1.933373 0.63577372 0.77447319
-1.9267373 0.6380654 0.70136565
-1.9175676 0.62904108 0.97812456
-1.9151971 0.63060045 0.89107883
-1.9145899 0.63494939 0.81612074
-1.9188695 0.63920772 0.74725455
-1.8868656 0.62724614 1.0155299
-1.8924109 0.63076156 0.93266922
-1.8958107 0.63312525 0.85775024
-1.8882097 0.631432 0.78355217
-1.8591175 0.62742555 1.055027
-1.8637124 0.62797403 0.9700942
-1.874047 0.63230824 0.89834177
-1.8773838 0.63160008 0.82736737
-1.8214958 0.62467796 1.0882843
-1.8389678 0.62716436 1.0096296
-1.8651717 0.63544673 0.94424796
-1.8744661 0.63572377 0.87540364
-1.7927854 0.62488997 1.1257633
-1.8181773 0.62833244 1.0512757
-1.8384541 0.63264829 0.98271012
-1.8547095 0.63291425 0.91599667
-1.7601172 0.62412393 1.1611497
-1.7904707 0.62754822 1.0887554
-1.8157129 0.6308459 1.0222652
-1.8359491 0.63110816 0.95662653
-1.7235324 0.62141621 1.1924263
-1.763764 0.62676752 1.126254
-1.7979033 0.63200676 1.0649672
-1.81717 0.62928402 0.99825609
-1.6909019 0.62068635 1.2258136
-1.7331182 0.62502694 1.1606604
-1.7702233 0.62924087 1.1014112
-1.8013411 0.63043392 1.0419953
-1.6572901 0.61997098 1.2581824
-1.7004914 0.62329715 1.1940296
-1.7385855 0.6254971 1.1357627
-1.7766231 0.62764269 1.0804951
-1.6168036 0.61633956 1.2843674
-1.6659105 0.61959684 1.2253258
-1.7177948 0.62666517 1.1774088
-1.7548821 0.62584388 1.120069
-1.5822256 0.6166566 1.3147361
-1.6352606 0.61885601 1.2597502
-1.6851946 0.62295389 1.2097423
-1.7350991 0.62501597 1.1616976
-1.5427576 0.61304677 1.3399404
-1.6006904 0.61717343 1.2900828
-1.6545527 0.62021339 1.2441307
-1.7133127 0.62518072 1.2033069
-1.5062439 0.61141121 1.3672364
-1.5661427 0.61450905 1.3193978
-1.6268836 0.61946535 1.2796111
-1.6905679 0.62437814 1.2428799
-1.4717034 0.61176443 1.3956057
-1.5355077 0.61478621 1.3528405
-1.5932798 0.61675036 1.3119438
-1.661888 0.62160867 1.2793051
-1.4391209 0.61308849 1.4260299
-1.501956 0.61312526 1.3821923
-1.5656294 0.61602032 1.3464246
-1.6351665 0.6198101 1.3177854
-1.3987281 0.60954756 1.4472169
-1.473298 0.61439133 1.4166902
-1.5389186 0.61623943 1.3839413
-1.6035475 0.61608434 1.3511374
-1.3593272 0.60800982 1.4684585
-1.4319093 0.60984689 1.4378405
-1.5024128 0.61260426 1.4112012
-1.5777992 0.6162709 1.390672
-1.3189306 0.60546857 1.4896634
-1.3983536 0.60918576 1.4672101
-1.4747173 0.61383772 1.4477173
-1.5481344 0.61451578 1.4260968
-1.2805296 0.60393447 1.510924
-1.3579608 0.60564476 1.4883969
-1.4372116 0.61019892 1.4749585
-1.5154929 0.61176813 1.4604475
-1.2470223 0.60532725 1.5373307
-1.3244201 0.60600156 1.516785
-1.40266 0.6085344 1.5042914
-1.4848471 0.61002743 1.4948541
-1.2066777 0.60384023 1.5555546
-1.2840459 0.60247868 1.5369723
-1.3700855 0.60785878 1.5346797
-1.4561368 0.61023951 1.532333
-1.1693101 0.60334563 1.5748526
-1.2485657 0.60188282 1.5623057
-1.335534 0.60619432 1.5640126
-1.4156542 0.60560817 1.5585003
-1.1348591 0.60478914 1.5982417
-1.2130852 0.60128683 1.5876393
-1.2980391 0.60457325 1.5902902
-1.3840047 0.60486376 1.5929058
-1.0896996 0.59944755 1.6073025
-1.1776196 0.60170883 1.6119912
-1.2654647 0.60389763 1.6206784
-1.3494157 0.60316312 1.6242381
-1.0523506 0.59897107 1.6256008
-1.1411768 0.60114545 1.6353066
-1.2289282 0.60324389 1.6489921
-1.3167661 0.60241514 1.658625
-1.0169375 0.60044724 1.6469719
-1.1037717 0.60061473 1.6566038
-1.1914707 0.601659 1.6732703
-1.2811549 0.60169262 1.6909561
-0.97860348 0.60098505 1.6642697
-1.0624913 0.59717864 1.6717739
-1.1549492 0.60202312 1.7006025
-1.2455622 0.60098815 1.7222877
-0.9374128 0.59863925 1.6744595
-1.0250635 0.59762967 1.6940889
-1.1155298 0.60046732 1.7228438
-1.2089696 0.60028011 1.7536002
-0.89912021 0.59821349 1.6897401
-0.98765457 0.59809875 1.7154043
-1.0761141 0.59791172 1.7450671
-1.1733769 0.59957564 1.7849318
-0.8618235 0.59879106 1.7050574
-0.94832861 0.59663332 1.7326472
-1.0396112 0.5982939 1.7713995
-1.1348221 0.59889662 1.8142076
-0.82167017 0.59648508 1.7132667
-0.90616089 0.59330225 1.7418005
-0.99730861 0.59583592 1.7875686
-1.0943505 0.59628308 1.8394111
-0.78245264 0.59612799 1.7245297
-0.86681229 0.59281856 1.7600614
-0.96078295 0.59719998 1.8149185
-1.053871 0.59566927 1.8646506
-0.74037856 0.59288734 1.7286847
-0.82462186 0.59046918 1.7702324
-0.91748035 0.59473848 1.8310689
-1.0085392 0.59116465 1.8827266
-0.70215678 0.59353375 1.7399848
-0.78632921 0.59004337 1.7855129
-0.87421924 0.59131324 1.8452017
-0.96995789 0.59246713 1.9130381
-0.66395783 0.5931983 1.7502669
-0.74507463 0.589643 1.7987378
-0.83291239 0.58985883 1.8614075
-0.92941833 0.59279883 1.9412946
-0.62673604 0.59384829 1.7615857
-0.70580089 0.58923167 1.813
-0.79444343 0.59126985 1.885721
-0.88407874 0.590294 1.9594065
-0.58663493 0.59259641 1.766814
-0.66754574 0.58884203 1.8262812
-0.75117439 0.58984441 1.8998898
-0.84355783 0.59064376 1.9866635
-0.54753363 0.59134811 1.7720611
-0.62536621 0.58851045 1.8354884
-0.70702565 0.58652413 1.9080061
-0.80011642 0.59005529 2.0098474
-0.50942832 0.5911032 1.7773451
-0.58612996 0.58813524 1.8477514
-0.66563219 0.58799684 1.9282646
-0.75189352 0.58664846 2.0218868
-0.46840617 0.58892018 1.7785379
-0.54587126 0.58873838 1.8610129
-0.62427998 0.5885058 1.9465057
-0.70562899 0.5842123 2.0359814
-0.43031955 0.58869332 1.7828223
-0.50377047 0.58747923 1.8662038
-0.57818782 0.58523268 1.9515853
-0.6602214 0.58465272 2.0571463
-0.39225158 0.58848459 1.7861067
-0.46360937 0.58717281 1.874449
-0.53683186 0.58674151 1.9698445
-0.61395288 0.58321643 2.071259
-0.35320646 0.58729059 1.7883549
-0.42155004 0.58495009 1.8776225
-0.49175817 0.58349001 1.9739431
-0.56956381 0.58367848 2.0914428
-0.31611571 0.58806717 1.792676
-0.38138488 0.58564359 1.8858857
-0.44760165 0.58216953 1.9820952
-0.52041614 0.58034033 2.0994654
-0.27904758 0.58786201 1.7959794
-0.34126115 0.58537346 1.8921317
-0.40436217 0.58277982 1.9943008
-0.47492182 0.58370787 2.1246829
-0.24009608 0.58675843 1.7932291
-0.29913387 0.58609587 1.8983582
-0.35920194 0.58245552 2.0024521
-0.42301109 0.57757652 2.1205988
-0.20210303 0.58662206 1.7925152
-0.25806645 0.58587635 1.9015864
-0.31596246 0.58306593 2.014658
-0.36679974 0.56106222 2.0812342
-0.16410999 0.58648568 1.7918011
-0.21618345 0.58181679 1.8957268
-0.26993734 0.58186477 2.0157747
-0.31256145 0.54653662 2.042943
-0.12619971 0.58442199 1.7870524
-0.17605188 0.58354622 1.9020088
-0.22579563 0.58156216 2.0229454
-0.26458201 0.54336494 2.0419869
-0.090063445 0.58716559 1.7934276
-0.13500321 0.58334482 1.9042375
-0.18083045 0.57941914 2.021064
-0.22428277 0.56002802 2.1075561
-0.053149026 0.58610535 1.7887157
-0.094052076 0.58223403 1.9014497
-0.13576379 0.57918531 2.0242171
-0.18006305 0.57574928 2.1690335
-0.015294895 0.5840959 1.7809681
-0.053119678 0.58114135 1.8976623
-0.089896329 0.57612926 2.0173006
-0.12891866 0.57642138 2.1760905
0.020604903 0.58405715 1.7752934
-0.011104714 0.58197236 1.8978908
-0.044829667 0.57589537 2.0204537
-0.078977063 0.57327861 2.1730976
0.057500586 0.58301502 1.7695816
0.027749237 0.57995927 1.8901242
0.00022218749 0.57667941 2.0226252
-0.028791126 0.57491791 2.1821907
0.093483135 0.58490354 1.7679416
0.068723008 0.57983029 1.8883542
0.044172764 0.57555783 2.0197811
0.02009844 0.57283288 2.1762357
0.12932284 0.58391923 1.7592498
0.10858071 0.57881349 1.880587
0.088025801 0.57352692 2.0119207
0.070205554 0.57354474 2.1813118
0.16516255 0.58293498 1.750558
0.14851722 0.57872427 1.8768363
0.13296139 0.57341969 2.0080762
0.12009494 0.57145602 2.1753383
0.1247285 0.36927933 1.1832579
-0.02611593 -0.059798401 0.050936799
0.17899434 0.57421821 2.0092292
0.16992815 0.56942159 2.1663654
0.23708627 0.58574831 1.7452606
0.13368784 0.34017962 1.186565
-0.02611593 -0.059798401 0.050936799
0.22082129 0.56832927 2.1603906
0.2728284 0.58385468 1.7315525
0.2691581 0.57861555 1.8565687
0.14554909 0.31015974 1.1847992
-0.02611593 -0.059798401 0.050936799
0.27092001 0.51235139 1.5372289
0.30904233 0.57958037 1.8498373
0.16694412 0.30062515 1.1542159
0.32059702 0.5681693 2.1475155
0.34146005 0.5839507 1.7112623
0.2472043 0.40762529 1.3597183
0.25640535 0.40848321 1.4766012
0.37041545 0.56715286 2.1375608
0.37730372 0.58396626 1.7025886
-0.02611593 -0.059798401 0.050936799
0.4002758 0.57307291 1.9690517
0.27598941 0.3656539 1.462455
0.41111025 0.58402508 1.6919531
0.23874614 0.31455484 1.0871007
0.4418819 0.57028443 1.9482152
0.46799651 0.56518131 2.1146905
0.4448981 0.58410203 1.680318
0.25952846 0.31267878 1.0756739
0.48572406 0.57027125 1.9393913
0.51678157 0.5652045 2.1027734
0.47864848 0.58421516 1.6666834
0.28026944 0.30983907 1.0622296
0.53055513 0.57227218 1.9295847
0.56552917 0.56526375 2.0888569
0.51239491 0.58332855 1.653031
0.3063592 0.31467256 1.0658298
0.57330394 0.57235301 1.9157811
0.61529541 0.56530142 2.0759215
0.54618669 0.5844053 1.6414138
-0.02611593 -0.059798401 0.050936799
0.61291033 0.56957173 1.8949822
0.66084456 0.56255287 2.052011
0.57893729 0.58452201 1.6277981
-0.02611593 -0.059798401 0.050936799
0.6566816 0.57063073 1.8821776
0.70857757 0.56363368 2.0371318
0.60538447 0.57893264 1.5991921
-0.02611593 -0.059798401 0.050936799
-0.02611593 -0.059798401 0.050936799
-0.02611593 -0.059798401 0.050936799
0.39781669 0.34796989 1.0297074
0.40106979 0.32161984 1.0481763
0.39586622 0.28871578 1.043677
0.39786425 0.25960499 1.0491148
0.59032482 0.50662088 1.3970976
0.55368859 0.43306172 1.3244282
0.47826809 0.33426791 1.1619983
0.54716861 0.34827858 1.3130128
0.70150548 0.57941657 1.5513852
0.75679088 0.57500172 1.6733115
0.81822091 0.56942081 1.8031045
0.89195925 0.56148964 1.94963
0.73528248 0.58151132 1.5387864
0.79142874 0.57521987 1.6536602
0.85263711 0.56583863 1.7723848
0.94381958 0.5664469 1.9407458
0.76597726 0.58168948 1.5222092
0.82606268 0.5744381 1.633991
0.89639747 0.56891531 1.7586166
0.98422384 0.56486088 1.9089499
0.79563475 0.58190739 1.5036516
0.85865951 0.57369971 1.61236
0.93087763 0.56727844 1.730932
1.0267065 0.56419516 1.881133
0.82425106 0.58116525 1.4830954
0.89224142 0.57397568 1.5897286
0.97255951 0.56943482 1.7131846
1.070253 0.56547117 1.8563323
0.85080373 0.57848489 1.4595419
0.92690188 0.57517546 1.5710951
1.0049427 0.56689584 1.6805212
1.1096575 0.56388879 1.8245552
0.88144624 0.57971716 1.4399838
0.95942384 0.5745095 1.5454655
1.0435088 0.56817174 1.6568141
1.1510881 0.56428075 1.793776
0.9111076 0.58093494 1.4214443
0.9940657 0.57572734 1.5258322
1.0790116 0.56751305 1.6301286
1.1904966 0.56369805 1.7620169
0.94281006 0.58310926 1.4048845
1.0235506 0.57510829 1.4982597
1.1155406 0.56883234 1.6044598
1.2309501 0.5650754 1.7322744
0.96628839 0.58051193 1.3773885
1.0551143 0.57540947 1.4746662
1.1500099 0.56921315 1.5758116
1.2703623 0.56549257 1.7005333
0.99390489 0.57977343 1.3568511
1.0856591 0.57573235 1.4500917
1.1855166 0.56955433 1.5491439
1.3077375 0.56595314 1.6668304
1.024574 0.58298725 1.3383287
1.1161854 0.57607335 1.4245178
1.2190088 0.57092047 1.5215323
1.3461351 0.56739181 1.6341264
1.0490748 0.58136821 1.3118318
1.1467342 0.57739598 1.3999612
1.2513998 0.57038105 1.4889051
1.3773686 0.56500101 1.5934846
1.0756391 0.58168733 1.2883323
1.1741636 0.57683837 1.3694274
1.2848544 0.57178342 1.459294
1.4116694 0.56554472 1.5558395
1.1011851 0.58202815 1.2638519
1.2036712 0.57720101 1.3428725
1.3162909 0.57321107 1.4287208
1.4470302 0.56703037 1.5211926
1.1267498 0.58235091 1.240371
1.2281014 0.57665414 1.3123949
1.3466673 0.57369679 1.3951496
1.4762532 0.56666458 1.4796249
1.1532954 0.58268809 1.2158717
1.2576128 0.57801658 1.2858579
1.3780998 0.57412457 1.3645583
1.5054909 0.56528074 1.4390386
1.1727369 0.58014148 1.1864519
1.2830238 0.57748419 1.2543619
1.408499 0.5755921 1.3320047
1.5439004 0.56971896 1.4063888
1.2003278 0.58243859 1.163969
1.3115356 0.57885033 1.2278439
1.4348199 0.57614636 1.2955096
1.5670416 0.56744736 1.3608987
1.2268815 0.58477551 1.1395061
1.3379729 0.58029592 1.1973646
1.4611372 0.57570082 1.2589964
1.6013917 0.57095438 1.3253071
1.2503902 0.58515966 1.1130639
1.3603469 0.5798105 1.1639256
1.4864771 0.57624066 1.2235198
1.6214961 0.5687297 1.2778745
1.2759213 0.58651841 1.0876018
1.3898665 0.58317256 1.1374247
1.5138206 0.57777309 1.1880236
1.646705 0.56939614 1.2354001
1.2953708 0.58597136 1.0582178
1.4112179 0.58170903 1.1029869
1.5371047 0.57837439 1.1495855
1.6759584 0.57201165 1.194886
1.3209059 0.58832997 1.0327737
1.4315923 0.58123082 1.0695854
1.5665119 0.58184499 1.1170865
1.7042122 0.5746308 1.1543906
1.3372958 0.58684814 1.000429
1.4529517 0.58176684 1.0351835
1.5847328 0.58051884 1.0757074
1.7223434 0.57439488 1.1080312
1.3577449 0.58629751 0.9710263
1.4794157 0.58519393 1.0057402
1.6060172 0.58112729 1.0373069
1.7485788 0.57703924 1.0665737
1.3822429 0.58869588 0.94360173
1.4936897 0.58282804 0.96741712
1.627287 0.5827536 0.99792475
1.769751 0.57775623 1.0221753
1.3956145 0.5872429 0.91031379
1.5150716 0.58434582 0.93403286
1.6505939 0.58433658 0.96050441
1.7899085 0.57949466 0.97681397
1.4201123 0.58964121 0.88288927
1.5364537 0.58586365 0.90064865
1.6627598 0.58308625 0.91623896
1.8050218 0.57928765 0.92951125
1.4375286 0.59013736 0.85156149
1.5527539 0.58547211 0.86332381
1.68103 0.58472335 0.87691319
1.8282239 0.5829789 0.88612884
1.4539225 0.58965546 0.81923485
1.5721215 0.58801502 0.82899553
1.7002815 0.58637494 0.83656889
1.8393192 0.5828042 0.83790159
1.4713387 0.59015161 0.78790718
1.5904628 0.58857995 0.79365033
1.7134887 0.5860846 0.79430211
1.8524405 0.58460402 0.79067254
1.4948032 0.59358954 0.75852001
1.6027451 0.58822083 0.75540096
1.7297405 0.58774698 0.75401413
1.867599 0.58636039 0.74540508
1.5071751 0.59214014 0.72525096
1.6220939 0.59078187 0.72007304
1.747996 0.59040201 0.71370679
1.8756759 0.58621466 0.69623464
1.5245767 0.59365422 0.69294155
1.6313541 0.58945179 0.68086231
1.7561666 0.59016573 0.66953456
1.8898199 0.58899254 0.65000445
1.5409596 0.59518999 0.65965134
1.6476848 0.59204161 0.64459103
1.7714001 0.59184986 0.6282658
1.9009604 0.59078139 0.60381252
1.5492948 0.59379113 0.62445813
1.6559452 0.59071511 0.60539913
1.7795933 0.5925954 0.58511132
1.9070604 0.59162456 0.5556972
1.5687 0.59629786 0.59212917
1.6702349 0.59234852 0.56714821
1.7857829 0.59234822 0.54197633
1.9151639 0.59346038 0.5075624
1.5770203 0.59591699 0.55595422
1.6805253 0.59399629 0.52897239
1.7939802 0.59409362 0.49883977
1.9222904 0.59628153 0.46046403
1.5964292 0.59942347 0.52364326
1.6958375 0.5966078 0.49172035
1.8051956 0.59581012 0.45664656
1.9233875 0.59614277 0.41242471
1.6097941 0.60098815 0.48940974
1.7020835 0.59630638 0.45158434
1.8103708 0.5965845 0.41254872
1.9234886 0.59700745 0.36442217
1.6221365 0.6015746 0.45417735
1.7063484 0.59599411 0.4124856
1.8165683 0.59833705 0.36944976
-0.02611593 -0.059798401 0.050936799
1.6304607 0.60219347 0.41802043
1.7166201 0.59765989 0.37331012
-0.02611593 -0.059798401 0.050936799
1.0968164 0.3195875 0.17681786
1.6387664 0.60283047 0.38086385
1.1643151 0.38814488 0.24281663
1.1453542 0.35802874 0.19761151
1.0060185 0.28958505 0.14096299
1.5646726 0.5700388 0.32964057
1.0533426 0.34634283 0.20012368
1.0073777 0.30930674 0.15629947
0.96044755 0.27625543 0.11356579
1.0617497 0.36900273 0.21738204
1.0227541 0.33397734 0.171463
0.86951363 0.26047623 0.1209854
0.89086038 0.25299558 0.087439045
0.99601501 0.34185579 0.18411042
0.91996026 0.29498333 0.13767076
0.84405226 0.25198355 0.098300785
0.87541676 0.24946614 0.064656623
0.99658036 0.34126845 0.1610814
0.82228976 0.25886232 0.10983659
0.85168815 0.25531611 0.0782113
0.85498494 0.24393688 0.04293178
0.87877661 0.29431155 0.12842654
0.79786164 0.24933 0.089114487
0.83529699 0.25073615 0.05842863
0.83861649 0.24033867 0.024166793
0.78311664 0.25616559 0.10151841
0.79349881 0.24768838 0.070160054
0.80590725 0.24118558 0.039799817
0.80721235 0.23181324 0.0045939125
0.76775485 0.24954621 0.083680242
0.78313315 0.24506851 0.051300343
0.81655049 0.24650705 0.019689992
0.82584709 0.24012354 -0.016611844
0.75940752 0.24690105 0.065782614
0.77780789 0.24339429 0.034364026
0.81117296 0.24588695 -0.00022729859
0.81348175 0.23751083 -0.03543397
0.74905664 0.2432632 0.047904544
0.77747089 0.24371988 0.016370125
0.7898162 0.24028893 -0.017934706
0.96496642 0.29464301 -0.075250201
0.75976688 0.24651262 0.031757321
0.77413446 0.24405625 -0.0015674047
0.78447622 0.23963264 -0.035852667
0.93356234 0.28611761 -0.094823085
0.75442678 0.24585637 0.013839358
0.77079403 0.24339281 -0.01952295
0.93796825 0.29875734 -0.075670451
0.86027932 0.26358244 -0.10486206
0.75711191 0.24715292 -0.0031932369
0.78244096 0.24971049 -0.039633546
0.92057741 0.29418096 -0.09543433
0.80998224 0.24799979 -0.11720644
0.76576632 0.25046384 -0.022301856
0.90795511 0.29888311 -0.076106384
0.81335801 0.2576617 -0.099088728
0.79864335 0.24736504 -0.13501166
0.77843183 0.25675982 -0.041431576
0.8845948 0.29229242 -0.093794242
0.77905887 0.24703886 -0.11264329
0.82318038 0.25976169 -0.16225605
0.87698644 0.29595867 -0.073578611
0.7993536 0.26072952 -0.099771261
0.77272296 0.24738599 -0.13052446
0.83774489 0.26915854 -0.18736726
0.8147015 0.27338406 -0.083824299
0.77206105 0.25208125 -0.11342134
0.76638705 0.24773313 -0.14840561
0.82041794 0.26652759 -0.20409614
0.79337436 0.26575023 -0.099568427
0.74378747 0.24341838 -0.12605296
0.82680398 0.27416101 -0.18507116
0.79115242 0.259868 -0.2166729
0.78104252 0.2621015 -0.11640925
0.74045491 0.24475457 -0.14397249
0.81346148 0.2725336 -0.20285681
0.20968944 0.033800423 -0.032813385
0.71886992 0.23941836 -0.12065697
0.80387527 0.27217153 -0.18067637
0.79614931 0.26888472 -0.21860401
0.19367272 0.028858695 -0.032602832
0.72252518 0.24274716 -0.13967164
0.80948186 0.27754709 -0.20269156
0.21268195 0.036807239 -0.033815369
-0.02611593 -0.059798401 0.050936799
0.79291862 0.27317464 -0.17845233
0.79116988 0.27390182 -0.21841997
0.20063099 0.032887161 -0.035661273
0.16463874 0.018964481 -0.032238089
0.8045094 0.27954659 -0.20156191
0.2146707 0.038817804 -0.034816567
-0.02611593 -0.059798401 0.050936799
-0.02611593 -0.059798401 0.050936799
0.79517007 0.27890471 -0.21940473
0.20362349 0.035893973 -0.036663257
0.17159702 0.022992941 -0.035296533
0.14460014 0.013055364 -0.032970052
0.21369356 0.039803136 -0.033780105
-0.02611593 -0.059798401 0.050936799
-0.02611593 -0.059798401 0.050936799
-0.02611593 -0.059798401 0.050936799
0.18871503 0.0298403 -0.030491538
0.1745856 0.024999924 -0.036316536
0.14859246 0.01605859 -0.033990812
0.12558004 0.0071245767 -0.032721143
-0.02611593 -0.059798401 0.050936799
-0.02611593 -0.059798401 0.050936799
-0.02611593 -0.059798401 0.050936799
-0.02611593 -0.059798401 0.050936799
0.16763519 0.022971118 -0.033222049
0.15057729 0.017069325 -0.035010044
0.12856862 0.0091315601 -0.033741131
0.10461255 0.00014686596 -0.029453687
-0.02611593 -0.059798401 0.050936799
-0.02611593 -0.059798401 0.050936799
-0.02611593 -0.059798401 0.050936799
-0.02611593 -0.059798401 0.050936799
0.14263794 0.013026363 -0.030933145
0.13650797 0.013174521 -0.037818033
0.11157081 0.0041753296 -0.032512136
0.097535014 -0.0007554898 -0.033338811
-0.02611593 -0.059798401 0.050936799
-0.02611593 -0.059798401 0.050936799
-0.02611593 -0.059798401 0.050936799
-0.02611593 -0.059798401 0.050936799
0.12758754 0.0091170603 -0.032722689
0.11750267 0.0062258062 -0.036587484
0.098538764 0.00024075573 -0.033339582
0.08157447 -0.0057514803 -0.030129276
-0.02611593 -0.059798401 0.050936799
-0.02611593 -0.059798401 0.050936799
-0.02611593 -0.059798401 0.050936799
-0.02611593 -0.059798401 0.050936799
0.1056163 0.0011431039 -0.029454459
0.10051967 0.00025166688 -0.03437683
0.088510081 -0.0027047545 -0.034205399
0.073534563 -0.0066864211 -0.031996295
-0.02611593 -0.059798401 0.050936799
-0.02611593 -0.059798401 0.050936799
-0.02611593 -0.059798401 0.050936799
-0.02611593 -0.059798401 0.050936799
0.094583884 -0.0027986444 -0.030319497
0.088510081 -0.0027047545 -0.034205399
0.080451466 -0.0036216103 -0.037072077
0.065509453 -0.0086392788 -0.032881659
-0.02611593 -0.059798401 0.050936799
-0.02611593 -0.059798401 0.050936799
-0.02611593 -0.059798401 0.050936799
-0.02611593 -0.059798401 0.050936799
0.084555201 -0.0057441578 -0.031185307
0.080466256 -0.0046395264 -0.036090437
0.069475204 -0.0076176291 -0.034938138
0.055536944 -0.01163906 -0.03074849
-0.02611593 -0.059798401 0.050936799
-0.02611593 -0.059798401 0.050936799
-0.02611593 -0.059798401 0.050936799
-0.02611593 -0.059798401 0.050936799
0.072560415 -0.0097185029 -0.030032236
0.069471277 -0.0086174561 -0.034956157
0.062435117 -0.0085561555 -0.03682394
-0.02611593 -0.059798401 0.050936799
-0.02611593 -0.059798401 0.050936799
-0.02611593 -0.059798401 0.050936799
-0.02611593 -0.059798401 0.050936799
-0.02611593 -0.059798401 0.050936799
0.06158416 -0.013714518 -0.027898293
0.06145009 -0.0095704906 -0.035823509
0.0524626 -0.011555936 -0.034690771
0.041527718 -0.014588307 -0.030539479
-0.02611593 -0.059798401 0.050936799
-0.02611593 -0.059798401 0.050936799
-0.02611593 -0.059798401 0.050936799
-0.02611593 -0.059798401 0.050936799
0.054562792 -0.01467114 -0.028784439
0.0534437 -0.011541436 -0.035709221
0.04838844 -0.011469224 -0.038614254
0.037472289 -0.014519684 -0.033463303
-0.02611593 -0.059798401 0.050936799
-0.02611593 -0.059798401 0.050936799
-0.02611593 -0.059798401 0.050936799
-0.02611593 -0.059798401 0.050936799
0.045571376 -0.017656418 -0.02766972
0.047418218 -0.013501472 -0.036632176
0.038453382 -0.014505184 -0.03448176
0.028537042 -0.017559228 -0.029349599
-0.02611593 -0.059798401 0.050936799
-0.02611593 -0.059798401 0.050936799
-0.02611593 -0.059798401 0.050936799
-0.02611593 -0.059798401 0.050936799
0.038583525 -0.019649042 -0.026574556
0.042381689 -0.013447349 -0.038537547
0.032450553 -0.015483477 -0.034387037
0.025500147 -0.017512284 -0.031292554
-0.02611593 -0.059798401 0.050936799
-0.02611593 -0.059798401 0.050936799
-0.02611593 -0.059798401 0.050936799
-0.02611593 -0.059798401 0.050936799
0.036494203 -0.018551592 -0.031517267
0.03246142 -0.017501228 -0.033423405
0.026447726 -0.016461775 -0.03429231
0.020482337 -0.017476249 -0.03219825
-0.02611593 -0.059798401 0.050936799
-0.02611593 -0.059798401 0.050936799
-0.02611593 -0.059798401 0.050936799
-0.02611593 -0.059798401 0.050936799
0.029506352 -0.02054422 -0.030422106
0.02839119 -0.016414685 -0.037328869
0.022425804 -0.01742916 -0.035234824
-0.02611593 -0.059798401 0.050936799
-0.02611593 -0.059798401 0.050936799
-0.02611593 -0.059798401 0.050936799
-0.02611593 -0.059798401 0.050936799
-0.02611593 -0.059798401 0.050936799
0.023499597 -0.022522345 -0.030345395
0.021436853 -0.019443318 -0.034252413
0.016441697 -0.018425547 -0.034140442
-0.02611593 -0.059798401 0.050936799
-0.02611593 -0.059798401 0.050936799
-0.02611593 -0.059798401 0.050936799
-0.02611593 -0.059798401 0.050936799
-0.02611593 -0.059798401 0.050936799
-0.02611593 -0.059798401 0.050936799
0.015471471 -0.020457797 -0.032158356
0.012423703 -0.018393101 -0.035064939
-0.02611593 -0.059798401 0.050936799
-0.02611593 -0.059798401 0.050936799
-0.02611593 -0.059798401 0.050936799
-0.02611593 -0.059798401 0.050936799
-0.02611593 -0.059798401 0.050936799
0.014463797 -0.022453867 -0.032175601
0.013348632 -0.018324334 -0.039082374
0.0083721979 -0.017324649 -0.037970744
-0.02611593 -0.059798401 0.050936799
-0.02611593 -0.059798401 0.050936799
-0.02611593 -0.059798401 0.050936799
-0.02611593 -0.059798401 0.050936799
-0.02611593 -0.059798401 0.050936799
-0.02611593 -0.059798401 0.050936799
0.0073980438 -0.02035673 -0.036006685
0.0043542078 -0.017292203 -0.038895242
-0.02611593 -0.059798401 0.050936799
-0.02611593 -0.059798401 0.050936799
-0.02611593 -0.059798401 0.050936799
-0.02611593 -0.059798401 0.050936799
-0.02611593 -0.059798401 0.050936799
-0.02611593 -0.059798401 0.050936799
-0.02611593 -0.059798401 0.050936799
-0.00064880471 -0.018274089 -0.038819306
-0.02611593 -0.059798401 0.050936799
