# .PCD v0.7 - Point Cloud Data file format
VERSION 0.7
FIELDS x y z
SIZE 4 4 4
TYPE F F F
COUNT 1 1 1
WIDTH 1409
HEIGHT 1
VIEWPOINT 0 0 0 1 0 0 0
POINTS 1409
DATA ascii
0.54854709 0.56430686 2.0901582
0.58792448 0.55488646 2.271312
0.35444391 0.28760073 1.4475691
0.71027207 0.54241878 2.7699647
0.58917993 0.56350356 2.0703762
0.63765323 0.55496031 2.2563772
0.38946807 0.2904565 1.4479651
0.7739194 0.54151493 2.7507503
0.63189119 0.56362057 2.0545731
0.68424356 0.55317175 2.2344651
0.42015493 0.28863499 1.4313521
0.83747315 0.54070145 2.7265375
0.67464393 0.5647012 2.0407879
0.73192042 0.55430686 2.2165868
0.45094332 0.28872272 1.4197733
0.9000271 0.5398916 2.7023435
0.71313429 0.5610323 2.0139918
0.77961212 0.55442399 2.1996903
0.47641733 0.28511849 1.3922218
0.96150237 0.53815776 2.6741514
-0.02611593 -0.059798401 0.050936799
-0.02611593 -0.059798401 0.050936799
-0.02611593 -0.059798401 0.050936799
-0.02611593 -0.059798401 0.050936799
0.39885318 0.26161912 1.0481324
0.46691155 0.27748841 1.2071991
0.5169692 0.27230874 1.3172054
0.51764345 0.23247476 1.307469
0.54418486 0.35228866 1.3131413
0.52719325 0.30011487 1.2705013
1.020305 0.54691148 2.3420963
1.1469851 0.53791583 2.5916467
-0.02611593 -0.059798401 0.050936799
0.96810216 0.55617106 2.1171649
1.068689 0.54531479 2.3091502
1.2095468 0.53910559 2.5674884
0.91954309 0.56680447 1.9262018
1.0095062 0.55458134 2.0853503
1.1191555 0.54563826 2.2802017
1.267933 0.53847289 2.5343728
0.95186216 0.56231999 1.8905034
1.0561459 0.55575621 2.0654914
1.1737562 0.54682064 2.2581933
1.3273643 0.53979999 2.5032735
0.99046189 0.56255984 1.8687779
1.0975913 0.55513018 2.0356941
1.2190659 0.54530698 2.2213049
1.3877915 0.54012376 2.4721375
1.0290655 0.56379962 1.84707
1.1390368 0.55450422 2.0058968
1.2685138 0.54565215 2.1913755
1.4399875 0.53869367 2.4291196
1.0676278 0.56407571 1.8233451
1.185624 0.55673319 1.983057
1.3189654 0.54699355 2.1614451
1.4942285 0.53921992 2.3880999
1.1041303 0.56341338 1.7966406
1.22401 0.55517238 1.9502991
1.3653164 0.54644001 2.1265552
1.5515852 0.54062653 2.3530393
1.140678 0.56471455 1.7719715
1.2633808 0.55462599 1.9165406
1.4137123 0.54784286 2.0936635
1.6048038 0.5401746 2.3110206
1.1751436 0.56409562 1.7433052
1.30689 0.55593818 1.8897407
1.4631641 0.5491879 2.0637517
1.6529109 0.5398491 2.2630978
1.2116874 0.56439692 1.7186182
1.3411828 0.55448222 1.8520596
1.5023249 0.54784048 2.0189791
1.7072122 0.54132086 2.2250948
1.2461567 0.56477779 1.6899699
1.384692 0.55579442 1.8252596
1.5538032 0.55115992 1.9900653
1.7563417 0.54197347 2.1781707
1.2775439 0.5632422 1.6573434
1.4200075 0.55531669 1.7885773
1.5940201 0.5497548 1.9482728
1.8055087 0.54258996 2.1332464
1.3110135 0.56362665 1.6287141
1.4676025 0.55954164 1.7657548
1.6342224 0.54936749 1.9054985
1.8566983 0.54418093 2.0893018
1.3516245 0.56685889 1.6070049
1.495739 0.5562523 1.7201531
1.6775107 0.55189669 1.8667207
1.9058731 0.5467971 2.0444131
1.3830158 0.56632304 1.5743963
1.537196 0.55862576 1.6904097
1.7177354 0.55249119 1.8249642
1.9458467 0.54562706 1.989625
1.4124072 0.56579441 1.5418254
1.5745753 0.56008613 1.6567249
1.7610199 0.55402052 1.7861683
1.9939843 0.54828304 1.9427559
1.4499024 0.56814605 1.5141566
1.6058166 0.55969501 1.6161193
1.7971668 0.55370188 1.7404704
2.0339844 0.54909456 1.8890035
1.4762157 0.56670076 1.4776255
1.6400987 0.56025678 1.5774745
1.8404589 0.55723077 1.7017106
2.0709441 0.54895324 1.83329
1.5056111 0.56717187 1.4450727
1.6744183 0.56078237 1.5408289
1.8674496 0.55508953 1.6481483
2.1140037 0.55069965 1.7824982
1.5359876 0.56765759 1.4115012
1.7046638 0.56139469 1.50026
1.9066788 0.55668747 1.6064286
2.1540265 0.55249298 1.7297634
1.5673826 0.56812161 1.3789107
1.7430279 0.56386942 1.4655746
1.945893 0.55930334 1.5637271
2.1737525 0.54963028 1.6623195
1.5977818 0.56958896 1.3463571
1.7681915 0.56257236 1.4210651
1.9749287 0.55911833 1.5121627
2.2178385 0.55335456 1.6125447
1.6261212 0.57011801 1.3108242
1.7994593 0.56416279 1.381495
2.0080652 0.56082827 1.4655575
2.2467101 0.55433232 1.5520012
1.655483 0.57162523 1.2762898
1.8327309 0.566746 1.3419054
2.0401833 0.56255978 1.4179714
2.277637 0.5552485 1.4944193
1.6818001 0.57117969 1.2397767
1.8629576 0.56737638 1.3003367
2.0692415 0.56335664 1.3674245
2.3156493 0.55906677 1.4407585
1.7111621 0.57268691 1.2052425
1.8871253 0.5670827 1.2558638
2.0973039 0.56515682 1.3169146
2.3374615 0.55912399 1.3773295
1.735446 0.57328463 1.1667857
1.9153376 0.56873822 1.2133511
2.1193035 0.56503314 1.2634825
2.3592923 0.55916315 1.3149005
1.7587113 0.57390392 1.1273479
1.9445535 0.57138991 1.1708378
2.1483846 0.56681168 1.2139533
2.3902273 0.56207901 1.2573545
1.7910993 0.57738185 1.0937932
1.9656844 0.57114327 1.124422
2.1683657 0.56671327 1.159559
2.4090443 0.56314683 1.194
1.8123424 0.57702667 1.0533752
1.9948816 0.57381308 1.0809088
2.1954134 0.56953508 1.1080862
2.430902 0.56516755 1.1326065
1.8406521 0.57959157 1.0158788
2.0190573 0.57551908 1.036472
2.2093546 0.5684945 1.0517873
2.4517784 0.56717372 1.0722314
1.8628991 0.58023256 0.97546029
2.0432138 0.57724321 0.99103552
2.2313805 0.57035244 0.99939066
2.4756582 0.57016909 1.0118181
1.885146 0.58087361 0.93504161
2.0653527 0.57899255 0.94463688
2.2544105 0.5732066 0.94699335
2.4874578 0.57128012 0.94759548
1.9094151 0.58248919 0.89560312
2.0864725 0.58076364 0.89725745
2.2633336 0.57220215 0.88978875
2.508342 0.57528603 0.88725644
1.9286438 0.58315903 0.85424119
2.1035705 0.58156729 0.84893548
2.2924078 0.57699823 0.83931404
2.5120974 0.57446229 0.82114881
1.947839 0.58486491 0.81089795
2.1196685 0.58237457 0.8006323
2.3063605 0.5789572 0.78306919
2.5158758 0.57462025 0.75605893
1.9700711 0.58652383 0.76949775
2.1357293 0.58321804 0.75032985
2.3153062 0.57893449 0.72688222
2.533742 0.578655 0.69477665
1.9862403 0.58625895 0.72517514
2.1488094 0.58405411 0.70108336
2.3302815 0.58187157 0.67163628
2.5445869 0.58173311 0.63260812
2.0004139 0.58700097 0.6809082
2.1648929 0.58587933 0.65179855
2.3311834 0.57991409 0.61356431
2.5514097 0.58384377 0.56949723
2.019609 0.58870685 0.63756496
2.1749508 0.58574444 0.60159075
2.3411369 0.58188748 0.55739456
2.5592551 0.58693272 0.50738519
2.0398078 0.59140903 0.594221
2.1900344 0.58757329 0.55232483
2.3531127 0.58483535 0.50220501
2.5480094 0.58516294 0.44154134
2.0489409 0.59120536 0.54803067
2.1960595 0.58848876 0.50021088
2.358063 0.58582681 0.44611123
2.5448303 0.58630979 0.3786003
2.0640953 0.59196192 0.50274527
2.2121468 0.59131378 0.45094407
2.3619988 0.58783972 0.3890546
2.5486577 0.58943111 0.31556374
2.075232 0.59275097 0.45653537
2.214165 0.590244 0.39886928
2.3689528 0.5898239 0.33294129
2.5374763 0.58960676 0.25275499
2.0863686 0.59354001 0.41032547
2.224216 0.59312671 0.34771588
2.3759294 0.59278971 0.27784562
2.4872248 0.57996029 0.18849953
2.0954866 0.59435427 0.36315352
2.22826 0.59403127 0.2966392
2.3768847 0.59479535 0.22184505
2.4650748 0.5781396 0.12786075
2.1056089 0.59616488 0.31598076
2.2332854 0.59495038 0.24454412
2.3688149 0.59485173 0.16497789
2.4689851 0.58318824 0.068858877
-0.02611593 -0.059798401 0.050936799
2.2383332 0.59685117 0.19346666
2.3777802 0.59982812 0.10888104
2.4538791 0.58330595 0.010123916
1.1020039 0.28522313 0.14008668
2.2433629 0.59877014 0.14138958
2.370729 0.59986281 0.052994743
2.3717413 0.56764865 -0.046640709
1.1205709 0.29058826 0.11582789
2.241389 0.5997144 0.089425988
2.370692 0.6038717 -0.0029510148
2.3047061 0.55484664 -0.098634824
1.1150771 0.28907683 0.089894608
2.2424192 0.60164768 0.037424058
2.3386407 0.59797913 -0.057475992
-0.02611593 -0.059798401 0.050936799
1.1175897 0.28953639 0.063847058
2.2474711 0.60454828 -0.013635375
2.2876327 0.58810097 -0.10871705
1.0828146 0.23713876 -0.073496237
1.1101111 0.28701425 0.038933005
2.2374914 0.60352159 -0.065484673
-0.02611593 -0.059798401 0.050936799
1.0563729 0.23364881 -0.096071959
0.9515357 0.23898755 0.019026458
2.2365255 0.60646188 -0.117431
1.0558361 0.24625224 -0.07382638
2.3624506 0.59385103 -0.33308989
1.1011646 0.28494787 -0.01095378
-0.02611593 -0.059798401 0.050936799
1.015415 0.23777719 -0.094229817
-0.02611593 -0.059798401 0.050936799
1.0826803 0.2804656 -0.03569717
1.058786 0.26234728 -0.079592422
1.0219425 0.2422217 -0.12028046
1.0499223 0.24209458 -0.1748251
1.0582228 0.27296913 -0.058382556
1.0063809 0.24788012 -0.097879171
1.0603873 0.25565839 -0.15276819
1.032487 0.24057199 -0.19753391
1.0108018 0.25950196 -0.077744879
1.0408788 0.26027709 -0.12731078
1.0020581 0.2411404 -0.16694355
1.0728644 0.2560735 -0.23402187
0.94545817 0.2410098 -0.091860749
1.078305 0.27373543 -0.16077939
0.97468776 0.23658186 -0.18551986
-0.02611593 -0.059798401 0.050936799
0.96301043 0.24739642 -0.11708241
1.0299671 0.26219916 -0.17608824
1.0569361 0.2640934 -0.23157772
1.0141054 0.24698885 -0.27209893
1.0643312 0.27978468 -0.1604082
0.94876051 0.23962039 -0.18197826
0.99369758 0.2485031 -0.24067883
0.98874247 0.24442275 -0.29067683
1.0080163 0.26424158 -0.17363949
0.93934625 0.23905084 -0.20381971
0.97629958 0.24694434 -0.2613883
0.20559983 0.01081869 -0.033152647
0.93279392 0.2426592 -0.18062389
0.95284694 0.24650589 -0.23194718
0.95195127 0.24335672 -0.27900329
0.18858331 0.0058805482 -0.0329233
0.93733275 0.24509312 -0.20567334
0.95238674 0.24895775 -0.25690264
0.20959218 0.013821915 -0.034173422
-0.02611593 -0.059798401 0.050936799
0.91698378 0.24149121 -0.22336352
0.92408746 0.24333058 -0.27147955
0.19556423 0.010890757 -0.034964062
0.1625645 -2.5113113e-05 -0.032542858
0.92451113 0.24593212 -0.24943294
0.21058111 0.015836077 -0.035155825
-0.02611593 -0.059798401 0.050936799
-0.02611593 -0.059798401 0.050936799
0.17288187 0.0046487227 -0.016646095
0.1935685 0.011897766 -0.034908462
0.17150758 0.0050140927 -0.036620535
0.13854925 -0.0049381284 -0.032181978
-0.02611593 -0.059798401 0.050936799
-0.02611593 -0.059798401 0.050936799
-0.02611593 -0.059798401 0.050936799
-0.02611593 -0.059798401 0.050936799
0.18461455 0.0088763144 -0.031794425
0.16852686 0.0050067706 -0.035564493
0.14650339 -0.0019130844 -0.035277229
0.12153665 -0.0088764364 -0.031934611
-0.02611593 -0.059798401 0.050936799
-0.02611593 -0.059798401 0.050936799
-0.02611593 -0.059798401 0.050936799
-0.02611593 -0.059798401 0.050936799
0.16454239 0.0040032063 -0.034507684
0.14550751 -0.00090966863 -0.035240423
0.12648743 -0.0068404563 -0.03499151
0.10750871 -0.011807594 -0.032725267
-0.02611593 -0.059798401 0.050936799
-0.02611593 -0.059798401 0.050936799
-0.02611593 -0.059798401 0.050936799
-0.02611593 -0.059798401 0.050936799
0.14154176 -0.001931318 -0.033183958
0.12749118 -0.005844214 -0.034992285
0.11245948 -0.0097716143 -0.03578217
0.095499121 -0.014764018 -0.032553837
-0.02611593 -0.059798401 0.050936799
-0.02611593 -0.059798401 0.050936799
-0.02611593 -0.059798401 0.050936799
-0.02611593 -0.059798401 0.050936799
0.11459018 -0.0099054156 -0.02882212
0.11444432 -0.0087608686 -0.03680139
0.098468982 -0.012738947 -0.034573488
0.084474556 -0.016706109 -0.033382826
-0.02611593 -0.059798401 0.050936799
-0.02611593 -0.059798401 0.050936799
-0.02611593 -0.059798401 0.050936799
-0.02611593 -0.059798401 0.050936799
0.10255793 -0.013843575 -0.029668365
0.10043511 -0.011710116 -0.036592375
0.087440491 -0.015680868 -0.035420515
0.076434642 -0.017641053 -0.035249855
-0.02611593 -0.059798401 0.050936799
-0.02611593 -0.059798401 0.050936799
-0.02611593 -0.059798401 0.050936799
-0.02611593 -0.059798401 0.050936799
0.090552278 -0.015800169 -0.029478919
0.087425701 -0.014662951 -0.036402158
0.077419668 -0.016626719 -0.036250286
0.066447333 -0.019622909 -0.03409832
-0.02611593 -0.059798401 0.050936799
-0.02611593 -0.059798401 0.050936799
-0.02611593 -0.059798401 0.050936799
-0.02611593 -0.059798401 0.050936799
0.077557661 -0.01977092 -0.028307054
0.07743445 -0.01764464 -0.035268646
0.069394559 -0.018579582 -0.037135661
0.05451265 -0.022651689 -0.029928245
-0.02611593 -0.059798401 0.050936799
-0.02611593 -0.059798401 0.050936799
-0.02611593 -0.059798401 0.050936799
-0.02611593 -0.059798401 0.050936799
0.074464597 -0.019669708 -0.03324898
0.067428432 -0.019608408 -0.035116781
0.059425969 -0.020579532 -0.034984473
0.047491278 -0.023608308 -0.030814391
-0.02611593 -0.059798401 0.050936799
-0.02611593 -0.059798401 0.050936799
-0.02611593 -0.059798401 0.050936799
-0.02611593 -0.059798401 0.050936799
0.061511368 -0.022676812 -0.030059777
0.059422042 -0.021579359 -0.035002489
0.054370724 -0.020507319 -0.037889499
0.042454749 -0.023554187 -0.032719754
-0.02611593 -0.059798401 0.050936799
-0.02611593 -0.059798401 0.050936799
-0.02611593 -0.059798401 0.050936799
-0.02611593 -0.059798401 0.050936799
0.051538862 -0.025676589 -0.027926613
0.051400866 -0.022532389 -0.035869844
0.042450823 -0.024554014 -0.032737773
0.036433198 -0.02451439 -0.033624697
-0.02611593 -0.059798401 0.050936799
-0.02611593 -0.059798401 0.050936799
-0.02611593 -0.059798401 0.050936799
-0.02611593 -0.059798401 0.050936799
0.047464699 -0.025589878 -0.031850096
0.046360403 -0.023478096 -0.03779323
0.038399309 -0.023485564 -0.035643585
0.031415388 -0.024478357 -0.034530412
-0.02611593 -0.059798401 0.050936799
-0.02611593 -0.059798401 0.050936799
-0.02611593 -0.059798401 0.050936799
-0.02611593 -0.059798401 0.050936799
0.041443143 -0.026550084 -0.032755017
0.041323867 -0.023423973 -0.039698601
0.031411458 -0.025478188 -0.034548432
0.024450187 -0.025489245 -0.032417566
-0.02611593 -0.059798401 0.050936799
-0.02611593 -0.059798401 0.050936799
-0.02611593 -0.059798401 0.050936799
-0.02611593 -0.059798401 0.050936799
0.033492923 -0.028575303 -0.029641755
0.032373827 -0.025445599 -0.036566541
0.028322324 -0.024377145 -0.039472345
0.020413471 -0.025438711 -0.034341734
-0.02611593 -0.059798401 0.050936799
-0.02611593 -0.059798401 0.050936799
-0.02611593 -0.059798401 0.050936799
-0.02611593 -0.059798401 0.050936799
0.029437486 -0.028506681 -0.032565571
0.027352093 -0.026409395 -0.037490264
0.023323238 -0.0243592 -0.03937839
-0.02611593 -0.059798401 0.050936799
-0.02611593 -0.059798401 0.050936799
-0.02611593 -0.059798401 0.050936799
-0.02611593 -0.059798401 0.050936799
-0.02611593 -0.059798401 0.050936799
-0.02611593 -0.059798401 0.050936799
0.018439498 -0.028467201 -0.032358874
0.016372832 -0.026388006 -0.036283907
0.011396395 -0.025388321 -0.03517228
-0.02611593 -0.059798401 0.050936799
-0.02611593 -0.059798401 0.050936799
-0.02611593 -0.059798401 0.050936799
-0.02611593 -0.059798401 0.050936799
-0.02611593 -0.059798401 0.050936799
0.014402786 -0.028416667 -0.034283046
0.012336115 -0.026337473 -0.038208071
-0.02611593 -0.059798401 0.050936799
-0.02611593 -0.059798401 0.050936799
-0.02611593 -0.059798401 0.050936799
-0.02611593 -0.059798401 0.050936799
-0.02611593 -0.059798401 0.050936799
-0.02611593 -0.059798401 0.050936799
-0.02611593 -0.059798401 0.050936799
0.0073557552 -0.026337616 -0.037114453
-0.02611593 -0.059798401 0.050936799
-0.02611593 -0.059798401 0.050936799
-0.02611593 -0.059798401 0.050936799
-0.02611593 -0.059798401 0.050936799
-0.02611593 -0.059798401 0.050936799
-0.02611593 -0.059798401 0.050936799
0.0063480847 -0.02833369 -0.037131701
0.0042814137 -0.026254494 -0.041056726
-0.02611593 -0.059798401 0.050936799
-0.02611593 -0.059798401 0.050936799
-0.02611593 -0.059798401 0.050936799
-0.02611593 -0.059798401 0.050936799
-0.02611593 -0.059798401 0.050936799
-0.02611593 -0.059798401 0.050936799
-0.02611593 -0.059798401 0.050936799
-0.02611593 -0.059798401 0.050936799
-0.02611593 -0.059798401 0.050936799
-0.02611593 -0.059798401 0.050936799
-0.02611593 -0.059798401 0.050936799
-0.02611593 -0.059798401 0.050936799
-0.02611593 -0.059798401 0.050936799
-0.02611593 -0.059798401 0.050936799
-0.02611593 -0.059798401 0.050936799
-0.02611593 -0.059798401 0.050936799
-0.02611593 -0.059798401 0.050936799
-0.02611593 -0.059798401 0.050936799
-0.02611593 -0.059798401 0.050936799
-0.02611593 -0.059798401 0.050936799
-0.02611593 -0.059798401 0.050936799
-0.02611593 -0.059798401 0.050936799
-0.02611593 -0.059798401 0.050936799
-0.02611593 -0.059798401 0.050936799
-0.02611593 -0.059798401 0.050936799
-0.02611593 -0.059798401 0.050936799
-0.02611593 -0.059798401 0.050936799
-0.02611593 -0.059798401 0.050936799
-0.02611593 -0.059798401 0.050936799
-0.02611593 -0.059798401 0.050936799
-0.02611593 -0.059798401 0.050936799
-0.02611593 -0.059798401 0.050936799
-0.02611593 -0.059798401 0.050936799
-0.02611593 -0.059798401 0.050936799
-0.02611593 -0.059798401 0.050936799
-0.02611593 -0.059798401 0.050936799
-0.02611593 -0.059798401 0.050936799
-0.02611593 -0.059798401 0.050936799
-0.02611593 -0.059798401 0.050936799
-0.02611593 -0.059798401 0.050936799
-0.02611593 -0.059798401 0.050936799
-0.02611593 -0.059798401 0.050936799
-0.02611593 -0.059798401 0.050936799
-0.02611593 -0.059798401 0.050936799
-0.02611593 -0.059798401 0.050936799
-0.02611593 -0.059798401 0.050936799
-0.02611593 -0.059798401 0.050936799
-0.02611593 -0.059798401 0.050936799
-0.02611593 -0.059798401 0.050936799
-0.02611593 -0.059798401 0.050936799
-0.02611593 -0.059798401 0.050936799
-0.02611593 -0.059798401 0.050936799
-0.02611593 -0.059798401 0.050936799
-0.02611593 -0.059798401 0.050936799
-0.02611593 -0.059798401 0.050936799
-0.02611593 -0.059798401 0.050936799
-0.02611593 -0.059798401 0.050936799
-0.02611593 -0.059798401 0.050936799
-0.02611593 -0.059798401 0.050936799
-0.02611593 -0.059798401 0.050936799
-0.02611593 -0.059798401 0.050936799
-0.02611593 -0.059798401 0.050936799
-0.02611593 -0.059798401 0.050936799
-0.02611593 -0.059798401 0.050936799
-0.02611593 -0.059798401 0.050936799
-0.02611593 -0.059798401 0.050936799
-0.02611593 -0.059798401 0.050936799
-0.02611593 -0.059798401 0.050936799
-0.02611593 -0.059798401 0.050936799
-0.02611593 -0.059798401 0.050936799
-0.02611593 -0.059798401 0.050936799
-0.02611593 -0.059798401 0.050936799
-0.02611593 -0.059798401 0.050936799
-0.02611593 -0.059798401 0.050936799
-0.02611593 -0.059798401 0.050936799
-0.02611593 -0.059798401 0.050936799
-0.02611593 -0.059798401 0.050936799
-0.02611593 -0.059798401 0.050936799
-0.036752455 -0.027071001 -0.042303652
-0.02611593 -0.059798401 0.050936799
-0.02611593 -0.059798401 0.050936799
-0.02611593 -0.059798401 0.050936799
-0.02611593 -0.059798401 0.050936799
-0.02611593 -0.059798401 0.050936799
-0.02611593 -0.059798401 0.050936799
-0.02611593 -0.059798401 0.050936799
-0.02611593 -0.059798401 0.050936799
-0.02611593 -0.059798401 0.050936799
-0.02611593 -0.059798401 0.050936799
-0.02611593 -0.059798401 0.050936799
-0.02611593 -0.059798401 0.050936799
-0.02611593 -0.059798401 0.050936799
-0.02611593 -0.059798401 0.050936799
-0.02611593 -0.059798401 0.050936799
-0.02611593 -0.059798401 0.050936799
-0.046682674 -0.024089888 -0.039062712
-0.02611593 -0.059798401 0.050936799
-0.02611593 -0.059798401 0.050936799
-0.02611593 -0.059798401 0.050936799
-0.02611593 -0.059798401 0.050936799
-0.02611593 -0.059798401 0.050936799
-0.02611593 -0.059798401 0.050936799
-0.02611593 -0.059798401 0.050936799
-0.050663218 -0.02409362 -0.037987892
-0.02611593 -0.059798401 0.050936799
-0.02611593 -0.059798401 0.050936799
-0.02611593 -0.059798401 0.050936799
-0.02611593 -0.059798401 0.050936799
-0.02611593 -0.059798401 0.050936799
-0.02611593 -0.059798401 0.050936799
-0.02611593 -0.059798401 0.050936799
-0.054643765 -0.024097355 -0.036913071
-0.02611593 -0.059798401 0.050936799
-0.02611593 -0.059798401 0.050936799
-0.02611593 -0.059798401 0.050936799
-0.02611593 -0.059798401 0.050936799
-0.02611593 -0.059798401 0.050936799
-0.02611593 -0.059798401 0.050936799
-0.02611593 -0.059798401 0.050936799
-0.060672261 -0.022039985 -0.038763605
-0.02611593 -0.059798401 0.050936799
-0.02611593 -0.059798401 0.050936799
-0.02611593 -0.059798401 0.050936799
-0.02611593 -0.059798401 0.050936799
-0.02611593 -0.059798401 0.050936799
-0.02611593 -0.059798401 0.050936799
-0.062664956 -0.025050385 -0.037780423
-0.064634085 -0.022061808 -0.036689125
-0.063555449 -0.021137923 -0.032691251
-0.02611593 -0.059798401 0.050936799
-0.02611593 -0.059798401 0.050936799
-0.02611593 -0.059798401 0.050936799
-0.02611593 -0.059798401 0.050936799
-0.02611593 -0.059798401 0.050936799
-0.067660108 -0.02403261 -0.037668452
-0.068629421 -0.021047622 -0.036595944
-0.069583938 -0.019080549 -0.034541793
-0.02611593 -0.059798401 0.050936799
-0.02611593 -0.059798401 0.050936799
-0.02611593 -0.059798401 0.050936799
-0.02611593 -0.059798401 0.050936799
-0.02611593 -0.059798401 0.050936799
-0.073669881 -0.02199333 -0.03851933
-0.072591245 -0.021069445 -0.034521457
-0.073579274 -0.018066367 -0.034448612
-0.02611593 -0.059798401 0.050936799
-0.02611593 -0.059798401 0.050936799
-0.02611593 -0.059798401 0.050936799
-0.02611593 -0.059798401 0.050936799
-0.02611593 -0.059798401 0.050936799
-0.077631705 -0.022015152 -0.03644485
-0.078582287 -0.019048249 -0.03437268
-0.078555711 -0.01706668 -0.033336982
-0.02611593 -0.059798401 0.050936799
-0.02611593 -0.059798401 0.050936799
-0.02611593 -0.059798401 0.050936799
-0.02611593 -0.059798401 0.050936799
-0.07955344 -0.026097737 -0.031481028
-0.084660016 -0.019954193 -0.038276598
-0.084610783 -0.01699088 -0.036223222
-0.082517542 -0.017088503 -0.031262491
-0.02611593 -0.059798401 0.050936799
-0.02611593 -0.059798401 0.050936799
-0.02611593 -0.059798401 0.050936799
-0.02611593 -0.059798401 0.050936799
-0.083515264 -0.02611956 -0.029406548
-0.090636268 -0.018950915 -0.037146177
-0.088553883 -0.01703079 -0.033149075
-0.087508768 -0.015070897 -0.031132504
-0.02611593 -0.059798401 0.050936799
-0.02611593 -0.059798401 0.050936799
-0.02611593 -0.059798401 0.050936799
-0.02611593 -0.059798401 0.050936799
-0.087458357 -0.026159471 -0.026332401
-0.096631236 -0.017929554 -0.037015416
-0.095563471 -0.014987919 -0.033981167
-0.093499817 -0.013049702 -0.030983724
-0.02611593 -0.059798401 0.050936799
-0.02611593 -0.059798401 0.050936799
-0.02611593 -0.059798401 0.050936799
-0.02611593 -0.059798401 0.050936799
-0.095482558 -0.023095094 -0.028127342
-0.10158895 -0.016947957 -0.034904115
-0.10359159 -0.012923367 -0.035794128
-0.098476253 -0.01205002 -0.029872086
-0.02611593 -0.059798401 0.050936799
-0.02611593 -0.059798401 0.050936799
-0.02611593 -0.059798401 0.050936799
-0.02611593 -0.059798401 0.050936799
-0.10245863 -0.02208823 -0.026978128
-0.1095757 -0.013919757 -0.034699738
-0.10854931 -0.011941774 -0.033682831
-0.10444858 -0.010046913 -0.028723653
-0.02611593 -0.059798401 0.050936799
-0.02611593 -0.059798401 0.050936799
-0.02611593 -0.059798401 0.050936799
-0.02611593 -0.059798401 0.050936799
-0.11146392 -0.019038349 -0.02775462
-0.11754767 -0.011909474 -0.033513717
-0.11856921 -0.0078703836 -0.03542218
-0.11349132 -0.0069608577 -0.031499468
-0.02611593 -0.059798401 0.050936799
-0.02611593 -0.059798401 0.050936799
-0.02611593 -0.059798401 0.050936799
-0.02611593 -0.059798401 0.050936799
-0.12250236 -0.014945285 -0.030474834
-0.12553835 -0.0098811006 -0.033327356
-0.12655598 -0.0048421845 -0.035217799
-0.12147807 -0.0039326544 -0.031295091
-0.02611593 -0.059798401 0.050936799
-0.02611593 -0.059798401 0.050936799
-0.02611593 -0.059798401 0.050936799
-0.02611593 -0.059798401 0.050936799
-0.13147414 -0.012931412 -0.029270016
-0.13351031 -0.0078708176 -0.032141335
-0.13452792 -0.0028319042 -0.034031771
-0.12944609 -0.00092254393 -0.03009104
-0.02611593 -0.059798401 0.050936799
-0.02611593 -0.059798401 0.050936799
-0.02611593 -0.059798401 0.050936799
-0.02611593 -0.059798401 0.050936799
-0.13942738 -0.010939221 -0.027084336
-0.14245942 -0.0048752069 -0.029918842
-0.14449559 0.00018538383 -0.03279015
-0.13943247 0.0021128333 -0.029849082
-0.02611593 -0.059798401 0.050936799
-0.02611593 -0.059798401 0.050936799
-0.02611593 -0.059798401 0.050936799
-0.02611593 -0.059798401 0.050936799
-0.15139073 -0.0069149248 -0.025787115
-0.16050354 0.0022605569 -0.033453126
-0.1524301 0.0021594893 -0.029604804
-0.14841905 0.0051446259 -0.029625911
-0.02611593 -0.059798401 0.050936799
-0.02611593 -0.059798401 0.050936799
-0.02611593 -0.059798401 0.050936799
-0.02611593 -0.059798401 0.050936799
-0.16337284 -0.0028725383 -0.025489554
-0.16640489 0.0031914758 -0.028324049
-0.16237511 0.0061585228 -0.027345508
-0.15736817 0.0081402399 -0.027403422
-0.02611593 -0.059798401 0.050936799
-0.02611593 -0.059798401 0.050936799
-0.02611593 -0.059798401 0.050936799
-0.02611593 -0.059798401 0.050936799
-0.17933154 0.0021659448 -0.024099156
-0.18944024 0.012344846 -0.031728353
-0.18241493 0.014301295 -0.030824192
-0.17437501 0.015236236 -0.028957173
-0.02611593 -0.059798401 0.050936799
-0.02611593 -0.059798401 0.050936799
-0.02611593 -0.059798401 0.050936799
-0.02611593 -0.059798401 0.050936799
-0.21039502 0.013383865 -0.029316414
-0.21042761 0.019437116 -0.03220728
-0.20038806 0.020364881 -0.030377854
-0.18933 0.021270964 -0.027567536
-0.02611593 -0.059798401 0.050936799
-0.02611593 -0.059798401 0.050936799
-0.02611593 -0.059798401 0.050936799
-0.02611593 -0.059798401 0.050936799
-0.23533636 0.022453967 -0.027684819
-0.22632623 0.025421159 -0.027799878
-0.2233485 0.029445887 -0.029783502
-0.20729922 0.028334372 -0.027103174
-0.02611593 -0.059798401 0.050936799
-0.02611593 -0.059798401 0.050936799
-0.02611593 -0.059798401 0.050936799
-0.02611593 -0.059798401 0.050936799
-0.26327324 0.032534674 -0.025978833
-0.25931051 0.037573732 -0.028962895
-0.24629024 0.038508818 -0.028189495
-0.23025964 0.037415389 -0.026508827
-0.02611593 -0.059798401 0.050936799
-0.02611593 -0.059798401 0.050936799
-0.02611593 -0.059798401 0.050936799
-0.02611593 -0.059798401 0.050936799
-0.97479409 0.30761513 -0.20574224
-0.96403193 0.32887957 -0.22256482
-0.26115552 0.043453272 -0.021819573
-0.26224017 0.0505642 -0.027672626
-0.98237288 0.30924553 -0.18356338
-0.97163332 0.32952824 -0.2014036
-0.02611593 -0.059798401 0.050936799
-0.02611593 -0.059798401 0.050936799
-0.99795705 0.31392223 -0.16217974
-0.98625523 0.33423755 -0.18203807
-0.97749269 0.35550919 -0.19882306
-0.96775293 0.37579551 -0.2166445
-1.0015218 0.31452039 -0.13909435
-1.0018582 0.33893234 -0.16165411
-0.98511279 0.35617593 -0.17866147
-0.97738755 0.37748733 -0.19742696
-1.0171062 0.31919706 -0.11771074
-1.0124472 0.34259126 -0.14038247
-0.9937101 0.35782805 -0.15746345
-0.99003637 0.3802079 -0.17913476
-1.0336823 0.32587701 -0.096272267
-1.0210258 0.34422529 -0.11818476
-1.0073321 0.36253372 -0.13811672
-1.0006481 0.38288507 -0.15888077
-1.0522395 0.33254606 -0.073796585
-1.0326109 0.34888759 -0.096876308
-1.0179253 0.36519286 -0.11686309
-1.0142741 0.38659096 -0.13955206
-1.0657827 0.33817923 -0.050433211
-1.0511868 0.35557473 -0.075400263
-1.0365385 0.37191615 -0.097386375
-1.01888 0.38622904 -0.11846522
-1.0713017 0.34074804 -0.02527488
-1.0617383 0.35919747 -0.052129291
-1.0551144 0.37860328 -0.075910337
-1.0354789 0.39192721 -0.098044455
-1.0858449 0.34638476 -0.0018927008
-1.0702903 0.36281309 -0.0288959
-1.0656887 0.3812443 -0.053657055
-1.0450908 0.39460087 -0.077809274
-1.0823587 0.34590369 0.024042122
-1.0848335 0.36844981 -0.0055137277
-1.0822649 0.38792422 -0.032218605
-1.0556651 0.39724186 -0.055555977
-1.1058617 0.35655382 0.048683159
-1.0993577 0.37406847 0.018868111
-1.0928166 0.39154696 -0.0089476183
-1.0702682 0.40193304 -0.035190806
-0.02611593 -0.059798401 0.050936799
-1.1148781 0.38069057 0.043286752
-1.0953629 0.39212343 0.015118629
-1.0858299 0.40759149 -0.012789503
-1.1528155 0.3768 0.10094621
-1.1333712 0.38930503 0.068797462
-1.1188885 0.40179181 0.038741991
-1.0893947 0.40818962 0.010295883
-0.02611593 -0.059798401 0.050936799
-1.1478915 0.39592353 0.093197316
-1.1214308 0.40336809 0.062826268
-1.1109433 0.41686907 0.032863982
-1.1996679 0.39895535 0.1582436
-1.1643517 0.40349478 0.12065175
-1.1439379 0.41301483 0.087430507
-1.1214763 0.42047375 0.057134617
-1.2120912 0.40647605 0.18762219
-0.02611593 -0.059798401 0.050936799
-1.1554478 0.4176048 0.11273761
-0.02611593 -0.059798401 0.050936799
-1.2264913 0.41498569 0.21805607
-1.1952531 0.418612 0.1765227
-1.1778951 0.42819712 0.14035884
-1.1585118 0.43473929 0.10610267
-1.2119963 0.41244736 0.2447478
-1.2017227 0.4241477 0.2037532
-0.02611593 -0.059798401 0.050936799
-0.02611593 -0.059798401 0.050936799
-0.02611593 -0.059798401 0.050936799
-1.2420228 0.44269469 0.23785478
-1.2207561 0.44833839 0.19754505
-1.2014515 0.45395315 0.15927219
-0.02611593 -0.059798401 0.050936799
-1.265372 0.45419991 0.27051115
-1.2411513 0.45786941 0.22810966
-0.02611593 -0.059798401 0.050936799
-1.2978486 0.45787397 0.35121298
-1.2946671 0.46968985 0.30535161
-1.2615426 0.46840024 0.25869229
-0.02611593 -0.059798401 0.050936799
-1.3379869 0.47927573 0.39336589
-1.2881215 0.47014353 0.33424705
-1.257015 0.46887922 0.28662565
-0.02611593 -0.059798401 0.050936799
-1.4237801 0.51958597 0.45072082
-1.3312781 0.49157414 0.37545669
-1.3091958 0.49337777 0.32605913
-1.2472516 0.47609544 0.27256861
-1.6951431 0.63850492 0.57099336
-1.3604943 0.50799155 0.41431385
-1.3275164 0.50282931 0.36058486
-1.2686051 0.48659363 0.3051694
-1.6724957 0.63679308 0.60555005
-1.6448835 0.63401014 0.53195781
-1.3567327 0.51924664 0.39944199
-1.3167944 0.5090782 0.34449166
-1.653825 0.63607723 0.64119965
-1.6450883 0.64027089 0.57308882
-1.4564439 0.56555188 0.46016702
-1.3450375 0.5235104 0.38229433
-1.6361314 0.6363467 0.67788565
-1.625463 0.63758802 0.60668427
-1.6225715 0.64265835 0.54670149
-1.395125 0.54791141 0.42668852
-1.6144987 0.63565636 0.71147954
-1.6088105 0.63689744 0.64137173
-1.6109182 0.64198577 0.58148295
-1.6099926 0.64602721 0.5235191
-1.5898931 0.63297367 0.74398136
-1.591181 0.6352216 0.67502278
-1.5952883 0.64031696 0.61517155
-1.5953704 0.64236242 0.55719042
-1.5702333 0.63427198 0.7786485
-1.5735289 0.63452744 0.70969146
-1.5796397 0.63863021 0.64985979
-1.5866978 0.64168251 0.59302789
-1.5426885 0.63063294 0.80807698
-1.5548956 0.63384783 0.74334168
-1.5679637 0.63893938 0.68565893
-1.5710906 0.63903207 0.6256988
-1.5161167 0.62897897 0.83855987
-1.5352812 0.6331827 0.77597356
-1.5543294 0.63827771 0.71940309
-1.5614183 0.63834858 0.6615175
-1.4945176 0.62932467 0.87017244
-1.5127088 0.63154322 0.80653161
-1.5307649 0.63463491 0.74990642
-1.5467881 0.63668346 0.69522488
-1.4729184 0.62967026 0.90178502
-1.4980481 0.63285947 0.84129274
-1.5141313 0.63396245 0.78359413
-1.5331578 0.63502198 0.7289511
-1.4453843 0.62804896 0.93024981
-1.4774526 0.63220882 0.87290609
-1.4965205 0.63230467 0.81624562
-1.5195236 0.63436025 0.76269531
-1.4218228 0.62842357 0.95982546
-1.4538991 0.63058382 0.90244567
-1.4809015 0.63265371 0.84897053
-1.5108247 0.6356619 0.79956841
-1.3923305 0.62583143 0.98623538
-1.4342997 0.63093662 0.9340958
-1.46031 0.63100332 0.88056588
-1.491218 0.6329971 0.83216423
-1.3658297 0.62524968 1.0127376
-1.4087651 0.62932241 0.9625982
-1.4397372 0.62937099 0.91116154
-1.4785612 0.63332081 0.86694491
-1.337352 0.62367898 1.0381846
-1.3773373 0.62477773 0.98593551
-1.4191604 0.6287384 0.94177526
-1.4599503 0.63165939 0.89957744
-1.306916 0.62113762 1.0615768
-1.3528212 0.62318528 1.0134571
-1.3995649 0.62809134 0.97340739
-1.4374044 0.62803835 0.9290998
-1.280434 0.620574 1.0870794
-1.3263245 0.62160373 1.0399413
-1.3770112 0.62646997 1.0029657
-1.4286789 0.63132155 0.96700865
-1.2500316 0.6190685 1.1084901
-1.2998463 0.62004036 1.0654259
-1.3554533 0.62585187 1.0325609
-1.4041332 0.62769324 0.99649352
-1.2196102 0.61754495 1.1309006
-1.2773036 0.62043661 1.0940206
-1.3299376 0.62425584 1.0600637
-1.3835566 0.62706071 1.0271072
-1.1951014 0.6189701 1.1574767
-1.2508215 0.61987293 1.1195233
-1.3064214 0.6226669 1.087604
-1.3649232 0.6263811 1.0607574
-1.1598239 0.61455566 1.1727415
-1.2194457 0.61638236 1.1398796
-1.2818828 0.62205619 1.1161433
-1.3443278 0.62573045 1.0923707
-1.1284592 0.61308289 1.1921343
-1.1959218 0.6167931 1.167456
-1.2564086 0.61949652 1.1416286
-1.319797 0.62312007 1.1208739
-1.1039875 0.61454421 1.2167108
-1.1665192 0.6152913 1.1888856
-1.2308849 0.61990011 1.1691673
-1.2972394 0.62249845 1.1504503
-1.0735998 0.61405659 1.2371399
-1.1361393 0.61280406 1.2092788
-1.2053878 0.61832219 1.1956705
-1.2726861 0.62086976 1.1799713
-1.0432684 0.61362338 1.2545701
-1.1087137 0.6122911 1.2317636
-1.1769514 0.61578786 1.2191001
-1.2471516 0.61925566 1.2084736
-1.0139179 0.61317563 1.2730187
-1.0832049 0.61371261 1.2583206
-1.1504508 0.61520618 1.2456024
-1.2196777 0.61668879 1.2339214
-0.9835676 0.61272418 1.2914486
-1.0509042 0.61029083 1.2746596
-1.1249646 0.61564595 1.2711419
-1.1951391 0.61607808 1.2624607
-0.95421332 0.61327624 1.3099152
-1.0234708 0.61177748 1.2971805
-1.0955245 0.61410791 1.2945708
-1.1656654 0.61350405 1.2878708
-0.92390054 0.6128611 1.3263459
-0.99408275 0.61129355 1.3176284
-1.0661219 0.61260605 1.3160005
-1.1391461 0.61290419 1.3153727
-0.89162952 0.61147511 1.3407214
-0.96375525 0.60986042 1.3350406
-1.0396359 0.61304224 1.341521
-1.1136075 0.61228991 1.3438932
-0.85552067 0.60721987 1.3469704
-0.93338633 0.60939097 1.3544701
-1.0092522 0.61155486 1.3619322
-1.0831677 0.61074829 1.3673034
-0.82520789 0.60680473 1.3634009
-0.90497559 0.60989237 1.3759545
-0.97884572 0.61104929 1.3833611
-1.0566068 0.61111212 1.3968226
-0.79588711 0.60839283 1.3798864
-0.87076885 0.60655379 1.3872575
-0.94652247 0.60860914 1.4007176
-1.0232463 0.60863221 1.4161596
-0.76270986 0.60709369 1.3892449
-0.84139192 0.6080876 1.4067417
-0.9141804 0.60615093 1.4190738
-0.99472314 0.60902506 1.4436421
-0.73341173 0.60769999 1.4047124
-0.81107914 0.60767239 1.4231725
-0.8837927 0.60566342 1.4395031
-0.96428329 0.60748345 1.4670523
-0.70027578 0.60543716 1.4120537
-0.77495164 0.60339922 1.4304211
-0.85529929 0.60809207 1.4650222
-0.9299643 0.60403633 1.4843532
-0.66807562 0.60512334 1.4224486
-0.74651045 0.60688198 1.4529593
-0.82107389 0.60473543 1.4773248
-0.89947903 0.60445815 1.5097988
-0.63589817 0.60382777 1.4318259
-0.71044302 0.60166323 1.4571911
-0.78874272 0.60429496 1.4947174
-0.87190664 0.60781795 1.5393533
-0.60471272 0.60453546 1.4412581
-0.67822808 0.60033143 1.4685677
-0.75445336 0.6028837 1.5100551
-0.8336671 0.60342902 1.5525624
-0.57159555 0.60229081 1.4475995
-0.64690763 0.60191238 1.4850154
-0.72022396 0.60052687 1.5223757
-0.79936296 0.60099977 1.5688818
-0.54045141 0.60203481 1.4550143
-0.61371166 0.60059512 1.4953736
-0.68884736 0.60205346 1.5418224
-0.76401752 0.5995307 1.5871996
-0.50834888 0.6008116 1.4603931
-0.57957596 0.59832865 1.5026959
-0.65267855 0.59874392 1.5510886
-0.73060769 0.60001415 1.6085901
-0.47245002 0.59575564 1.4556277
-0.54735321 0.59899664 1.5141087
-0.61938107 0.59933591 1.566481
-0.69336027 0.59762841 1.6218541
-0.44511706 0.60035038 1.4722048
-0.51423216 0.59775168 1.5204681
-0.58418548 0.59801149 1.5768017
-0.65896934 0.59812641 1.6422261
-0.41113898 0.59622902 1.4714938
-0.48007375 0.59646708 1.5288082
-0.54899377 0.59568715 1.5871043
-0.62174064 0.59575868 1.6544905
-0.37908867 0.59605986 1.4738915
-0.44691133 0.5961858 1.5371851
-0.5156737 0.59726089 1.6035144
-0.58353078 0.5934056 1.6657362
-0.3480421 0.59489453 1.47629
-0.41472602 0.59688991 1.5465984
-0.47670045 0.59212178 1.6026914
-0.5481962 0.59395427 1.6830906
-0.31691277 0.59565651 1.4827231
-0.37968409 0.59471035 1.5489036
-0.44431612 0.59564441 1.6221555
-0.50902396 0.59163374 1.6923182
-0.28588495 0.59450924 1.4841219
-0.34753627 0.59545064 1.5563176
-0.40725976 0.59243989 1.6254047
-0.471746 0.59222949 1.706636
-0.25475171 0.59627098 1.490573
-0.31341138 0.59520197 1.5626764
-0.37305614 0.59311867 1.6357802
-0.43353218 0.59087616 1.7178998
-0.22376128 0.59515989 1.4899725
-0.27938804 0.59304416 1.564001
-0.33687159 0.59380841 1.6451184
-0.39625418 0.59147191 1.7322174
-0.19177106 0.59404522 1.4893532
-0.24629653 0.59383512 1.5683972
-0.30068702 0.5944981 1.6544565
-0.35621712 0.58827454 1.7344106
-0.16084078 0.59198862 1.4857357
-0.21220914 0.59362262 1.5727565
-0.26460391 0.59327865 1.6587604
-0.31605595 0.58796823 1.7426561
-0.12978242 0.59382272 1.4881881
-0.17915902 0.59344995 1.5751354
-0.2275397 0.59207374 1.6620457
-0.27783433 0.58861458 1.7539561
-0.099750459 0.59367889 1.4896238
-0.14516917 0.59232813 1.5744785
-0.19135123 0.59376323 1.671402
-0.23869166 0.58832985 1.7612205
-0.068752214 0.59456742 1.4890593
-0.11209638 0.59313715 1.5778751
-0.15438458 0.59164894 1.6696711
-0.19860928 0.5870961 1.7654492
-0.03877642 0.59447789 1.487496
-0.07808388 0.59299701 1.578236
-0.11833499 0.59146541 1.6719935
-0.15852691 0.58586216 1.7696779
-0.0078835655 0.59245735 1.4818791
-0.044214226 0.589984 1.571545
-0.081304319 0.59129649 1.6732976
-0.11850072 0.58468264 1.7709075
0.021036236 0.59242564 1.4773355
-0.011197615 0.59084731 1.5719426
-0.044356387 0.5892002 1.670567
-0.077395886 0.58442694 1.7761351
0.050951928 0.59139055 1.4727552
0.021676159 0.58883774 1.5652885
-0.0074232537 0.58812189 1.6668547
-0.037305668 0.5851928 1.7803998
0.080807522 0.58940977 1.4651577
0.054734141 0.59066468 1.5677034
0.028607603 0.58795649 1.6681776
0.0036228076 0.58310026 1.7765943
0.11080989 0.5913018 1.4646301
0.087630562 0.58963692 1.562067
0.065604761 0.5888235 1.6675004
0.042593025 0.58197856 1.7748439
-0.02611593 -0.059798401 0.050936799
0.1205457 0.58859092 1.5574303
0.10162082 0.58967608 1.6678416
0.083668269 0.58375871 1.7781081
0.17081462 0.59508574 1.4635748
-0.02611593 -0.059798401 0.050936799
0.1374113 0.58572841 1.6570965
0.12360086 0.58266962 1.7743394
0.19843018 0.58933002 1.4439468
0.18750779 0.5913862 1.554226
-0.02611593 -0.059798401 0.050936799
0.164417 0.58068562 1.7645361
0.2273352 0.59031618 1.4384217
0.21926548 0.58848888 1.5415748
0.21131201 0.58755296 1.6507437
0.12672721 0.36425492 1.18413
0.25724003 0.59129882 1.4328778
0.25112855 0.58850074 1.5339758
0.2482717 0.58845615 1.6480672
0.24640983 0.58239102 1.7630314
0.28508121 0.59034318 1.4243363
0.28397277 0.58852696 1.5253584
0.26287082 0.54253787 1.5289228
0.28511009 0.57952285 1.7472495
0.31399012 0.59232926 1.4188291
0.31585452 0.58852065 1.5187593
0.31883109 0.58460003 1.6246684
0.28956506 0.51467133 1.5709332
0.3417899 0.59040999 1.4082702
0.34769893 0.58855051 1.5101606
0.35467476 0.58461553 1.6159946
0.36487079 0.57945281 1.7337502
0.37063873 0.59145045 1.3997461
0.37954324 0.58858037 1.501562
0.39051837 0.58463103 1.607321
0.40579623 0.58137769 1.7290173
0.39846906 0.59251261 1.3902411
0.41137284 0.58962822 1.4919819
0.42634329 0.58466464 1.5976474
0.4444817 0.5795275 1.7122538
0.42521289 0.59065115 1.3767022
0.44103336 0.58582872 1.4743516
0.46113092 0.58473802 1.5859935
0.48428714 0.57956481 1.7015057
0.45302054 0.59073156 1.3661793
0.47400555 0.58974582 1.4718044
0.49592251 0.5858112 1.5743577
0.52409261 0.57960212 1.6907574
0.48087347 0.59277546 1.357692
0.50159156 0.58602583 1.4502132
0.52966893 0.58492452 1.5607052
0.5628233 0.57971543 1.6760292
0.50449765 0.58903372 1.3381753
0.53342116 0.58707362 1.4406331
0.5623368 0.58311391 1.5430548
0.59949034 0.57789046 1.6583037
-0.02611593 -0.059798401 0.050936799
-0.02611593 -0.059798401 0.050936799
-0.02611593 -0.059798401 0.050936799
-0.02611593 -0.059798401 0.050936799
0.56434566 0.59597993 1.3281771
0.59604692 0.59020883 1.4195101
0.63192385 0.58626014 1.519801
0.67597866 0.58010221 1.6299021
0.58483148 0.59037596 1.3016832
0.6101014 0.57500792 1.3719558
0.62173438 0.54524982 1.411213
0.68859786 0.55930382 1.560266
0.60851967 0.5885796 1.2852015
0.65343326 0.58957964 1.3864131
0.69623005 0.58467835 1.4825557
0.74614882 0.57762569 1.5855284
0.6342715 0.58872139 1.2717174
0.67902356 0.58686674 1.3648776
0.72684205 0.58292931 1.461944
0.78280509 0.57781851 1.5668393
0.66000468 0.58888137 1.2572336
0.70771873 0.58705205 1.3483381
0.75848049 0.58315814 1.4423492
0.81740159 0.57707298 1.5451708
0.6847192 0.58906299 1.241769
0.73643643 0.58821923 1.3328164
0.79117882 0.58432895 1.4257524
0.85202467 0.57830894 1.5245379
0.70945644 0.59022635 1.2273219
0.76309061 0.587448 1.3142971
0.820795 0.58358324 1.4051775
0.88866603 0.57951969 1.5048671
0.73104745 0.58752781 1.2058616
0.79074848 0.58767313 1.295777
0.8524186 0.58482999 1.384601
0.9191283 0.57791525 1.476258
0.76401275 0.59446239 1.2023687
0.81840634 0.58789825 1.277257
0.88203466 0.58408427 1.3640261
0.95269144 0.57820934 1.4526269
0.78050321 0.58987254 1.1759679
0.84404588 0.58814865 1.2577747
0.90855771 0.58343977 1.3385091
0.98625463 0.57850331 1.4289957
0.80726665 0.59301025 1.1625191
0.87376738 0.59031194 1.2422522
0.93814039 0.58373004 1.315953
1.0178033 0.57982242 1.4044207
0.82683539 0.58933717 1.1400788
0.89630598 0.58866394 1.2177922
0.96878684 0.58596218 1.2964129
1.0482882 0.57919973 1.3768293
0.86183077 0.59924603 1.1376017
0.92193067 0.5899322 1.1973283
0.99431008 0.58532125 1.2709148
1.0777584 0.57959861 1.3482751
0.86702979 0.58695024 1.0972683
0.94755149 0.59020072 1.1768466
1.021837 0.58567297 1.2453972
1.1102922 0.58193207 1.3226995
0.89994282 0.59493899 1.0907944
0.96705317 0.58859956 1.1504436
1.0494051 0.58698833 1.2218968
1.1377441 0.58235615 1.2931832
0.91645592 0.59133089 1.0654114
0.99163669 0.58890778 1.1279812
1.0749136 0.58736539 1.195417
1.1682183 0.5837512 1.2646282
0.94014108 0.59355199 1.0480022
1.0152017 0.58923769 1.1045381
1.0953176 0.58485126 1.1639788
1.1895471 0.58130592 1.2291727
0.95565832 0.59094727 1.0226561
1.0387853 0.58954954 1.0820946
1.1218485 0.58620644 1.1384981
1.2170029 0.58272982 1.1996742
0.98342556 0.59508121 1.0092064
1.064418 0.59281749 1.0616668
1.1504431 0.58949977 1.1160147
1.2454585 0.58415014 1.1701573
0.99587923 0.59054196 0.98088145
1.0818785 0.59025991 1.0332841
1.1688285 0.58701092 1.0836143
1.2698549 0.58463925 1.1376984
1.0256579 0.59766823 0.96744835
1.1054515 0.5925895 1.0098768
1.1892405 0.58649653 1.0522122
1.2952737 0.58610654 1.1062384
1.0401527 0.5940854 0.94110322
1.1269982 0.59294468 0.98547161
1.2157792 0.58985132 1.0267675
1.314592 0.58568615 1.0698566
1.0638269 0.59832418 0.92273039
1.1444666 0.59238672 0.95712489
1.2352101 0.58932245 0.99638379
1.334929 0.585244 1.0344559
1.0793481 0.59671932 0.89740217
1.1639763 0.59278524 0.93075782
1.2556484 0.5907895 0.96601737
1.3573109 0.58675826 1.001053
1.0999362 0.59804177 0.87503308
1.1804448 0.59223092 0.90242994
1.2710158 0.58832955 0.93267387
1.3786929 0.58827603 0.96766871
1.1124353 0.5954659 0.8487435
1.1979362 0.59265471 0.87510079
1.2955401 0.59270948 0.90628499
1.3939745 0.58790624 0.92936295
1.1310052 0.59681362 0.82541233
1.2164272 0.59307492 0.84775299
1.3088704 0.59029287 0.87097979
1.412297 0.58848923 0.89301813
1.1404407 0.59230316 0.79614419
1.2349221 0.59449494 0.82042313
1.3293129 0.59275979 0.84063131
1.4306422 0.59005398 0.85769105
1.1650813 0.59757435 0.77577132
1.248354 0.59398758 0.79015219
1.3446921 0.59329933 0.80734187
1.4398798 0.58774221 0.81746262
1.178588 0.59699464 0.74949902
1.2678673 0.59538591 0.76380324
1.3580678 0.59284621 0.77407193
1.4572064 0.58932859 0.78115457
1.1930946 0.59641123 0.72320795
1.2833256 0.59685296 0.73453045
1.3744694 0.59436387 0.74178135
1.4755781 0.59287494 0.74686319
1.20965 0.59878403 0.69893265
1.2977798 0.59732366 0.70525837
1.3888675 0.59488887 0.70951033
1.4817973 0.59059191 0.70569146
1.220112 0.59625161 0.67068142
1.3091931 0.59684151 0.67402536
1.4032321 0.59644991 0.6752581
1.4931024 0.59121817 0.66847849
1.2386711 0.599617 0.64638662
1.3226478 0.59731585 0.64477217
1.4146123 0.59700376 0.64204377
1.5054113 0.59284067 0.63126475
1.2501405 0.59908062 0.61815256
1.335065 0.59782994 0.61353838
1.4289995 0.59954655 0.60880911
1.5156831 0.5945065 0.59208935
1.2636513 0.59950066 0.59189832
1.3525492 0.60127133 0.58526367
1.4383197 0.59916204 0.57261539
1.5239699 0.59516156 0.55393308
1.2781509 0.60193485 0.56466168
1.3639666 0.60178906 0.55404872
1.4436554 0.59777397 0.53747845
1.5362827 0.59778386 0.5167374
1.2886393 0.60138398 0.53744608
1.3743843 0.60231036 0.52285254
1.4560243 0.60034198 0.50328177
1.542551 0.59846425 0.47761908
1.300113 0.60184741 0.50923008
1.3807611 0.60188234 0.48971415
1.4603454 0.59997541 0.46718198
1.5488424 0.60012627 0.43951842
1.3095642 0.6013363 0.48003399
1.393201 0.60337812 0.45949808
1.472737 0.60352516 0.43400294
1.5531113 0.60081381 0.40043771
1.3190196 0.601825 0.45085588
1.4036076 0.60591722 0.42733827
1.4790618 0.60415125 0.39788362
1.5573841 0.60250121 0.361375
1.3274748 0.60231727 0.42169663
1.411007 0.60646731 0.39519876
1.4834017 0.60376662 0.36278352
1.1385853 0.42712304 0.25000584
1.3349265 0.60181326 0.3925381
1.4164031 0.60602486 0.36307883
1.4404881 0.58473474 0.31822759
1.0185268 0.37740895 0.20433892
1.3443856 0.60330182 0.36337805
1.4248061 0.60757118 0.33093858
1.1172885 0.44153967 0.23165916
1.013033 0.37589753 0.17840564
1.3558444 0.60478318 0.33418041
1.1467656 0.4781037 0.24977481
1.1268344 0.44595531 0.20655181
0.91321224 0.3349112 0.14352134
1.3532486 0.6013518 0.30315644
1.1281677 0.46871272 0.21994302
1.0239193 0.40005293 0.16763514
0.80645579 0.29087809 0.11271314
1.1255317 0.48944852 0.23537269
1.1347064 0.47113943 0.19485602
0.77761877 0.29283714 0.1212914
0.75092614 0.26851356 0.089340329
1.1441251 0.49679521 0.21214959
0.8922956 0.3600004 0.14336674
0.77125233 0.29020289 0.10235652
0.74355996 0.26588288 0.070424251
-0.02611593 -0.059798401 0.050936799
0.74741834 0.29314378 0.11085885
0.74784285 0.28064892 0.082615301
0.74623418 0.2691972 0.052428037
0.75873429 0.31186593 0.12399009
0.75813633 0.29839286 0.094747663
0.75351655 0.28395247 0.064562716
0.74491602 0.26950833 0.035452589
0.72329551 0.29435638 0.10433021
0.75879914 0.29871488 0.076734975
0.76520085 0.29023397 0.046451438
0.75358224 0.27581868 0.016398026
0.73000252 0.29662034 0.088240132
0.74944806 0.29507351 0.058838118
0.77490038 0.29550478 0.029359393
0.7892493 0.29306641 -0.0049649999
0.72968423 0.29692787 0.071245894
0.74612254 0.29339212 0.041864209
0.77655602 0.29884076 0.010382302
0.79489332 0.29840589 -0.024980873
0.72335142 0.29325759 0.054292325
0.74881148 0.29568851 0.02484964
0.77219707 0.298199 -0.0085541122
0.78753495 0.29777485 -0.043860923
0.73008102 0.29650331 0.039219931
0.74447131 0.29502866 0.0069128834
0.76685703 0.29754272 -0.026472077
0.777192 0.29613668 -0.061702952
0.71874517 0.29185113 0.022342294
0.74814141 0.29733956 -0.011120144
0.75951356 0.29589376 -0.044370484
0.77382195 0.29750904 -0.081621774
0.73244786 0.29810742 0.0051930994
0.7458235 0.29765427 -0.028076801
0.75417745 0.29623732 -0.062270425
0.77347803 0.30085221 -0.1005613
0.73513687 0.30040374 -0.011821471
0.74350554 0.29796895 -0.045033459
0.76084006 0.30155501 -0.081305429
0.76912695 0.30221009 -0.11946166
0.73980677 0.3027111 -0.029873285
0.73618466 0.29730174 -0.061914179
0.7594924 0.30390194 -0.10024418
0.73385763 0.28955501 -0.13103418
0.73648912 0.30302936 -0.04681116
0.74983519 0.3046121 -0.082044341
0.75315648 0.30424911 -0.11812532
0.66073447 0.25984019 -0.13120268
0.7411629 0.30633655 -0.064844951
0.74850619 0.30694094 -0.099983424
0.7558158 0.30858135 -0.13710319
0.61858171 0.24308422 -0.13571811
0.75082505 0.31164348 -0.083936334
0.75314647 0.3112841 -0.11999852
0.65476996 0.26384294 -0.1300182
0.62226754 0.24939448 -0.15367904
0.73951173 0.30797306 -0.099796295
0.74384075 0.30960613 -0.13586003
0.5986672 0.24006608 -0.13039804
0.20782058 0.052750111 -0.029434472
0.75515091 0.317294 -0.12092765
0.64779782 0.26584962 -0.12885097
0.60435271 0.24636915 -0.14839657
0.20472752 0.052851323 -0.034376398
0.74283791 0.31362715 -0.13676882
0.59866416 0.24408349 -0.13132562
0.21779008 0.059767295 -0.03249523
-0.02611593 -0.059798401 0.050936799
0.63981402 0.26486045 -0.12771901
-0.02611593 -0.059798401 0.050936799
0.20773876 0.055840041 -0.034378715
0.17270106 0.039950281 -0.033009693
0.59867597 0.24708298 -0.13127157
0.22278617 0.063766763 -0.033516776
-0.02611593 -0.059798401 0.050936799
-0.02611593 -0.059798401 0.050936799
0.60836071 0.25337172 -0.14934528
-0.02611593 -0.059798401 0.050936799
0.17470855 0.041942772 -0.033011235
0.14867009 0.031037953 -0.032720882
0.21382827 0.059745476 -0.03042075
0.18773367 0.048894923 -0.033129383
-0.02611593 -0.059798401 0.050936799
-0.02611593 -0.059798401 0.050936799
0.19976981 0.053832911 -0.032265112
-0.02611593 -0.059798401 0.050936799
0.15264371 0.034059256 -0.034741312
0.12864234 0.023111086 -0.032489218
-0.02611593 -0.059798401 0.050936799
