# .PCD v0.7 - Point Cloud Data file format
VERSION 0.7
FIELDS x y z
SIZE 4 4 4
TYPE F F F
COUNT 1 1 1
WIDTH 1359
HEIGHT 1
VIEWPOINT 0 0 0 1 0 0 0
POINTS 1359
DATA ascii
0.57849699 0.39394286 -0.062213805
0.62277353 0.43369627 -0.0023033768
0.58823526 0.40523928 -0.025179237
0.56974506 0.38972262 -0.048121512
0.5902276 0.40720513 -0.079199299
0.59148288 0.41101041 -0.01313157
0.58097738 0.40150025 -0.038115375
0.56749111 0.3919827 -0.062043145
-0.02611593 -0.059798401 0.050936799
0.58421725 0.40527171 -0.026103739
0.57371962 0.39776123 -0.051051509
0.5942021 0.41524372 -0.082129285
0.86713886 0.63001472 -0.1823884
0.57196331 0.39753321 -0.038018335
0.57148045 0.39900333 -0.063991502
0.61690593 0.43651935 -0.10217631
0.85676235 0.62941259 -0.20221172
0.56672776 0.39476877 -0.049974367
0.58621043 0.41225484 -0.081033349
0.86114395 0.6310361 -0.18225762
0.84739345 0.63080645 -0.22201781
0.58446515 0.41000909 -0.067036562
0.64883763 0.46356273 -0.11128805
0.85178196 0.62941241 -0.2011181
0.20911497 0.12773377 -0.028101876
0.589203 0.41526166 -0.082035325
0.85214859 0.62705094 -0.18116093
0.84242791 0.6297884 -0.21994255
0.20104456 0.12381742 -0.031022608
0.64285648 0.45854893 -0.10926608
0.84877867 0.62842333 -0.20107976
0.21110767 0.13074416 -0.029085062
-0.02611593 -0.059798401 0.050936799
0.85416698 0.62702572 -0.18019885
0.83942062 0.62779951 -0.21992221
0.20004474 0.12382101 -0.031003818
0.16997169 0.10393208 -0.030800469
0.85378164 0.62940526 -0.20115568
0.20811515 0.12773736 -0.028083086
-0.02611593 -0.059798401 0.050936799
-0.02611593 -0.059798401 0.050936799
0.84740436 0.62878871 -0.2210542
0.19606723 0.11979987 -0.029001411
0.16996776 0.10293224 -0.030818485
0.14093588 0.084003381 -0.028616596
0.2041337 0.12271637 -0.026098691
-0.02611593 -0.059798401 0.050936799
-0.02611593 -0.059798401 0.050936799
-0.02611593 -0.059798401 0.050936799
0.19407058 0.11578963 -0.028036244
0.17295635 0.10493923 -0.031838492
0.15289024 0.0920313 -0.032696571
0.12785462 0.0771055 -0.03149743
-0.02611593 -0.059798401 0.050936799
-0.02611593 -0.059798401 0.050936799
-0.02611593 -0.059798401 0.050936799
-0.02611593 -0.059798401 0.050936799
0.16700092 0.096889772 -0.027871247
0.15090145 0.090020746 -0.031695377
0.13184299 0.079108872 -0.032536212
0.11183697 0.067146525 -0.030377302
-0.02611593 -0.059798401 0.050936799
-0.02611593 -0.059798401 0.050936799
-0.02611593 -0.059798401 0.050936799
-0.02611593 -0.059798401 0.050936799
0.14492731 0.081989363 -0.028727792
0.13383871 0.078101873 -0.032591809
0.11678775 0.069182508 -0.033434205
0.093830585 0.055176992 -0.028255977
-0.02611593 -0.059798401 0.050936799
-0.02611593 -0.059798401 0.050936799
-0.02611593 -0.059798401 0.050936799
-0.02611593 -0.059798401 0.050936799
0.12886831 0.07106673 -0.029625006
0.1158136 0.066150434 -0.03147015
0.098800085 0.057194877 -0.030313209
0.081805289 0.048221249 -0.028156616
-0.02611593 -0.059798401 0.050936799
-0.02611593 -0.059798401 0.050936799
-0.02611593 -0.059798401 0.050936799
-0.02611593 -0.059798401 0.050936799
0.11282802 0.060126044 -0.029522564
0.10375084 0.059230871 -0.033370111
-0.02611593 -0.059798401 0.050936799
0.071783558 0.042258162 -0.028076824
-0.02611593 -0.059798401 0.050936799
-0.02611593 -0.059798401 0.050936799
-0.02611593 -0.059798401 0.050936799
-0.02611593 -0.059798401 0.050936799
0.093836606 0.047142174 -0.026400797
0.090740532 0.051260792 -0.032270316
0.073779255 0.041251153 -0.028132424
0.061799265 0.036258887 -0.025997702
-0.02611593 -0.059798401 0.050936799
-0.02611593 -0.059798401 0.050936799
-0.02611593 -0.059798401 0.050936799
-0.02611593 -0.059798401 0.050936799
0.083814874 0.041179083 -0.026321001
0.080700077 0.045315795 -0.033190187
0.067735054 0.039309196 -0.030055039
0.053785019 0.032288276 -0.025919452
-0.02611593 -0.059798401 0.050936799
-0.02611593 -0.059798401 0.050936799
-0.02611593 -0.059798401 0.050936799
-0.02611593 -0.059798401 0.050936799
0.073793143 0.035215989 -0.026241209
0.070697054 0.03933461 -0.032110728
0.05970601 0.036356512 -0.030958433
0.043800723 0.026289012 -0.023840338
-0.02611593 -0.059798401 0.050936799
-0.02611593 -0.059798401 0.050936799
-0.02611593 -0.059798401 0.050936799
-0.02611593 -0.059798401 0.050936799
0.062786393 0.028238565 -0.025160979
0.060694046 0.033353433 -0.031031277
0.051706567 0.031367987 -0.029898535
0.040745109 0.026354047 -0.026782952
-0.02611593 -0.059798401 0.050936799
-0.02611593 -0.059798401 0.050936799
-0.02611593 -0.059798401 0.050936799
-0.02611593 -0.059798401 0.050936799
0.05673825 0.025296792 -0.027101621
0.052679796 0.029382819 -0.030953031
0.045662358 0.029426031 -0.031821147
0.032783099 0.021329338 -0.023723736
-0.02611593 -0.059798401 0.050936799
-0.02611593 -0.059798401 0.050936799
-0.02611593 -0.059798401 0.050936799
-0.02611593 -0.059798401 0.050936799
0.048738793 0.020308269 -0.026041724
0.046650399 0.026422959 -0.031893995
0.038670577 0.02643358 -0.030744016
0.026772417 0.018351387 -0.023665048
-0.02611593 -0.059798401 0.050936799
-0.02611593 -0.059798401 0.050936799
-0.02611593 -0.059798401 0.050936799
-0.02611593 -0.059798401 0.050936799
0.041743089 0.01631598 -0.024982601
0.038673591 0.022416167 -0.029816423
0.033630125 0.025487872 -0.032667402
0.019814149 0.014322918 -0.020606603
-0.02611593 -0.059798401 0.050936799
-0.02611593 -0.059798401 0.050936799
-0.02611593 -0.059798401 0.050936799
-0.02611593 -0.059798401 0.050936799
0.03179625 0.010280528 -0.020904165
0.034632955 0.02146687 -0.031758599
0.026667938 0.020459581 -0.029626977
0.015792238 0.013355533 -0.021549117
-0.02611593 -0.059798401 0.050936799
-0.02611593 -0.059798401 0.050936799
-0.02611593 -0.059798401 0.050936799
-0.02611593 -0.059798401 0.050936799
0.028721906 0.010363651 -0.024846438
0.027637243 0.017474582 -0.030699488
0.021646196 0.019495785 -0.030550707
0.012725746 0.015438316 -0.025455356
-0.02611593 -0.059798401 0.050936799
-0.02611593 -0.059798401 0.050936799
-0.02611593 -0.059798401 0.050936799
-0.02611593 -0.059798401 0.050936799
0.023714965 0.0083819423 -0.024788518
0.024570759 0.019557374 -0.034605727
0.017609488 0.019546319 -0.032474864
0.0087225512 0.014452842 -0.025398213
-0.02611593 -0.059798401 0.050936799
-0.02611593 -0.059798401 0.050936799
-0.02611593 -0.059798401 0.050936799
-0.02611593 -0.059798401 0.050936799
0.020663273 0.0094468072 -0.027713116
0.019578611 0.016557738 -0.033566166
0.012602543 0.017564595 -0.032416947
0.0056895833 0.015499617 -0.027323149
-0.02611593 -0.059798401 0.050936799
-0.02611593 -0.059798401 0.050936799
-0.02611593 -0.059798401 0.050936799
-0.02611593 -0.059798401 0.050936799
0.014690034 0.0064326627 -0.025655102
0.014575601 0.015575851 -0.033490233
0.0086180717 0.016561039 -0.031360138
-0.02611593 -0.059798401 0.050936799
-0.02611593 -0.059798401 0.050936799
-0.02611593 -0.059798401 0.050936799
-0.02611593 -0.059798401 0.050936799
-0.02611593 -0.059798401 0.050936799
0.0096830949 0.0044509536 -0.025597189
0.0076173409 0.011547384 -0.030431788
0.0035963366 0.01559724 -0.032283869
-0.0022980841 0.013510578 -0.026209198
-0.02611593 -0.059798401 0.050936799
-0.02611593 -0.059798401 0.050936799
-0.02611593 -0.059798401 0.050936799
-0.02611593 -0.059798401 0.050936799
-0.02611593 -0.059798401 0.050936799
0.0035993499 0.011579828 -0.031356275
-0.00042165269 0.015629686 -0.033208374
-0.0063269432 0.015560773 -0.02809732
-0.02611593 -0.059798401 0.050936799
-0.02611593 -0.059798401 0.050936799
-0.02611593 -0.059798401 0.050936799
-0.02611593 -0.059798401 0.050936799
0.0026282058 0.0045303432 -0.028464638
-0.00038905104 0.0095764417 -0.0303175
-0.0034359 0.016658371 -0.034133643
-0.009345117 0.015589629 -0.029040609
-0.02611593 -0.059798401 0.050936799
-0.02611593 -0.059798401 0.050936799
-0.02611593 -0.059798401 0.050936799
-0.02611593 -0.059798401 0.050936799
-0.0013749875 0.0035448682 -0.028407492
-0.0034555378 0.011659218 -0.034223735
-0.00842412 0.014658566 -0.03307607
-0.014299816 0.012553815 -0.026001733
-0.02611593 -0.059798401 0.050936799
-0.02611593 -0.059798401 0.050936799
-0.02611593 -0.059798401 0.050936799
-0.02611593 -0.059798401 0.050936799
-0.0063632079 0.0015450625 -0.027349919
-0.0084102396 0.0086234109 -0.031184845
-0.012456904 0.015708929 -0.034982208
-0.017328858 0.01460042 -0.027908642
-0.02611593 -0.059798401 0.050936799
-0.02611593 -0.059798401 0.050936799
-0.02611593 -0.059798401 0.050936799
-0.02611593 -0.059798401 0.050936799
-0.0094296932 0.0036278467 -0.031256147
-0.01245782 0.010691687 -0.034072641
-0.015452427 0.016719528 -0.034907818
-0.021294609 0.013578768 -0.025852177
-0.02611593 -0.059798401 0.050936799
-0.02611593 -0.059798401 0.050936799
-0.02611593 -0.059798401 0.050936799
-0.02611593 -0.059798401 0.050936799
-0.02611593 -0.059798401 0.050936799
-0.016457086 0.010706044 -0.03399748
-0.019451695 0.016733883 -0.034832653
-0.024279265 0.012571614 -0.024814159
-0.02611593 -0.059798401 0.050936799
-0.02611593 -0.059798401 0.050936799
-0.02611593 -0.059798401 0.050936799
-0.02611593 -0.059798401 0.050936799
-0.017398641 0.0016207185 -0.02914254
-0.020378452 0.0066306312 -0.028996076
-0.024406394 0.013698068 -0.031793769
-0.027278716 0.012582381 -0.024757788
-0.02611593 -0.059798401 0.050936799
-0.02611593 -0.059798401 0.050936799
-0.02611593 -0.059798401 0.050936799
-0.02611593 -0.059798401 0.050936799
-0.02611593 -0.059798401 0.050936799
-0.024377719 0.006644987 -0.028920915
-0.027435437 0.015744675 -0.03370069
-0.030259443 0.012575059 -0.023701757
-0.02611593 -0.059798401 0.050936799
-0.02611593 -0.059798401 0.050936799
-0.02611593 -0.059798401 0.050936799
-0.02611593 -0.059798401 0.050936799
-0.02611593 -0.059798401 0.050936799
-0.027469868 0.011763441 -0.034772422
-0.030390503 0.012701683 -0.03069938
-0.033258896 0.012585825 -0.023645386
-0.02611593 -0.059798401 0.050936799
-0.02611593 -0.059798401 0.050936799
-0.02611593 -0.059798401 0.050936799
-0.02611593 -0.059798401 0.050936799
-0.02611593 -0.059798401 0.050936799
-0.03143955 0.0097419647 -0.032733981
-0.034415431 0.015751708 -0.032569498
-0.036239624 0.012578503 -0.022589356
-0.02611593 -0.059798401 0.050936799
-0.02611593 -0.059798401 0.050936799
-0.02611593 -0.059798401 0.050936799
-0.02611593 -0.059798401 0.050936799
-0.02611593 -0.059798401 0.050936799
-0.035449684 0.011774064 -0.03362244
-0.038414702 0.015766064 -0.032494333
-0.040312868 0.01768245 -0.027422402
-0.02611593 -0.059798401 0.050936799
-0.02611593 -0.059798401 0.050936799
-0.02611593 -0.059798401 0.050936799
-0.02611593 -0.059798401 0.050936799
-0.02611593 -0.059798401 0.050936799
-0.03944895 0.011788419 -0.033547275
-0.042410042 0.01678025 -0.032401152
-0.044308208 0.018696643 -0.027329221
-0.02611593 -0.059798401 0.050936799
-0.02611593 -0.059798401 0.050936799
-0.02611593 -0.059798401 0.050936799
-0.02611593 -0.059798401 0.050936799
-0.02611593 -0.059798401 0.050936799
-0.043444294 0.012802606 -0.033454094
-0.046401452 0.018794268 -0.032289952
-0.047288932 0.018689323 -0.026273191
-0.02611593 -0.059798401 0.050936799
-0.02611593 -0.059798401 0.050936799
-0.02611593 -0.059798401 0.050936799
-0.02611593 -0.059798401 0.050936799
-0.04440064 0.0047352007 -0.029580809
-0.047391314 0.011762863 -0.030397959
-0.050396796 0.019808453 -0.032196775
-0.051295143 0.021721251 -0.027143635
-0.02611593 -0.059798401 0.050936799
-0.02611593 -0.059798401 0.050936799
-0.02611593 -0.059798401 0.050936799
-0.02611593 -0.059798401 0.050936799
-0.047333054 0.0026739496 -0.025561828
-0.051401455 0.01379497 -0.031286426
-0.053362727 0.018783212 -0.030159086
-0.051128469 0.011523972 -0.016327545
-0.02611593 -0.059798401 0.050936799
-0.02611593 -0.059798401 0.050936799
-0.02611593 -0.059798401 0.050936799
-0.02611593 -0.059798401 0.050936799
-0.051343188 0.0047060559 -0.026450291
-0.055381998 0.013791236 -0.030211598
-0.05941296 0.024876077 -0.033936884
-0.02611593 -0.059798401 0.050936799
-0.02611593 -0.059798401 0.050936799
-0.02611593 -0.059798401 0.050936799
-0.02611593 -0.059798401 0.050936799
-0.02611593 -0.059798401 0.050936799
-0.055323735 0.0047023222 -0.025375471
-0.059343822 0.013769413 -0.028137114
-0.062364094 0.022832915 -0.030917563
-0.02611593 -0.059798401 0.050936799
-0.02611593 -0.059798401 0.050936799
-0.02611593 -0.059798401 0.050936799
-0.02611593 -0.059798401 0.050936799
-0.02611593 -0.059798401 0.050936799
-0.059315145 0.0067163315 -0.025264267
-0.065427564 0.020898296 -0.033896215
-0.068380803 0.027889781 -0.032714054
-0.02611593 -0.059798401 0.050936799
-0.02611593 -0.059798401 0.050936799
-0.02611593 -0.059798401 0.050936799
-0.02611593 -0.059798401 0.050936799
-0.02611593 -0.059798401 0.050936799
-0.065339707 0.0097735431 -0.027096789
-0.069389395 0.020876475 -0.031821735
-0.06721431 0.017688906 -0.021916755
-0.075340241 0.037913203 -0.032402337
-0.02611593 -0.059798401 0.050936799
-0.02611593 -0.059798401 0.050936799
-0.02611593 -0.059798401 0.050936799
-0.02611593 -0.059798401 0.050936799
-0.07033094 0.011791141 -0.026966799
-0.072317883 0.019815054 -0.027784731
-0.067117684 0.013581056 -0.015990857
-0.02611593 -0.059798401 0.050936799
-0.02611593 -0.059798401 0.050936799
-0.02611593 -0.059798401 0.050936799
-0.02611593 -0.059798401 0.050936799
-0.02611593 -0.059798401 0.050936799
-0.075318247 0.014808577 -0.026818793
-0.080382533 0.026933018 -0.032506585
-0.069046356 0.012516047 -0.011972651
-0.077146627 0.029704666 -0.020512972
-0.02611593 -0.059798401 0.050936799
-0.02611593 -0.059798401 0.050936799
-0.02611593 -0.059798401 0.050936799
-0.02611593 -0.059798401 0.050936799
-0.078265451 0.013765247 -0.023781452
-0.085340247 0.027914613 -0.030395288
-0.087308459 0.035920434 -0.030213561
-0.086203247 0.038825888 -0.02517999
-0.02611593 -0.059798401 0.050936799
-0.02611593 -0.059798401 0.050936799
-0.02611593 -0.059798401 0.050936799
-0.02611593 -0.059798401 0.050936799
-0.086292669 0.020847039 -0.026503984
-0.090312764 0.029914122 -0.029265635
-0.093295582 0.038941458 -0.030046761
-0.091190547 0.041843325 -0.025031984
-0.02611593 -0.059798401 0.050936799
-0.02611593 -0.059798401 0.050936799
-0.02611593 -0.059798401 0.050936799
-0.02611593 -0.059798401 0.050936799
-0.09023577 0.020807128 -0.023429837
-0.097310565 0.034956485 -0.030043676
-0.10028946 0.044983644 -0.030806787
-0.099217765 0.048925109 -0.027754515
-0.02611593 -0.059798401 0.050936799
-0.02611593 -0.059798401 0.050936799
-0.02611593 -0.059798401 0.050936799
-0.02611593 -0.059798401 0.050936799
-0.099266723 0.026892671 -0.026151597
-0.10530426 0.041002266 -0.030784905
-0.10727246 0.049008086 -0.030603174
-0.10216105 0.048881609 -0.024699155
-0.02611593 -0.059798401 0.050936799
-0.02611593 -0.059798401 0.050936799
-0.02611593 -0.059798401 0.050936799
-0.02611593 -0.059798401 0.050936799
-0.10726041 0.032938447 -0.026892819
-0.11429776 0.047051631 -0.031507339
-0.11123036 0.049986098 -0.028510664
-0.10914013 0.053905886 -0.02447753
-0.02611593 -0.059798401 0.050936799
-0.02611593 -0.059798401 0.050936799
-0.02611593 -0.059798401 0.050936799
-0.02611593 -0.059798401 0.050936799
-0.11625393 0.038987823 -0.02761526
-0.12126204 0.051057987 -0.030304074
-0.11920533 0.056013785 -0.028252229
-0.11510459 0.057908636 -0.023293056
-0.02611593 -0.059798401 0.050936799
-0.02611593 -0.059798401 0.050936799
-0.02611593 -0.059798401 0.050936799
-0.02611593 -0.059798401 0.050936799
-0.12520999 0.045001008 -0.026338369
-0.12617838 0.053003244 -0.026175428
-0.13120131 0.066091321 -0.02984589
-0.12611555 0.069000527 -0.025887132
-0.02611593 -0.059798401 0.050936799
-0.02611593 -0.059798401 0.050936799
-0.02611593 -0.059798401 0.050936799
-0.02611593 -0.059798401 0.050936799
-0.13114095 0.047967769 -0.023172591
-0.1412034 0.065127388 -0.029676005
-0.13611764 0.068036579 -0.025717247
-0.13105455 0.069964021 -0.022776186
-0.02611593 -0.059798401 0.050936799
-0.02611593 -0.059798401 0.050936799
-0.02611593 -0.059798401 0.050936799
-0.02611593 -0.059798401 0.050936799
-0.14613244 0.05905591 -0.024691846
-0.15015554 0.072140396 -0.028381091
-0.14809881 0.077096201 -0.02632926
-0.14505708 0.083066329 -0.025277853
-0.02611593 -0.059798401 0.050936799
-0.02611593 -0.059798401 0.050936799
-0.02611593 -0.059798401 0.050936799
-0.02611593 -0.059798401 0.050936799
-0.15708028 0.067075938 -0.023341347
-0.16713488 0.08623521 -0.029808719
-0.16005735 0.087137565 -0.025923591
-0.15399443 0.089061417 -0.023001309
-0.02611593 -0.059798401 0.050936799
-0.02611593 -0.059798401 0.050936799
-0.02611593 -0.059798401 0.050936799
-0.02611593 -0.059798401 0.050936799
-0.17808063 0.085220598 -0.026621051
-0.1760387 0.091194324 -0.025550868
-0.17502621 0.099207446 -0.02642516
-0.16997397 0.10315266 -0.02444772
-0.02611593 -0.059798401 0.050936799
-0.02611593 -0.059798401 0.050936799
-0.02611593 -0.059798401 0.050936799
-0.02611593 -0.059798401 0.050936799
-0.19299725 0.096236393 -0.024141669
-0.1960018 0.1092992 -0.026850041
-0.188943 0.11021965 -0.023964573
-0.18392034 0.11620067 -0.023950413
-0.02611593 -0.059798401 0.050936799
-0.02611593 -0.059798401 0.050936799
-0.02611593 -0.059798401 0.050936799
-0.02611593 -0.059798401 0.050936799
-0.21892872 0.11734422 -0.024274394
-0.21291019 0.12232184 -0.024297044
-0.21189374 0.1313348 -0.02515332
-0.2028688 0.13328406 -0.024286747
-0.02611593 -0.059798401 0.050936799
-0.02611593 -0.059798401 0.050936799
-0.02611593 -0.059798401 0.050936799
-0.02611593 -0.059798401 0.050936799
-0.24180852 0.13738717 -0.021482516
-0.24282524 0.14744334 -0.024282519
-0.23280047 0.14938903 -0.023434732
-0.22178376 0.14933145 -0.022641763
-0.02611593 -0.059798401 0.050936799
-0.02611593 -0.059798401 0.050936799
-0.02611593 -0.059798401 0.050936799
-0.02611593 -0.059798401 0.050936799
-0.81392914 0.65046138 -0.17354143
-0.02611593 -0.059798401 0.050936799
-0.26270768 0.17651019 -0.023384172
-0.24868457 0.17342427 -0.021701973
-0.81455839 0.64910334 -0.15354744
-0.77758396 0.64898866 -0.15524235
-0.02611593 -0.059798401 0.050936799
-0.02611593 -0.059798401 0.050936799
-0.81919783 0.64977741 -0.13444191
-0.78526717 0.65272725 -0.13902538
-0.02611593 -0.059798401 0.050936799
-0.71034586 0.64549547 -0.14256011
-0.81882733 0.6484158 -0.1144667
-0.78892559 0.65341586 -0.1209383
-0.75500661 0.65336615 -0.12557581
-0.72308737 0.65332371 -0.13017577
-0.82045251 0.64806122 -0.094435893
-0.79059207 0.65209758 -0.10292482
-0.75970221 0.65409452 -0.10946928
-0.72481793 0.65006 -0.11519732
-0.81808627 0.64569259 -0.074516289
-0.78825241 0.6477474 -0.084040925
-0.75639325 0.64675933 -0.091657862
-0.73154664 0.65183151 -0.1010345
-0.82273257 0.6493842 -0.056356385
-0.78992987 0.64844686 -0.066991083
-0.76709771 0.65454417 -0.077311777
-0.73727959 0.65259969 -0.086908482
-0.82136619 0.64701927 -0.036417983
-0.79259223 0.64813203 -0.048940822
-0.76179302 0.64620197 -0.059555963
-0.73801029 0.6493324 -0.071948826
-0.81702304 0.64366168 -0.017553635
-0.79227793 0.64682472 -0.0319646
-0.76349306 0.64591974 -0.043523811
-0.73772252 0.64604348 -0.056008302
-0.8176592 0.64532119 0.0014947578
-0.79293674 0.64750254 -0.013933882
-0.76818472 0.64764798 -0.027399242
-0.74145973 0.64580464 -0.041937888
-0.81530786 0.64397055 0.020432722
-0.79461813 0.64720213 0.0030979291
-0.76888895 0.6463623 -0.011403903
-0.74716985 0.64755446 -0.026794188
-0.81395227 0.64362323 0.039407488
-0.7892977 0.64285934 0.020925801
-0.77058506 0.64707983 0.0046462864
-0.74889255 0.64629048 -0.011779718
-0.81460327 0.64630073 0.057474233
-0.79294425 0.64654738 0.039066944
-0.76827896 0.64376569 0.021548886
-0.75161117 0.64602995 0.0032715797
-0.80925632 0.64393944 0.076337799
-0.79162621 0.6462363 0.056042396
-0.76997513 0.64448321 0.037599061
-0.7553218 0.64777261 0.018377692
-0.79796749 0.63659364 0.09299922
-0.78831631 0.64391828 0.072944216
-0.77067536 0.6441974 0.053612426
-0.75403816 0.6434803 0.034281414
-0.80158353 0.6432631 0.11219408
-0.78699827 0.6436072 0.089919664
-0.77137566 0.6439116 0.069625795
-0.75874066 0.64722621 0.049442351
-0.79427838 0.63993102 0.12900272
-0.78468037 0.64329255 0.10687632
-0.77207196 0.6446256 0.085657179
-0.76045936 0.64696199 0.064474851
-0.79093796 0.64059448 0.14695826
-0.7823624 0.64297783 0.12383298
-0.76977664 0.64332908 0.10159616
-0.76018643 0.64469105 0.079433724
-0.78560585 0.63925111 0.16484019
-0.77804875 0.64165616 0.14073405
-0.770473 0.64404321 0.11762755
-0.76088667 0.64440519 0.095447093
-0.78126562 0.63991094 0.18277694
-0.77373511 0.64033443 0.15763509
-0.766186 0.64073992 0.1334929
-0.76160568 0.6441375 0.1104608
-0.77494842 0.63958192 0.19965844
-0.77143204 0.6410377 0.17361012
-0.76884747 0.64544225 0.1506336
-0.75831842 0.64083779 0.12634495
-0.77162278 0.64126325 0.21663235
-0.76811033 0.64171916 0.190566
-0.76057297 0.63912523 0.16636977
-0.76100659 0.64355868 0.14244995
-0.76233667 0.63794208 0.23240376
-0.76182365 0.63840884 0.20639378
-0.75927353 0.63883215 0.18234554
-0.76070702 0.64326924 0.15844452
-0.7550236 0.63660961 0.24924845
-0.76146698 0.64308232 0.22447777
-0.76093525 0.64353096 0.19946745
-0.75843436 0.64099103 0.17336583
-0.74871731 0.63829833 0.26516628
-0.75319946 0.63978279 0.2392683
-0.74871063 0.63423616 0.21307506
-0.75713891 0.63969821 0.1893236
-0.74141902 0.63798374 0.28102934
-0.75186956 0.64247113 0.25629783
-0.75336403 0.64094537 0.23028937
-0.75683147 0.64140838 0.20535423
-0.73509794 0.63865453 0.29792887
-0.74260211 0.63916802 0.27106956
-0.74510032 0.63664609 0.24506189
-0.75553221 0.64111537 0.22133
-0.72185779 0.63335544 0.31158975
-0.73333466 0.63586491 0.28584132
-0.74477029 0.63933802 0.26211017
-0.75620186 0.64381093 0.23839709
-0.7185204 0.63803631 0.32861772
-0.72803211 0.6365574 0.30175996
-0.73947167 0.63903069 0.27801082
-0.7509377 0.63952237 0.25322598
-0.70529902 0.6327554 0.34127891
-0.72272962 0.63724983 0.31767857
-0.73519152 0.63874495 0.29293057
-0.74564689 0.63721538 0.26909056
-0.69601983 0.63245171 0.35610473
-0.71644592 0.6379568 0.33257881
-0.73089272 0.63844121 0.30884996
-0.74633533 0.63992894 0.28515798
-0.69367838 0.63813597 0.37316951
-0.70520538 0.63266492 0.34627727
-0.72162527 0.63513803 0.32362172
-0.73707581 0.63462615 0.29989371
-0.67552978 0.628892 0.38266575
-0.7008909 0.63636053 0.36226875
-0.71734124 0.63585222 0.33855951
-0.73477268 0.63532943 0.31586871
-0.6682384 0.63159508 0.39758316
-0.69163829 0.63407528 0.37605882
-0.71106535 0.63455951 0.35342366
-0.73244691 0.63701439 0.33286142
-0.66095102 0.63329834 0.41248262
-0.6833815 0.63279343 0.38988575
-0.7057668 0.63425213 0.3693243
-0.72420192 0.63273311 0.3466343
-0.64576745 0.62804633 0.42310691
-0.67709398 0.63450032 0.40480396
-0.69848716 0.63395566 0.38418764
-0.72089899 0.63343275 0.36259052
-0.63847214 0.63174915 0.43804237
-0.66980654 0.63620341 0.41970339
-0.6912303 0.63267744 0.39803335
-0.71856928 0.63611758 0.37960118
-0.62628019 0.62850767 0.44875911
-0.65562671 0.62995523 0.43032846
-0.68394679 0.63338083 0.41291478
-0.71327066 0.63581026 0.39550182
-0.61603475 0.62923646 0.46158481
-0.64636624 0.62966973 0.44415462
-0.67766708 0.63308799 0.42779693
-0.70599508 0.63451391 0.41034719
-0.60578918 0.62996519 0.4744105
-0.64204776 0.63436514 0.46016413
-0.66839176 0.63178444 0.44260472
-0.6996966 0.63420302 0.42622903
-0.59358943 0.62872338 0.48516327
-0.62688684 0.62813145 0.46977079
-0.66212302 0.63350946 0.45652327
-0.69439399 0.63489544 0.44214767
-0.58138955 0.62748152 0.49591601
-0.61959153 0.63183427 0.48470619
-0.65383965 0.63420916 0.4713859
-0.68512267 0.63259214 0.45693743
-0.56821257 0.62525427 0.50563234
-0.60837674 0.62957805 0.49645942
-0.6426326 0.62995332 0.48310304
-0.67784703 0.63129574 0.4717828
-0.55700862 0.62501585 0.51642191
-0.59912711 0.63131022 0.50932193
-0.63237631 0.62866437 0.49689236
-0.67154074 0.63298458 0.48770067
-0.54677796 0.62676257 0.52826601
-0.58693522 0.62806869 0.52003866
-0.62313449 0.62839687 0.50971884
-0.6612922 0.62969589 0.501454
-0.53457421 0.62652045 0.53903675
-0.57573521 0.62683046 0.53081024
-0.61092389 0.62513727 0.52143526
-0.65300888 0.63039565 0.51631659
-0.52336633 0.62728184 0.54984438
-0.56451255 0.62657392 0.5425995
-0.60363644 0.62684047 0.53633469
-0.64473343 0.62909579 0.53114313
-0.51215452 0.62904304 0.56066996
-0.55524027 0.62928778 0.55647963
-0.59339094 0.62756926 0.54916036
-0.63840449 0.63176626 0.54807866
-0.49998823 0.62883711 0.56944144
-0.54501355 0.63003469 0.56830573
-0.58412653 0.6282835 0.56300449
-0.62717092 0.62949193 0.56083155
-0.48682213 0.62862766 0.57819408
-0.52988219 0.62583685 0.57594907
-0.57388502 0.62801248 0.57581222
-0.61788779 0.63018817 0.57567537
-0.47365996 0.62741846 0.58692878
-0.51869702 0.62561649 0.58573896
-0.56363946 0.62874126 0.58863795
-0.60370409 0.62493974 0.58631849
-0.46151236 0.62723064 0.59470057
-0.50844365 0.62834483 0.59860075
-0.5524168 0.62848467 0.60042715
-0.59443963 0.62565404 0.60016268
-0.44931942 0.62900633 0.60450768
-0.49528539 0.62613577 0.60731739
-0.54214871 0.63019526 0.61427057
-0.58415669 0.62634665 0.61498767
-0.43619472 0.62783325 0.61124313
-0.48210052 0.6259082 0.61706972
-0.52894902 0.62894976 0.62500447
-0.57387382 0.62703925 0.62981272
-0.42109686 0.6246714 0.61690509
-0.46991545 0.62568426 0.62684083
-0.5157721 0.62672257 0.6347208
-0.56163657 0.62576121 0.64256483
-0.40601778 0.62152755 0.62156749
-0.45872244 0.62746358 0.63666672
-0.50357229 0.62548071 0.6454736
-0.54941797 0.62450129 0.65431714
-0.39288521 0.62235421 0.62833887
-0.4436059 0.62428361 0.64332855
-0.49036869 0.62523502 0.65622556
-0.53617692 0.62421948 0.66706854
-0.38264272 0.62710029 0.64023697
-0.43432182 0.62999701 0.65726274
-0.47816491 0.62499303 0.66699642
-0.52686721 0.62689716 0.68294811
-0.36951402 0.62692708 0.64699036
-0.41922405 0.62683511 0.66292477
-0.46302971 0.621795 0.6746577
-0.51267171 0.62464827 0.69364524
-0.3544724 0.62381953 0.64965338
-0.40605792 0.62662572 0.67167747
-0.45175382 0.62550151 0.6885184
-0.49654064 0.62044686 0.70126987
-0.34231699 0.62563133 0.65746129
-0.39288396 0.628416 0.68046618
-0.43663341 0.62332147 0.69519812
-0.48522735 0.62411726 0.71712977
-0.32725266 0.62350553 0.66114199
-0.37682769 0.62428683 0.6840921
-0.42345247 0.62209404 0.70493245
-0.47102788 0.62286824 0.72784495
-0.31413877 0.62435019 0.66691369
-0.36463481 0.62606251 0.69389927
-0.40928653 0.62188101 0.71366632
-0.45682451 0.62261903 0.73857808
-0.30200204 0.62618005 0.67372191
-0.34955573 0.62291884 0.69856167
-0.39509794 0.62264973 0.72341788
-0.44262111 0.62236983 0.74931133
-0.28793362 0.6250577 0.67743945
-0.33542329 0.62374175 0.70531422
-0.38188261 0.62540358 0.73422384
-0.42837632 0.62308425 0.76206189
-0.27291074 0.62196815 0.67910284
-0.32131746 0.62258315 0.71103114
-0.36771667 0.6251905 0.74295777
-0.41221863 0.62086427 0.77072215
-0.25981951 0.62183112 0.68385684
-0.30811685 0.62635487 0.72085553
-0.35257354 0.62399215 0.75065523
-0.39801133 0.62161493 0.7814734
-0.2466751 0.62565708 0.69068235
-0.2911475 0.619295 0.72040999
-0.33744523 0.62381166 0.75737101
-0.38186839 0.62041295 0.78915197
-0.23264809 0.62357104 0.69238251
-0.27703381 0.62013614 0.72616285
-0.32134366 0.62164611 0.76303226
-0.36661592 0.62312347 0.80191982
-0.21955293 0.62443376 0.69715458
-0.26389724 0.62196255 0.7329523
-0.30619666 0.62144756 0.77074766
-0.34854135 0.61896908 0.80650777
-0.20551805 0.62434733 0.69889081
-0.24878374 0.62279993 0.73868638
-0.29106438 0.62226695 0.7774815
-0.33235314 0.61973053 0.81622177
-0.19146837 0.62324303 0.70160866
-0.23469269 0.62265927 0.74342155
-0.27591345 0.62306815 0.7852149
-0.31620628 0.61952847 0.8239184
-0.17841457 0.62314206 0.70436341
-0.21964711 0.62055147 0.74610269
-0.25982666 0.62192053 0.78989458
-0.30001804 0.62029004 0.83363235
-0.16342516 0.62108856 0.70404553
-0.2035978 0.61944002 0.74878299
-0.24276276 0.61978745 0.79353774
-0.28193951 0.61713541 0.83823842
-0.15037139 0.62098765 0.70680016
-0.18948017 0.62128091 0.75455397
-0.22758521 0.62257028 0.80230689
-0.26383045 0.61696225 0.84389818
-0.1372871 0.62386817 0.71060866
-0.17538127 0.62313986 0.75932527
-0.21056268 0.61947364 0.80393267
-0.24672516 0.61579293 0.84955871
-0.12322956 0.62476343 0.71336257
-0.1593546 0.62104666 0.76098782
-0.19444932 0.62030751 0.80964798
-0.2295066 0.61953229 0.86030757
-0.10928527 0.62075007 0.71102816
-0.14430118 0.62093848 0.76370502
-0.17835473 0.62115949 0.81436378
-0.21048833 0.61542857 0.8618778
-0.096087724 0.62853926 0.71992493
-0.12920244 0.62279385 0.76845747
-0.16130558 0.62004441 0.81702524
-0.1933752 0.6162588 0.86757433
-0.082184814 0.62356222 0.71557313
-0.11425836 0.61877692 0.76610416
-0.14428304 0.61694771 0.81865108
-0.17435302 0.61315495 0.86916256
-0.069168471 0.62349743 0.71632856
-0.099114329 0.62259573 0.77289206
-0.12818448 0.61879945 0.82338476
-0.15619475 0.6159451 0.8768757
-0.055197611 0.62146568 0.71502978
-0.084094428 0.62352365 0.77362788
-0.1110822 0.62164754 0.82811773
-0.13812706 0.61480844 0.88051808
-0.041154873 0.62337887 0.71680206
-0.068105206 0.62146658 0.77329123
-0.094078369 0.6185689 0.82874388
-0.11996488 0.61859846 0.88824922
-0.028157253 0.62333226 0.71655774
-0.053093161 0.62039483 0.77399099
-0.07708542 0.61750805 0.82840639
-0.10008964 0.61161828 0.88274902
-0.014205115 0.62131858 0.71425933
-0.038031884 0.62228638 0.77674413
-0.06002843 0.61839265 0.83110398
-0.08105959 0.61051404 0.88437325
-0.0022526113 0.61931199 0.71199852
-0.023079928 0.62026912 0.77442694
-0.042926148 0.62124062 0.83583689
-0.06196161 0.61235505 0.88905054
0.011771403 0.6212433 0.71277112
-0.0081318999 0.61725193 0.77209169
-0.025955835 0.61919814 0.83448178
-0.043859504 0.61519951 0.89376473
0.024772953 0.62219644 0.71254486
0.0069598872 0.62212485 0.77589858
-0.009049546 0.61521012 0.8300916
-0.023912393 0.61216438 0.89133555
0.037797153 0.62413138 0.71333629
0.021938421 0.62208909 0.77461708
0.0080152955 0.61809427 0.83282518
-0.0058743143 0.61306351 0.89301467
0.051685274 0.62017226 0.70800287
0.037844889 0.61810476 0.77024567
0.025008257 0.61703348 0.8324877
0.013099561 0.61201358 0.89163989
0.064732112 0.6230889 0.70981193
0.052891377 0.62101424 0.77201718
0.041986421 0.61699057 0.83116859
0.032009408 0.60901833 0.88723022
0.077575117 0.61716992 0.7024619
0.067828529 0.62001485 0.76871836
0.058964591 0.61694765 0.82984954
0.05109261 0.61187714 0.89092588
0.090561867 0.61914098 0.70125401
0.083852179 0.62193894 0.76945341
0.07698787 0.61886466 0.83054698
0.071051508 0.61184156 0.88855082
0.10352205 0.61913055 0.69901043
0.097766876 0.61996144 0.76515561
0.093883291 0.61689436 0.82519323
0.089984 0.609828 0.88515872
0.1165088 0.62110168 0.69780254
0.11374915 0.62092197 0.76387334
0.11083881 0.6158697 0.82285643
0.10894307 0.60979599 0.88280243
0.12944633 0.62010938 0.69454128
0.12869024 0.62092239 0.76059252
0.12671177 0.6129213 0.8165037
0.12788343 0.6097821 0.87944639
0.14236513 0.61913526 0.69028032
0.14363132 0.6209228 0.7573117
0.14472026 0.61585617 0.81621957
0.14682379 0.60976815 0.87609035
0.15535188 0.62110645 0.68907243
0.15750465 0.61798161 0.75099659
0.16170627 0.61781299 0.81493652
0.16683191 0.61269587 0.8757686
0.16824806 0.61915052 0.68379378
0.17349085 0.61994195 0.74973232
0.17858297 0.61586076 0.80858308
0.18464442 0.60879475 0.86636132
0.18017095 0.61917979 0.67956966
0.18737203 0.61900038 0.74345326
0.19555028 0.61783564 0.80630034
0.20356604 0.60879892 0.86200565
0.19313505 0.62016916 0.67734402
0.20227174 0.61803716 0.73815507
0.21035936 0.61294544 0.79693145
0.22037871 0.60490137 0.85261726
0.20605777 0.62019485 0.67310119
0.21726204 0.62100095 0.73692757
0.22726266 0.61297488 0.7916137
0.23926289 0.60494173 0.84626222
0.21900317 0.62120229 0.66987592
0.23214304 0.62005579 0.73062974
0.2431474 0.61302596 0.7853151
0.26034662 0.61281073 0.84901077
0.23090735 0.62124968 0.66465211
0.24393398 0.6151945 0.7203176
0.2589829 0.61011386 0.77696311
0.27714455 0.60993111 0.83864069
0.24381137 0.62129349 0.65940958
0.25888294 0.61719453 0.71707273
0.2769618 0.61508453 0.77471566
0.2949875 0.60901147 0.83028716
0.25673801 0.62231898 0.65518463
0.27276412 0.61625302 0.71079373
0.29284656 0.61513567 0.76841706
0.31183463 0.60909516 0.8219704
0.26761582 0.62038839 0.64894396
0.2866039 0.61434782 0.7024973
0.30767134 0.61424482 0.75912023
0.3307001 0.60915357 0.81461579
0.2805011 0.62045026 0.64270169
0.30051166 0.61538786 0.69725394
0.3235561 0.6142959 0.75282162
0.34648335 0.60729539 0.8032828
0.29347304 0.62343925 0.64051217
0.31437802 0.61546427 0.68999332
0.33838093 0.61340499 0.74352473
0.36644709 0.6132769 0.80001616
0.30431342 0.6215449 0.63227212
0.32826707 0.61652237 0.68375021
0.35427353 0.61545581 0.73726219
0.38220772 0.6104371 0.78766549
0.31724009 0.6225704 0.62804717
0.34216002 0.61858028 0.67752522
0.36907569 0.61358315 0.72694772
0.39592731 0.6066407 0.77333504
0.32910684 0.6226539 0.6208241
0.35393223 0.61373705 0.66621345
0.38390446 0.61369216 0.71766889
0.41171059 0.6047827 0.76200217
0.3389208 0.61878145 0.6115672
0.36782521 0.61579502 0.6599884
0.39566186 0.60986686 0.70537537
0.43059573 0.60984027 0.75473756
0.34150556 0.60411704 0.59224695
0.37964663 0.61391509 0.65072995
0.41254342 0.61393178 0.69813037
0.44638681 0.60998183 0.74344063
0.36374861 0.6238718 0.60119092
0.39454335 0.61696929 0.64450413
0.42739484 0.61502254 0.68986923
0.46217796 0.6101234 0.7321437
0.37251747 0.61803955 0.58991742
0.40737244 0.6170854 0.63526291
0.44120502 0.61515319 0.67960954
0.47901419 0.61222476 0.72286344
0.38645571 0.62206095 0.58572769
0.42022419 0.61818326 0.62703943
0.45397404 0.61432368 0.66735131
0.49274561 0.61142796 0.70858705
0.38496935 0.60346574 0.56341171
0.43205351 0.61830306 0.61781698
0.468788 0.61545062 0.65709084
0.50854456 0.61356914 0.69732612
0.39991137 0.60848343 0.55922127
0.44386017 0.617441 0.60757685
0.4825795 0.61559933 0.64583158
0.52227598 0.61277235 0.6830498
0.40666184 0.60267639 0.54698569
0.45362189 0.61462271 0.59533894
0.49539381 0.61673337 0.63560873
0.53398508 0.61100096 0.66779339
0.41958153 0.60671949 0.54181516
0.45824471 0.60493207 0.57707089
0.50712162 0.61494392 0.6213519
0.54874289 0.61218214 0.65453392
0.42940733 0.60584658 0.53261226
0.47622061 0.61392021 0.57389581
0.51992112 0.61709589 0.61014736
0.56147838 0.61238867 0.64029443
0.44025549 0.60595185 0.52440828
0.48703134 0.61406165 0.56369257
0.52962279 0.61333209 0.5948925
0.5731914 0.61161721 0.62505603
0.45008519 0.60607868 0.51522344
0.49782342 0.6142211 0.55248958
0.54344475 0.61646223 0.58468688
0.58593082 0.61282355 0.61083454
0.45991093 0.60520577 0.50602061
0.51268655 0.61831129 0.5442825
0.55110538 0.61174184 0.56745225
0.59762514 0.61207008 0.59459639
0.47076696 0.60731071 0.49785265
0.52143365 0.6165145 0.53108174
0.55574393 0.60605049 0.54925627
0.60527492 0.60936749 0.57639807
0.48057398 0.60645586 0.4876501
0.53120327 0.61569583 0.51887989
0.57056963 0.61017686 0.53904986
0.61699182 0.60959572 0.56117767
0.48838142 0.60560822 0.47748512
0.53792411 0.61192465 0.50468105
0.57725316 0.60644186 0.52285171
0.62769419 0.61084551 0.54499441
0.50024116 0.60870939 0.46931642
0.54974252 0.61406219 0.494495
0.59004176 0.61061162 0.51068354
0.63841528 0.61207724 0.52981085
0.51109725 0.61081427 0.46114847
0.55136979 0.60538214 0.47630134
0.59875143 0.60885102 0.49548349
0.64811391 0.61233073 0.51362836
0.52090812 0.61095923 0.45096397
0.55809861 0.60361058 0.4621385
0.60748374 0.6080721 0.4813011
0.6547451 0.60964984 0.49444926
0.52664798 0.60717356 0.43778354
0.56686831 0.60279548 0.44995546
0.62127614 0.6132381 0.46913221
0.66850007 0.61485201 0.480281
0.53443271 0.60534418 0.42660093
0.57562333 0.60299838 0.43679073
0.62999761 0.61447698 0.45398617
0.67517656 0.61413461 0.46313718
0.54527795 0.60946679 0.41746935
0.58337843 0.60320485 0.42364484
0.63973755 0.61569417 0.439821
0.68386054 0.61540961 0.44599187
0.54999518 0.60470295 0.40329003
0.59315586 0.60438585 0.41147903
0.64643282 0.61495858 0.42367688
0.68951458 0.61371398 0.42784917
0.56083262 0.60682589 0.39412245
0.5988887 0.60361773 0.39735296
0.65415049 0.61520129 0.40853167
0.69517255 0.61301821 0.40972453
0.5706327 0.6089887 0.3829743
0.60564011 0.60282797 0.38420784
0.66187209 0.61644369 0.39340442
0.70386446 0.61629295 0.39261523
0.57538044 0.60720623 0.36984873
0.62656021 0.61687678 0.37706789
0.66857123 0.61670804 0.3772783
0.70851862 0.61460096 0.37449133
0.5851993 0.60935092 0.3597002
0.6322704 0.61512691 0.36192414
0.67324418 0.61499792 0.36015412
0.71418446 0.61590487 0.35640272
0.59094304 0.60656506 0.34653783
0.63798457 0.6143769 0.34679848
0.68096977 0.61724019 0.34504488
0.7188465 0.61621255 0.33831486
0.59569085 0.60478264 0.33341226
0.64877355 0.61855388 0.33466792
0.69072539 0.62245667 0.33095181
0.72350466 0.61552036 0.320209
0.60547614 0.60796326 0.32128251
0.65451038 0.6187855 0.32055998
0.69439852 0.62075019 0.31384641
0.72817069 0.61682791 0.30213916
0.61325395 0.60915142 0.30915421
0.66225457 0.62100977 0.30645043
0.69604939 0.61806911 0.29576087
0.73384047 0.61913151 0.28406855
0.61699796 0.60637271 0.29602945
0.66797262 0.62125951 0.29134274
0.70580506 0.62328559 0.28166777
0.73347688 0.61747557 0.26503897
0.62273085 0.60560465 0.28190342
0.67369074 0.62150937 0.27623507
0.70442986 0.61863381 0.26260293
0.73413181 0.61579788 0.24699023
0.63051653 0.60879248 0.26981121
0.67337549 0.61779946 0.26016843
0.71214455 0.62289381 0.24653009
0.7438392 0.62306833 0.2299342
0.63626808 0.6080063 0.25668484
0.68513864 0.62500846 0.24607381
0.70778471 0.61723477 0.22850326
0.60647839 0.50044584 0.1822717
0.6410051 0.60824162 0.24259564
0.68582326 0.62129492 0.22998837
0.71046197 0.61653167 0.2114346
0.56290245 0.46202287 0.15938477
0.64673787 0.60747349 0.22846964
0.68751544 0.61957759 0.21392018
0.56508905 0.48090392 0.1656875
0.53143847 0.43348274 0.14045119
0.65047508 0.60771239 0.21439922
0.68317044 0.61290061 0.19687498
0.55677819 0.47320533 0.15069878
0.5502919 0.4496108 0.12938619
0.65823805 0.60991848 0.20128933
0.55394608 0.48710516 0.15700537
0.54645997 0.46351424 0.13571158
0.5550673 0.45482716 0.11638673
0.66197133 0.60915756 0.18720087
0.54464632 0.47739246 0.14299905
0.55927217 0.47368294 0.12365155
0.58095074 0.47892877 0.10533435
0.5539301 0.50217491 0.15327701
0.54941386 0.48060915 0.12996355
0.57209224 0.48585138 0.11162756
0.60177815 0.49808523 0.092286512
0.55064106 0.49544019 0.13921198
0.56527078 0.49273056 0.11988252
0.58390862 0.49702343 0.099604346
0.62058717 0.51726705 0.078276582
0.55744952 0.49961334 0.12815626
0.57809091 0.50489891 0.10785852
0.60272843 0.51418751 0.086558044
0.62231785 0.52053076 0.063298143
0.56624681 0.50579709 0.11609932
0.59088832 0.51608551 0.094816856
0.61450344 0.524396 0.072517484
0.63008952 0.52975374 0.04931473
0.57203281 0.50899214 0.1040447
0.6046856 0.52726859 0.081756398
0.61625665 0.5286414 0.058556724
0.62279427 0.52605087 0.034379274
0.58584881 0.5201571 0.091983899
0.6104607 0.53248137 0.068738148
0.62002826 0.53286147 0.045558043
0.62653625 0.53230685 0.019417305
0.59462726 0.5263589 0.078927301
0.61019862 0.53273463 0.054742895
0.61774385 0.53214014 0.030582689
0.62125248 0.5315963 0.0044983178
0.60340971 0.53356057 0.065888725
0.6149739 0.53795099 0.041743442
0.61847067 0.53440762 0.015605018
0.61295336 0.52689719 -0.01043636
0.60918099 0.53777355 0.052852456
0.61170048 0.5352155 0.027750505
0.61721271 0.53566426 0.0016465709
0.6247105 0.54214102 -0.026386149
0.61395234 0.54199004 0.039834984
0.61844206 0.54146069 0.012732163
0.60792869 0.52995086 -0.012287673
0.59941578 0.52345103 -0.038254671
0.61368626 0.54124349 0.02582171
0.61216527 0.53773612 -0.0012224205
0.60866332 0.53421789 -0.027229309
0.59015441 0.51871932 -0.051171251
0.61141276 0.53850436 0.011809982
0.61491829 0.54197788 -0.015201971
0.59239447 0.52249444 -0.039140821
0.58288574 0.51699811 -0.065071002
0.61315817 0.54075009 -0.0021868199
0.59763783 0.52725852 -0.027148739
0.59013665 0.52375466 -0.053080477
0.57864702 0.51824743 -0.077973425
0.60689235 0.53500783 -0.015177771
0.5973649 0.52952957 -0.042107623
0.57989025 0.51800871 -0.064996615
0.68928421 0.63158953 -0.12000885
0.60263395 0.53125805 -0.028170284
0.59211057 0.52678317 -0.055063315
0.59162867 0.53327054 -0.08194606
0.67999321 0.62889373 -0.13488869
0.59235704 0.52253062 -0.041140139
0.58386779 0.52202988 -0.066999018
0.6872806 0.63059688 -0.11998928
0.67670989 0.63319319 -0.15075484
0.58609504 0.51778811 -0.054113079
0.59560221 0.5362919 -0.083966486
0.68099689 0.62988997 -0.13488947
0.57163286 0.53731507 -0.13551669
0.57784438 0.51103508 -0.066084817
0.68725014 0.62761551 -0.121043
0.67570221 0.63119709 -0.15077206
0.20630404 0.17573635 -0.02718062
0.58558261 0.52129406 -0.082049534
0.68395501 0.62891555 -0.13696319
0.21338551 0.17763853 -0.023277469
-0.02611593 -0.059798401 0.050936799
0.6932264 0.62661219 -0.12217343
0.68265259 0.63322592 -0.15386656
-0.02611593 -0.059798401 0.050936799
0.17817748 0.15187711 -0.029086247
0.69691211 0.63292247 -0.14013438
0.67038 0.62550557 -0.16678081
0.19622917 0.16581012 -0.029172219
-0.02611593 -0.059798401 0.050936799
0.68961692 0.62921959 -0.15506981
0.21028067 0.17474027 -0.02827346
-0.02611593 -0.059798401 0.050936799
0.14912203 0.12694927 -0.026992463
0.68830669 0.63153028 -0.17200923
0.19621739 0.16281065 -0.029226273
0.1671363 0.14091846 -0.029077753
-0.02611593 -0.059798401 0.050936799
0.2032762 0.16373108 -0.026340805
-0.02611593 -0.059798401 0.050936799
-0.02611593 -0.059798401 0.050936799
0.12906283 0.11102376 -0.026904948
0.18623909 0.14877655 -0.025291983
0.16910933 0.13892971 -0.030151032
0.14705443 0.12401123 -0.030007917
-0.02611593 -0.059798401 0.050936799
-0.02611593 -0.059798401 0.050936799
-0.02611593 -0.059798401 0.050936799
-0.02611593 -0.059798401 0.050936799
0.1140224 0.10007945 -0.026821297
0.16911234 0.13491231 -0.029223446
0.15003517 0.12401855 -0.031063959
0.12502128 0.10505722 -0.027937558
-0.02611593 -0.059798401 0.050936799
-0.02611593 -0.059798401 0.050936799
-0.02611593 -0.059798401 0.050936799
-0.02611593 -0.059798401 0.050936799
0.096989237 0.086124763 -0.025754448
0.14603408 0.11399842 -0.029169653
0.13196081 0.10910378 -0.031995658
0.11195087 0.096141592 -0.029854767
-0.02611593 -0.059798401 0.050936799
-0.02611593 -0.059798401 0.050936799
-0.02611593 -0.059798401 0.050936799
-0.02611593 -0.059798401 0.050936799
0.085959829 0.078165606 -0.025691897
0.12498593 0.096058756 -0.028099723
0.11293498 0.092138685 -0.029945631
0.10188776 0.089214846 -0.031792309
-0.02611593 -0.059798401 0.050936799
-0.02611593 -0.059798401 0.050936799
-0.02611593 -0.059798401 0.050936799
-0.02611593 -0.059798401 0.050936799
0.072956458 0.067177951 -0.023646507
0.11391909 0.088135771 -0.030036494
0.10088704 0.084201209 -0.030863959
0.087884575 0.078230791 -0.029728122
-0.02611593 -0.059798401 0.050936799
-0.02611593 -0.059798401 0.050936799
-0.02611593 -0.059798401 0.050936799
-0.02611593 -0.059798401 0.050936799
0.061945762 0.059200712 -0.0225843
0.097889684 0.075177327 -0.028970428
0.0898389 0.076260127 -0.031801064
0.075866215 0.068257473 -0.028683163
-0.02611593 -0.059798401 0.050936799
-0.02611593 -0.059798401 0.050936799
-0.02611593 -0.059798401 0.050936799
-0.02611593 -0.059798401 0.050936799
0.053942386 0.053212356 -0.021542419
0.082897536 0.062179096 -0.025923822
0.080798268 0.070311531 -0.032739725
0.068818264 0.065319277 -0.030605014
-0.02611593 -0.059798401 0.050936799
-0.02611593 -0.059798401 0.050936799
-0.02611593 -0.059798401 0.050936799
-0.02611593 -0.059798401 0.050936799
0.043965034 0.044195503 -0.018517703
0.076830685 0.059255414 -0.028864123
0.069783658 0.061334457 -0.03169553
0.055848405 0.053295624 -0.026578311
-0.02611593 -0.059798401 0.050936799
-0.02611593 -0.059798401 0.050936799
-0.02611593 -0.059798401 0.050936799
-0.02611593 -0.059798401 0.050936799
0.037954349 0.041217554 -0.018459015
0.064831048 0.049264003 -0.026819501
0.061765481 0.056364022 -0.031635296
0.049822927 0.051335581 -0.027501266
-0.02611593 -0.059798401 0.050936799
-0.02611593 -0.059798401 0.050936799
-0.02611593 -0.059798401 0.050936799
-0.02611593 -0.059798401 0.050936799
0.028980745 0.033196941 -0.015435062
0.05878292 0.046322212 -0.028760131
0.048829131 0.04330435 -0.025627296
0.044793334 0.048372127 -0.028461024
-0.02611593 -0.059798401 0.050936799
-0.02611593 -0.059798401 0.050936799
-0.02611593 -0.059798401 0.050936799
-0.02611593 -0.059798401 0.050936799
0.023988597 0.030197311 -0.014395505
0.05174977 0.042366117 -0.029700331
0.043769952 0.042376742 -0.028550345
0.036793888 0.043383598 -0.027401134
-0.02611593 -0.059798401 0.050936799
-0.02611593 -0.059798401 0.050936799
-0.02611593 -0.059798401 0.050936799
-0.02611593 -0.059798401 0.050936799
0.015059376 0.019122947 -0.0084266253
0.040806118 0.032316845 -0.024675515
0.038740359 0.039413273 -0.029510111
0.029809041 0.037373565 -0.025378387
-0.02611593 -0.059798401 0.050936799
-0.02611593 -0.059798401 0.050936799
-0.02611593 -0.059798401 0.050936799
-0.02611593 -0.059798401 0.050936799
-0.02611593 -0.059798401 0.050936799
0.03477671 0.029356975 -0.025616489
0.033718627 0.038449485 -0.030433841
0.019898728 0.0262847 -0.018391062
-0.02611593 -0.059798401 0.050936799
-0.02611593 -0.059798401 0.050936799
-0.02611593 -0.059798401 0.050936799
-0.02611593 -0.059798401 0.050936799
-0.02611593 -0.059798401 0.050936799
0.028784748 0.026360935 -0.024558142
-0.02611593 -0.059798401 0.050936799
0.013936359 0.021252815 -0.015369426
-0.02611593 -0.059798401 0.050936799
-0.02611593 -0.059798401 0.050936799
-0.02611593 -0.059798401 0.050936799
-0.02611593 -0.059798401 0.050936799
-0.02611593 -0.059798401 0.050936799
0.014960006 0.0081790853 -0.011623811
-0.02611593 -0.059798401 0.050936799
-0.02611593 -0.059798401 0.050936799
-0.02611593 -0.059798401 0.050936799
-0.02611593 -0.059798401 0.050936799
-0.02611593 -0.059798401 0.050936799
-0.02611593 -0.059798401 0.050936799
-0.02611593 -0.059798401 0.050936799
-0.02611593 -0.059798401 0.050936799
0.012838998 0.020347025 -0.020366959
-0.02611593 -0.059798401 0.050936799
-0.02611593 -0.059798401 0.050936799
-0.02611593 -0.059798401 0.050936799
-0.02611593 -0.059798401 0.050936799
-0.02611593 -0.059798401 0.050936799
-0.02611593 -0.059798401 0.050936799
0.011811689 0.013351799 -0.020474296
-0.02611593 -0.059798401 0.050936799
-0.02611593 -0.059798401 0.050936799
-0.02611593 -0.059798401 0.050936799
-0.02611593 -0.059798401 0.050936799
-0.02611593 -0.059798401 0.050936799
-0.02611593 -0.059798401 0.050936799
-0.02611593 -0.059798401 0.050936799
0.0097154314 0.017466826 -0.026362613
0.0038545255 0.014344162 -0.018306635
-0.02611593 -0.059798401 0.050936799
-0.02611593 -0.059798401 0.050936799
-0.02611593 -0.059798401 0.050936799
-0.02611593 -0.059798401 0.050936799
-0.02611593 -0.059798401 0.050936799
-0.02611593 -0.059798401 0.050936799
0.0047420072 0.014449108 -0.024323393
0.00080676319 0.016408859 -0.021213204
-0.02611593 -0.059798401 0.050936799
-0.02611593 -0.059798401 0.050936799
-0.02611593 -0.059798401 0.050936799
-0.02611593 -0.059798401 0.050936799
-0.02611593 -0.059798401 0.050936799
-0.02611593 -0.059798401 0.050936799
0.0017090373 0.015495884 -0.026248325
-0.0031964337 0.015423383 -0.021156061
-0.02611593 -0.059798401 0.050936799
-0.02611593 -0.059798401 0.050936799
-0.02611593 -0.059798401 0.050936799
-0.02611593 -0.059798401 0.050936799
-0.02611593 -0.059798401 0.050936799
-0.02611593 -0.059798401 0.050936799
-0.0023089522 0.015528329 -0.027172823
-0.00431854 0.022570491 -0.029008429
-0.02611593 -0.059798401 0.050936799
-0.02611593 -0.059798401 0.050936799
-0.02611593 -0.059798401 0.050936799
-0.02611593 -0.059798401 0.050936799
-0.02611593 -0.059798401 0.050936799
-0.02611593 -0.059798401 0.050936799
-0.0063121491 0.014542853 -0.02711568
-0.0083661219 0.024638776 -0.031896219
-0.02611593 -0.059798401 0.050936799
-0.02611593 -0.059798401 0.050936799
-0.02611593 -0.059798401 0.050936799
-0.02611593 -0.059798401 0.050936799
-0.02611593 -0.059798401 0.050936799
-0.02611593 -0.059798401 0.050936799
-0.009345117 0.015589629 -0.029040609
-0.012335798 0.022617292 -0.029857773
-0.02611593 -0.059798401 0.050936799
-0.02611593 -0.059798401 0.050936799
-0.02611593 -0.059798401 0.050936799
-0.02611593 -0.059798401 0.050936799
