# .PCD v0.7 - Point Cloud Data file format
VERSION 0.7
FIELDS x y z
SIZE 4 4 4
TYPE F F F
COUNT 1 1 1
WIDTH 1405
HEIGHT 1
VIEWPOINT 0 0 0 1 0 0 0
POINTS 1405
DATA ascii
-0.46721274 0.61713362 0.87872088
-0.48479328 0.61884469 0.95410657
-0.49854791 0.61468709 1.0213116
-0.51314861 0.61138815 1.0965509
-0.45100966 0.61687726 0.88941658
-0.46461365 0.61759216 0.96370935
-0.47726697 0.61534017 1.03593
-0.48793638 0.60908175 1.108041
-0.43669698 0.62053692 0.90522009
-0.44636959 0.61829227 0.9763847
-0.4550916 0.61308068 1.0454772
-0.46463707 0.60970956 1.1236215
-0.41662669 0.61537558 0.90975249
-0.42617121 0.61702168 0.98698723
-0.43191251 0.61181748 1.0550237
-0.44129252 0.61230087 1.1412373
-0.39848411 0.61416644 0.91739357
-0.40694609 0.61773628 0.99864405
-0.40873736 0.60955435 1.0645519
-0.41513661 0.61004514 1.1497095
-0.38319027 0.61784059 0.93217868
-0.38578537 0.61649823 1.0072284
-0.38653547 0.60927641 1.0751349
-0.38898075 0.60778934 1.158182
-0.3650704 0.61564964 0.93880206
-0.36368886 0.61331129 1.012759
-0.36522397 0.61291093 1.090807
-0.3637419 0.60746449 1.1707077
-0.34496957 0.61346972 0.94438821
-0.34448242 0.61404389 1.0234163
-0.34298071 0.61359668 1.1034071
-0.33757818 0.60720837 1.1792161
-0.32776281 0.61420953 0.95508301
-0.32423484 0.61573666 1.036072
-0.32065076 0.61720943 1.1200601
-0.3103998 0.60593075 1.1886874
-0.30959761 0.61398214 0.96374172
-0.30311158 0.61453485 1.042657
-0.29561093 0.614066 1.1225352
-0.28421733 0.60565656 1.1981953
-0.29140583 0.61573631 0.97343612
-0.28096974 0.61331135 1.0502229
-0.27055633 0.60990465 1.1259919
-0.25896671 0.60833114 1.2107753
-0.27324063 0.61550897 0.98209488
-0.25986516 0.6121276 1.0558082
-0.24732801 0.61160463 1.1375918
-0.2308861 0.60614055 1.2152114
-0.25313586 0.61432874 0.98769903
-0.23771942 0.61190391 1.0633922
-0.22220153 0.61138827 1.1441197
-0.2037186 0.60688066 1.223719
-0.23398562 0.6151157 0.99535728
-0.21650554 0.61462909 1.0740478
-0.19713907 0.60922658 1.1476126
-0.17659248 0.60665715 1.2302094
-0.21396756 0.61100841 0.99690872
-0.19435978 0.61440539 1.0816318
-0.17296709 0.61097723 1.1561946
-0.1485493 0.60450274 1.2326462
-0.1948173 0.61179537 1.0045671
-0.17133439 0.61228698 1.0831629
-0.14696491 0.60786641 1.1566515
-0.12043816 0.60529351 1.2381359
-0.17466335 0.6135785 1.0122246
-0.14926744 0.6111359 1.0867301
-0.12277421 0.60959899 1.1662332
-0.09230829 0.60606623 1.2446254
-0.15466398 0.60948938 1.0127764
-0.12611796 0.61190844 1.0943134
-0.097639889 0.61138237 1.1727972
-0.064325206 0.60296631 1.2440453
-0.13453266 0.61029071 1.0194162
-0.10305121 0.61075372 1.0978616
-0.071633771 0.60927129 1.1732721
-0.036270231 0.60381132 1.2465363
-0.1143373 0.61303753 1.029091
-0.079935215 0.6125623 1.1034635
-0.045563646 0.60910559 1.1767824
-0.0072420184 0.60267127 1.2479725
-0.093330286 0.61094451 1.02966
-0.056992587 0.60851657 1.1009599
-0.019512229 0.60895807 1.1792928
0.019730391 0.60159266 1.2464476
-0.073176317 0.61272758 1.0373175
-0.033903178 0.6083436 1.1055262
0.0053738719 0.60495943 1.1737525
0.047826737 0.60340142 1.2509558
-0.052127913 0.61159819 1.0399039
-0.0098701268 0.60822129 1.1070745
0.030342719 0.60288817 1.1722472
0.076757401 0.60135186 1.2473757
-0.031116962 0.61050493 1.040491
0.012163293 0.6081062 1.1086603
0.056590125 0.60957652 1.1838806
0.099789657 0.57610226 1.2004719
-0.0090648178 0.61037171 1.0430766
0.036215067 0.60796577 1.1112084
0.082479976 0.60657418 1.1783397
0.13266835 0.60022342 1.2423069
0.011070436 0.6121729 1.0497344
0.059229586 0.60786515 1.1117758
0.1084713 0.60548103 1.1778331
0.1606445 0.60014099 1.2407811
0.031953346 0.60718888 1.0442513
0.084330402 0.61068439 1.1163584
0.13548899 0.60636592 1.1783435
0.18850045 0.59816754 1.2332213
0.054050788 0.60901904 1.0488724
0.10715285 0.60474765 1.1078209
0.16044697 0.60631233 1.1758745
0.21646181 0.59910303 1.2307138
0.076088138 0.60990381 1.0504763
0.13014863 0.60466516 1.1073887
0.18632202 0.60432798 1.1693518
0.24438182 0.5990749 1.226189
0.097012408 0.60588342 1.0470107
0.15414819 0.60557884 1.1069558
0.21226111 0.60428888 1.1658643
0.27336955 0.60198843 1.2246985
0.12009488 0.60872799 1.0506312
0.17806104 0.60356534 1.10247
0.2382189 0.60423177 1.1633765
0.29910177 0.59713107 1.2111243
0.141027 0.60670722 1.0472015
0.20204185 0.60449719 1.1010375
0.2640979 0.60324717 1.1568719
0.32700697 0.59812087 1.2056179
0.16297768 0.60466474 1.0447528
0.22702248 0.60542536 1.099586
0.28787184 0.59936064 1.1453527
0.35382959 0.59718698 1.1960956
0.18601878 0.60654575 1.046356
0.24991679 0.60343361 1.0941195
0.31169108 0.59743768 1.1358685
0.38069355 0.59721673 1.1885906
0.2090185 0.607463 1.0459418
0.2727924 0.60145986 1.0876533
0.33972037 0.60131836 1.1364143
0.40647897 0.59632248 1.1770877
0.23097703 0.60742021 1.043529
0.2977809 0.60438782 1.086238
0.36458474 0.60135531 1.1289468
0.43543318 0.60027194 1.1736159
0.2539354 0.60737383 1.0410976
0.32378399 0.6062941 1.0857855
0.39151281 0.60333049 1.1244769
0.40343913 0.52097678 1.0297318
0.27474338 0.60246217 1.031616
0.34558094 0.60339659 1.0753214
0.41533595 0.60240728 1.1150109
0.48698911 0.59950161 1.1496285
0.2977244 0.60339749 1.0302022
0.36946425 0.60341901 1.0688725
0.40550825 0.55301845 1.0272719
0.50966966 0.59570915 1.1331298
0.32066792 0.60436904 1.0267891
0.3923063 0.60248131 1.0604249
0.46603099 0.60351354 1.0980761
0.53750777 0.59877098 1.1236607
0.34254763 0.60339874 1.0203596
0.40569797 0.58695841 1.0308834
0.48983544 0.60260844 1.0876105
0.5612334 0.59693837 1.1091785
0.36440471 0.60144687 1.0129125
0.4400354 0.60256225 1.0455277
0.51462495 0.6027177 1.0761445
0.58703059 0.59904379 1.0977297
0.38839337 0.60437822 1.0115159
0.4629001 0.60260636 1.038098
0.53532845 0.59991419 1.0607009
0.61074144 0.59822917 1.0822657
0.41233674 0.60534626 1.0080841
0.48568603 0.60172296 1.0266515
0.5580582 0.59908509 1.0462554
0.63551998 0.6003561 1.0698361
0.43416026 0.60443026 0.99865562
0.50853205 0.60178512 1.018222
0.58080673 0.59823781 1.0328096
0.65510756 0.59666491 1.0483953
0.45913005 0.60737616 0.99624062
0.53235912 0.60186177 1.008774
0.60668653 0.60227042 1.0253955
0.67986733 0.59881002 1.034966
0.48097622 0.60744196 0.98782992
0.55412656 0.60100007 0.99634671
0.63150263 0.6043613 1.0149652
0.7046085 0.60097313 1.020537
0.50173593 0.60458416 0.97538537
0.57693899 0.60209823 0.98593593
0.64806402 0.59869921 0.99254507
0.72630495 0.60118365 1.0041291
0.52355945 0.60366815 0.96595699
0.59975153 0.60319644 0.9755252
0.67183888 0.59983003 0.98011619
0.74591893 0.59947401 0.983724
0.54640543 0.60373032 0.95752746
0.62251872 0.60233116 0.96307904
0.69355398 0.60002244 0.96470785
0.7676006 0.6007024 0.96633434
0.56821424 0.60383224 0.94711751
0.64633888 0.60542542 0.95268553
0.71833658 0.60314918 0.95229626
0.7892822 0.60193074 0.94894481
0.58895916 0.60199243 0.93369132
0.66500533 0.60266525 0.9352802
0.74005562 0.60434145 0.93690598
0.80790031 0.60122454 0.92857653
0.61385405 0.60501069 0.92727757
0.68471295 0.60086513 0.91987342
0.75870723 0.6025992 0.91851896
0.83160818 0.60442728 0.91218501
0.63355768 0.60221076 0.91185284
0.70542437 0.60006124 0.90446591
0.78143007 0.60478765 0.90312791
0.8481853 0.60276461 0.88983697
0.65637022 0.60330892 0.90144205
0.7271809 0.60121727 0.8910749
0.79904449 0.60308516 0.88276041
0.86678869 0.60307622 0.86848712
0.67711908 0.60246891 0.88803381
0.74687374 0.60043508 0.87468648
0.81870383 0.60333902 0.86439073
0.88441086 0.60337347 0.84815562
0.69889432 0.60360682 0.87564248
0.76759297 0.60163087 0.85931504
0.8312512 0.59870923 0.84106416
0.90099198 0.60271055 0.82582557
0.72064686 0.60376298 0.86223358
0.78624856 0.60088843 0.84094608
0.84785098 0.59802824 0.8197338
0.91759962 0.60402924 0.80453134
0.74342579 0.60589725 0.84984148
0.80799025 0.60306245 0.82657349
0.86751425 0.59928191 0.80138212
0.93418461 0.60436618 0.78221929
0.76209623 0.60413694 0.83245414
0.82564604 0.60232365 0.80822331
0.88413668 0.59958261 0.78106946
0.94672501 0.60275406 0.75794715
0.78487521 0.60627109 0.8200621
0.84632784 0.60355562 0.79085255
0.89666927 0.59597087 0.75676125
0.96231019 0.60309464 0.73565394
0.80453062 0.60552502 0.80167437
0.86194265 0.60186028 0.77052259
0.9285568 0.60699886 0.74836087
0.9778806 0.60445303 0.7123791
0.82016015 0.60281187 0.7823261
0.88262439 0.60309231 0.75315177
0.93907493 0.60441214 0.72310853
0.99042487 0.60384071 0.68812495
0.84390146 0.60497862 0.7679159
0.90026534 0.60337138 0.73382002
0.9567011 0.60570914 0.70279515
1.0080402 0.60715538 0.66684794
0.86053872 0.60426146 0.74858487
0.91791028 0.60465026 0.71450627
0.97230899 0.60703135 0.68151963
1.021611 0.6085211 0.64361066
0.87919432 0.60351908 0.73021597
0.93451399 0.60496908 0.69319385
0.98587185 0.60639733 0.6582464
1.0291111 0.60596317 0.61741507
0.90190232 0.60672539 0.71384323
0.95113647 0.60526991 0.67288125
1.0004385 0.60675955 0.63497233
1.0447079 0.60930324 0.59517592
0.91649461 0.60405201 0.69251448
0.96471417 0.60361797 0.65058959
1.01705 0.60907811 0.61369598
1.0532117 0.60774153 0.56897962
0.93513942 0.60532731 0.67318189
0.98536634 0.60688573 0.63125551
1.0306207 0.61044377 0.59045875
1.0617192 0.60717976 0.54280126
0.95478386 0.60659903 0.65383053
0.99995166 0.60722989 0.60898107
1.0401431 0.60886037 0.5652433
1.0763162 0.6105234 0.52058095
0.97138369 0.60591805 0.63250023
1.014541 0.60857379 0.5867247
1.0537137 0.61022604 0.54200602
1.0828246 0.60996866 0.4944402
0.98393887 0.60328805 0.60920966
1.0331522 0.6108852 0.56541085
1.0662847 0.61159533 0.51878756
1.0883138 0.60943574 0.46731859
0.99750185 0.60265398 0.58593637
1.0446966 0.6102764 0.54117548
1.0747886 0.61003357 0.4925912
1.0968443 0.60985565 0.44215795
1.0262283 0.610838 0.56954104
1.054219 0.60869306 0.51595998
1.0843185 0.61044991 0.46741179
1.1053784 0.61127543 0.41701534
1.0417948 0.61119664 0.5462482
1.0708157 0.61202961 0.49370205
1.0928489 0.61086982 0.44225112
1.1108867 0.61072439 0.39089337
1.0583836 0.61253339 0.52395421
1.077312 0.60847539 0.4675073
1.1044012 0.61226076 0.41805178
1.1174212 0.61215127 0.36578831
1.0739313 0.61291009 0.49966168
1.0938901 0.61182994 0.44424969
1.1169611 0.61564779 0.3938697
1.1249593 0.61457455 0.34068251
1.0874796 0.61329395 0.47540674
1.1034162 0.61124647 0.41905224
1.1164173 0.61115509 0.36578909
1.1304716 0.61502331 0.31457856
1.1000051 0.61269975 0.4501529
1.1119238 0.61068463 0.39287391
1.1229295 0.61160028 0.3396664
1.1319805 0.61448658 0.28853178
1.1125346 0.61310536 0.4249171
1.1224617 0.61309701 0.36771172
1.1284415 0.61204904 0.31356248
1.135493 0.61494255 0.26246545
1.120016 0.61056548 0.39772192
1.1309693 0.61253518 0.34153339
1.1359571 0.61349046 0.28743896
1.1390054 0.61539853 0.23639908
1.1325308 0.6119889 0.37150446
1.1404846 0.61396945 0.31537232
1.1374582 0.61095423 0.26135612
1.1435256 0.61785054 0.21034999
1.1450603 0.61239445 0.34626865
1.145974 0.61343646 0.28825068
1.1469815 0.61438805 0.2352311
1.0697109 0.57475311 0.17594075
1.1555567 0.61384326 0.31908911
1.1514636 0.61290359 0.26112908
1.150494 0.61484402 0.20916474
0.72687924 0.3760784 0.11974661
1.1660491 0.61429226 0.29189157
1.1609827 0.61533767 0.23498607
1.0525535 0.55790752 0.17095557
0.7185427 0.3714155 0.1028126
1.1735196 0.61377013 0.2637327
1.1614426 0.61184126 0.20690465
0.71978498 0.3661595 0.11669897
0.65703797 0.33600229 0.083316937
1.1850196 0.61621523 0.2365524
0.85863078 0.43909088 0.14642873
0.72046655 0.36646345 0.099685937
0.63168812 0.32238385 0.067539863
1.162335 0.59889412 0.20365267
0.71869761 0.3582187 0.11357462
0.72217053 0.36774552 0.083671808
0.63042217 0.32164085 0.053545382
0.8525207 0.42516908 0.14329024
0.72238255 0.35951173 0.096523255
0.66369188 0.33430317 0.065155469
0.61613506 0.31494555 0.039687064
0.71359521 0.346293 0.11045338
0.72206032 0.3588194 0.079510987
0.63533461 0.31869578 0.049398728
0.61587691 0.31619859 0.025709825
0.72028357 0.34857506 0.093363643
0.72574526 0.3601124 0.06245961
0.63907963 0.32093433 0.035364345
0.62664032 0.3234112 0.011634003
0.71793509 0.34590831 0.075353265
0.71739 0.35546756 0.044525944
0.64280587 0.32319096 0.020330306
0.61435682 0.31770852 -0.0022438765
0.72059751 0.34622315 0.057302997
0.72610843 0.36072382 0.028452344
0.64252895 0.32446215 0.0053534098
0.64711499 0.33889407 -0.019479807
0.72628599 0.34850883 0.040232055
0.72977459 0.36203492 0.010401297
0.66225421 0.33669582 -0.01180042
0.64784187 0.34116143 -0.034457482
0.725945 0.34783459 0.022220137
0.73645604 0.36733451 -0.0076340437
0.7369827 0.38083521 -0.035409104
0.74251324 0.40033507 -0.06416966
0.73261857 0.35113454 0.0041487552
0.74212968 0.3706381 -0.025686629
0.7466526 0.38814184 -0.054464441
0.74819869 0.40663809 -0.082168207
0.73227763 0.35046032 -0.013863157
0.74179661 0.3719635 -0.043662511
0.74533844 0.38945276 -0.071421862
0.75087678 0.41095221 -0.10014638
0.73693275 0.35378554 -0.032896616
0.74544799 0.37429255 -0.062695198
0.74799782 0.393785 -0.090399742
0.75656223 0.41725531 -0.11814494
0.74358749 0.35710365 -0.051967654
0.74812222 0.37760684 -0.080691412
0.75267559 0.398092 -0.1084155
0.75922561 0.42258736 -0.13710478
0.74223197 0.3574509 -0.070942432
0.75077778 0.38093928 -0.099687278
0.75533497 0.40242428 -0.12739336
0.75789666 0.42491624 -0.15504384
0.74686843 0.36079425 -0.090975553
0.75640303 0.38629678 -0.12070283
0.75699466 0.40676007 -0.14635244
0.7655561 0.43424776 -0.17502521
0.75649691 0.36713719 -0.11204823
0.75507015 0.38762575 -0.13865992
0.76262397 0.41311741 -0.16734993
0.76521611 0.43859076 -0.19394669
0.75911504 0.37050575 -0.13304342
0.76169932 0.39397949 -0.15967621
0.76627237 0.41946381 -0.1873102
0.77085322 0.44694775 -0.21490817
0.76672518 0.376874 -0.15507817
0.76730984 0.40035489 -0.18167339
0.77190554 0.42682096 -0.20828971
0.20989853 0.091808647 -0.032767978
0.7603814 0.37522146 -0.17299537
0.76794696 0.4037126 -0.20163135
0.20890866 0.084777251 -0.030875992
0.1908775 0.080860615 -0.031609498
0.76198101 0.37861174 -0.19497143
0.21588078 0.082770556 -0.032043222
0.19983448 0.079864666 -0.033795949
-0.02611593 -0.059798401 0.050936799
0.21388718 0.074742921 -0.030150473
0.20580682 0.077861562 -0.034944393
-0.02611593 -0.059798401 0.050936799
0.16382354 0.065960079 -0.031372428
0.2028134 0.069837511 -0.033032853
-0.02611593 -0.059798401 0.050936799
0.16979586 0.063956976 -0.032520875
-0.02611593 -0.059798401 0.050936799
-0.02611593 -0.059798401 0.050936799
0.16680245 0.055932917 -0.030609325
-0.02611593 -0.059798401 0.050936799
0.14081413 0.053008657 -0.029175166
0.17574461 0.055954885 -0.033777419
-0.02611593 -0.059798401 0.050936799
0.14675294 0.05204156 -0.032304913
-0.02611593 -0.059798401 0.050936799
-0.02611593 -0.059798401 0.050936799
0.14574827 0.046028066 -0.031394567
-0.02611593 -0.059798401 0.050936799
0.12476691 0.04508552 -0.030018326
0.1536867 0.045053802 -0.034561899
-0.02611593 -0.059798401 0.050936799
0.12376618 0.040071871 -0.029089969
-0.02611593 -0.059798401 0.050936799
-0.02611593 -0.059798401 0.050936799
0.13068609 0.039119273 -0.033238161
-0.02611593 -0.059798401 0.050936799
0.111727 0.039151285 -0.030881822
0.13265128 0.035130866 -0.034347482
-0.02611593 -0.059798401 0.050936799
0.11070754 0.034155726 -0.030953124
-0.02611593 -0.059798401 0.050936799
-0.02611593 -0.059798401 0.050936799
0.10771805 0.027131509 -0.029023558
-0.02611593 -0.059798401 0.050936799
0.098701894 0.032199133 -0.030763671
0.11263439 0.025186259 -0.033152189
-0.02611593 -0.059798401 0.050936799
0.099671192 0.02921414 -0.031836186
-0.02611593 -0.059798401 0.050936799
-0.02611593 -0.059798401 0.050936799
0.094678141 0.021197269 -0.029887054
-0.02611593 -0.059798401 0.050936799
0.085695498 0.025228892 -0.029645864
0.094658509 0.016198125 -0.029977147
-0.02611593 -0.059798401 0.050936799
0.085679792 0.021229569 -0.029717937
-0.02611593 -0.059798401 0.050936799
-0.02611593 -0.059798401 0.050936799
0.08367531 0.015219682 -0.028788809
-0.02611593 -0.059798401 0.050936799
0.07865148 0.023290532 -0.031549692
0.086592011 0.01328161 -0.032879852
-0.02611593 -0.059798401 0.050936799
0.071711026 0.01422674 -0.026582018
-0.02611593 -0.059798401 0.050936799
-0.02611593 -0.059798401 0.050936799
0.073642708 0.011274338 -0.029672638
-0.02611593 -0.059798401 0.050936799
0.068652391 0.018309187 -0.030452214
0.075574383 0.0083219428 -0.03276325
-0.02611593 -0.059798401 0.050936799
0.062693045 0.0092598945 -0.026502993
-0.02611593 -0.059798401 0.050936799
-0.02611593 -0.059798401 0.050936799
0.064632572 0.0083071534 -0.029557575
-0.02611593 -0.059798401 0.050936799
0.060638145 0.014338574 -0.030373964
0.063594393 0.0033296777 -0.030628536
-0.02611593 -0.059798401 0.050936799
0.057637777 0.0093321064 -0.029408026
-0.02611593 -0.059798401 0.050936799
-0.02611593 -0.059798401 0.050936799
0.057603344 0.0053508729 -0.030479759
-0.02611593 -0.059798401 0.050936799
0.048706453 0.0072923889 -0.025276303
0.056569092 0.001373228 -0.031532709
-0.02611593 -0.059798401 0.050936799
0.053597141 0.0083828093 -0.031350207
-0.02611593 -0.059798401 0.050936799
-0.02611593 -0.059798401 0.050936799
0.047622986 0.00035143411 -0.028382629
-0.02611593 -0.059798401 0.050936799
0.041714679 0.0042999303 -0.024199165
0.052494932 0.0014599399 -0.035456192
-0.02611593 -0.059798401 0.050936799
0.040680435 0.0003222893 -0.025252108
-0.02611593 -0.059798401 0.050936799
-0.02611593 -0.059798401 0.050936799
0.040631212 -0.0026410208 -0.027305488
-0.02611593 -0.059798401 0.050936799
0.038659066 0.0043649641 -0.02714178
0.040563256 -0.0055862456 -0.030358523
-0.02611593 -0.059798401 0.050936799
0.038591109 0.0014197393 -0.030194812
-0.02611593 -0.059798401 0.050936799
-0.02611593 -0.059798401 0.050936799
0.037542071 -0.0015399819 -0.032229394
-0.02611593 -0.059798401 0.050936799
0.033652127 0.0023832475 -0.027083863
0.032590382 -0.0085932007 -0.028262936
-0.02611593 -0.059798401 0.050936799
0.031618059 -0.0015908045 -0.028118014
-0.02611593 -0.059798401 0.050936799
-0.02611593 -0.059798401 0.050936799
0.030569009 -0.0045505259 -0.0301526
-0.02611593 -0.059798401 0.050936799
0.028645184 0.00040153449 -0.027025949
0.028534945 -0.0085245781 -0.031186759
-0.02611593 -0.059798401 0.050936799
0.027596137 -0.0025581867 -0.029060531
-0.02611593 -0.059798401 0.050936799
-0.02611593 -0.059798401 0.050936799
0.023595955 -0.0075610736 -0.028075799
-0.02611593 -0.059798401 0.050936799
0.021672126 -0.0026090099 -0.024949141
0.02447951 -0.0084559554 -0.034110583
-0.02611593 -0.059798401 0.050936799
0.022559609 -0.0025040642 -0.030965902
-0.02611593 -0.059798401 0.050936799
-0.02611593 -0.059798401 0.050936799
0.017607924 -0.0095572909 -0.026999436
-0.02611593 -0.059798401 0.050936799
0.018635228 -0.0025620647 -0.026892096
0.019476494 -0.0094378451 -0.034034647
-0.02611593 -0.059798401 0.050936799
0.016586369 -0.0055182008 -0.028907891
-0.02611593 -0.059798401 0.050936799
-0.02611593 -0.059798401 0.050936799
0.014571024 -0.0095103458 -0.028942384
-0.02611593 -0.059798401 0.050936799
0.014613312 -0.0035294546 -0.027834613
0.012536955 -0.013484394 -0.029976536
-0.02611593 -0.059798401 0.050936799
0.013534678 -0.0044533364 -0.031832479
-0.02611593 -0.059798401 0.050936799
-0.02611593 -0.059798401 0.050936799
0.010534309 -0.0094598122 -0.030866548
-0.02611593 -0.059798401 0.050936799
-0.02611593 -0.059798401 0.050936799
0.0094517507 -0.011383524 -0.034882437
-0.02611593 -0.059798401 0.050936799
0.0075949556 -0.008503478 -0.027793173
-0.02611593 -0.059798401 0.050936799
-0.02611593 -0.059798401 0.050936799
-0.02611593 -0.059798401 0.050936799
-0.02611593 -0.059798401 0.050936799
0.0085434467 -0.0024357303 -0.031702489
0.0044635311 -0.013383326 -0.033824865
-0.02611593 -0.059798401 0.050936799
0.0054947678 -0.0053882771 -0.033699509
-0.02611593 -0.059798401 0.050936799
-0.02611593 -0.059798401 0.050936799
0.0015281026 -0.011427169 -0.030733466
-0.02611593 -0.059798401 0.050936799
0.0035552303 -0.004435536 -0.03064492
0.0004455396 -0.013350882 -0.034749359
-0.02611593 -0.059798401 0.050936799
-0.02611593 -0.059798401 0.050936799
-0.02611593 -0.059798401 0.050936799
-0.02611593 -0.059798401 0.050936799
-0.02611593 -0.059798401 0.050936799
-0.02611593 -0.059798401 0.050936799
-0.02611593 -0.059798401 0.050936799
-0.02611593 -0.059798401 0.050936799
-0.02611593 -0.059798401 0.050936799
-0.02611593 -0.059798401 0.050936799
-0.02611593 -0.059798401 0.050936799
-0.02611593 -0.059798401 0.050936799
-0.02611593 -0.059798401 0.050936799
-0.02611593 -0.059798401 0.050936799
-0.02611593 -0.059798401 0.050936799
-0.0085754646 -0.014300327 -0.035597924
-0.02611593 -0.059798401 0.050936799
-0.02611593 -0.059798401 0.050936799
-0.02611593 -0.059798401 0.050936799
-0.02611593 -0.059798401 0.050936799
-0.02611593 -0.059798401 0.050936799
-0.02611593 -0.059798401 0.050936799
-0.02611593 -0.059798401 0.050936799
-0.02611593 -0.059798401 0.050936799
-0.02611593 -0.059798401 0.050936799
-0.02611593 -0.059798401 0.050936799
-0.02611593 -0.059798401 0.050936799
-0.02611593 -0.059798401 0.050936799
-0.02611593 -0.059798401 0.050936799
-0.02611593 -0.059798401 0.050936799
-0.02611593 -0.059798401 0.050936799
-0.02611593 -0.059798401 0.050936799
-0.02611593 -0.059798401 0.050936799
-0.02611593 -0.059798401 0.050936799
-0.02611593 -0.059798401 0.050936799
-0.02611593 -0.059798401 0.050936799
-0.02611593 -0.059798401 0.050936799
-0.02611593 -0.059798401 0.050936799
-0.02611593 -0.059798401 0.050936799
-0.02611593 -0.059798401 0.050936799
-0.02611593 -0.059798401 0.050936799
-0.02611593 -0.059798401 0.050936799
-0.02611593 -0.059798401 0.050936799
-0.02611593 -0.059798401 0.050936799
-0.02611593 -0.059798401 0.050936799
-0.02611593 -0.059798401 0.050936799
-0.02611593 -0.059798401 0.050936799
-0.025605872 -0.013203302 -0.037259791
-0.02611593 -0.059798401 0.050936799
-0.02611593 -0.059798401 0.050936799
-0.02611593 -0.059798401 0.050936799
-0.02611593 -0.059798401 0.050936799
-0.02611593 -0.059798401 0.050936799
-0.02611593 -0.059798401 0.050936799
-0.02611593 -0.059798401 0.050936799
-0.02611593 -0.059798401 0.050936799
-0.02611593 -0.059798401 0.050936799
-0.02611593 -0.059798401 0.050936799
-0.02611593 -0.059798401 0.050936799
-0.02611593 -0.059798401 0.050936799
-0.02611593 -0.059798401 0.050936799
-0.02611593 -0.059798401 0.050936799
-0.02611593 -0.059798401 0.050936799
-0.03260459 -0.01317818 -0.037128258
-0.02611593 -0.059798401 0.050936799
-0.02611593 -0.059798401 0.050936799
-0.02611593 -0.059798401 0.050936799
-0.02611593 -0.059798401 0.050936799
-0.02611593 -0.059798401 0.050936799
-0.02611593 -0.059798401 0.050936799
-0.02611593 -0.059798401 0.050936799
-0.02611593 -0.059798401 0.050936799
-0.02611593 -0.059798401 0.050936799
-0.02611593 -0.059798401 0.050936799
-0.02611593 -0.059798401 0.050936799
-0.02611593 -0.059798401 0.050936799
-0.02611593 -0.059798401 0.050936799
-0.02611593 -0.059798401 0.050936799
-0.02611593 -0.059798401 0.050936799
-0.02611593 -0.059798401 0.050936799
-0.02611593 -0.059798401 0.050936799
-0.02611593 -0.059798401 0.050936799
-0.02611593 -0.059798401 0.050936799
-0.02611593 -0.059798401 0.050936799
-0.02611593 -0.059798401 0.050936799
-0.02611593 -0.059798401 0.050936799
-0.02611593 -0.059798401 0.050936799
-0.045583487 -0.013149614 -0.035884313
-0.02611593 -0.059798401 0.050936799
-0.02611593 -0.059798401 0.050936799
-0.02611593 -0.059798401 0.050936799
-0.02611593 -0.059798401 0.050936799
-0.02611593 -0.059798401 0.050936799
-0.02611593 -0.059798401 0.050936799
-0.02611593 -0.059798401 0.050936799
-0.049578831 -0.012135431 -0.035791133
-0.02611593 -0.059798401 0.050936799
-0.02611593 -0.059798401 0.050936799
-0.02611593 -0.059798401 0.050936799
-0.02611593 -0.059798401 0.050936799
-0.02611593 -0.059798401 0.050936799
-0.02611593 -0.059798401 0.050936799
-0.02611593 -0.059798401 0.050936799
-0.02611593 -0.059798401 0.050936799
-0.02611593 -0.059798401 0.050936799
-0.02611593 -0.059798401 0.050936799
-0.02611593 -0.059798401 0.050936799
-0.02611593 -0.059798401 0.050936799
-0.02611593 -0.059798401 0.050936799
-0.02611593 -0.059798401 0.050936799
-0.02611593 -0.059798401 0.050936799
-0.058554534 -0.011121389 -0.034604341
-0.02611593 -0.059798401 0.050936799
-0.02611593 -0.059798401 0.050936799
-0.02611593 -0.059798401 0.050936799
-0.02611593 -0.059798401 0.050936799
-0.056476075 -0.010201093 -0.030625254
-0.02611593 -0.059798401 0.050936799
-0.02611593 -0.059798401 0.050936799
-0.061464302 -0.012200898 -0.029567681
-0.02611593 -0.059798401 0.050936799
-0.02611593 -0.059798401 0.050936799
-0.02611593 -0.059798401 0.050936799
-0.02611593 -0.059798401 0.050936799
-0.061489958 -0.0091652321 -0.031512946
-0.02611593 -0.059798401 0.050936799
-0.02611593 -0.059798401 0.050936799
-0.066492975 -0.010147114 -0.031437013
-0.02611593 -0.059798401 0.050936799
-0.02611593 -0.059798401 0.050936799
-0.02611593 -0.059798401 0.050936799
-0.02611593 -0.059798401 0.050936799
-0.065470502 -0.0091689648 -0.030438118
-0.02611593 -0.059798401 0.050936799
-0.058474798 -0.005176676 -0.031497248
-0.073554799 -0.0070501473 -0.035250068
-0.02611593 -0.059798401 0.050936799
-0.02611593 -0.059798401 0.050936799
-0.02611593 -0.059798401 0.050936799
-0.02611593 -0.059798401 0.050936799
-0.06843251 -0.0091943769 -0.028382428
-0.02611593 -0.059798401 0.050936799
-0.062470138 -0.0041624894 -0.031404063
-0.076483287 -0.0081115635 -0.031213071
-0.02611593 -0.059798401 0.050936799
-0.067424834 -0.0071983039 -0.02836518
-0.02611593 -0.059798401 0.050936799
-0.02611593 -0.059798401 0.050936799
-0.07342767 -0.0081765978 -0.028270457
-0.02611593 -0.059798401 0.050936799
-0.02611593 -0.059798401 0.050936799
-0.083507665 -0.0050507747 -0.033026807
-0.02611593 -0.059798401 0.050936799
-0.072420001 -0.006180529 -0.028253209
-0.02611593 -0.059798401 0.050936799
-0.02611593 -0.059798401 0.050936799
-0.07738556 -0.0071985936 -0.026177958
-0.02611593 -0.059798401 0.050936799
-0.070431232 -0.0041699563 -0.029254422
-0.089517437 -0.0030114949 -0.033877686
-0.02611593 -0.059798401 0.050936799
-0.075382002 -0.0062059402 -0.026197519
-0.02611593 -0.059798401 0.050936799
-0.02611593 -0.059798401 0.050936799
-0.084428668 -0.0041197115 -0.028991353
-0.02611593 -0.059798401 0.050936799
-0.074393049 -0.0041917791 -0.027179934
-0.095489763 -0.0010083888 -0.032729246
-0.02611593 -0.059798401 0.050936799
-0.081391774 -0.0041666566 -0.027048398
-0.02611593 -0.059798401 0.050936799
-0.02611593 -0.059798401 0.050936799
-0.089386381 -0.0031381184 -0.026880056
-0.02611593 -0.059798401 0.050936799
-0.07836967 -0.0031956853 -0.026087094
-0.10044748 -2.6795547e-05 -0.030617952
-0.02611593 -0.059798401 0.050936799
-0.087397613 -0.0011275457 -0.027881257
-0.02611593 -0.059798401 0.050936799
-0.02611593 -0.059798401 0.050936799
-0.099473312 0.0030052857 -0.032582011
-0.02611593 -0.059798401 0.050936799
-0.084379442 -0.0011564014 -0.026937969
-0.10845296 0.0030194968 -0.031413235
-0.02611593 -0.059798401 0.050936799
-0.092374049 -0.00012786326 -0.026769631
-0.02611593 -0.059798401 0.050936799
-0.02611593 -0.059798401 0.050936799
-0.10238309 0.0019257764 -0.027545344
-0.02611593 -0.059798401 0.050936799
-0.086312033 -0.0032212413 -0.022937782
-0.11746912 0.0080871284 -0.033153348
-0.02611593 -0.059798401 0.050936799
-0.098350301 0.00087541575 -0.02563921
-0.02611593 -0.059798401 0.050936799
-0.02611593 -0.059798401 0.050936799
-0.10634492 0.001903954 -0.025470864
-0.02611593 -0.059798401 0.050936799
-0.093317695 -0.00017854141 -0.023751855
-0.12137476 0.0080110393 -0.028079882
-0.02611593 -0.059798401 0.050936799
-0.10533723 0.0039000264 -0.025453616
-0.02611593 -0.059798401 0.050936799
-0.02611593 -0.059798401 0.050936799
-0.11736071 0.0069787558 -0.027173396
-0.02611593 -0.059798401 0.050936799
-0.1013419 0.0028858399 -0.025546797
-0.13239056 0.013085841 -0.029782411
-0.02611593 -0.059798401 0.050936799
-0.11639048 0.0090110134 -0.029155467
-0.02611593 -0.059798401 0.050936799
-0.02611593 -0.059798401 0.050936799
-0.1283765 0.012053565 -0.028875925
-0.02611593 -0.059798401 0.050936799
-0.11135788 0.0079570599 -0.027268119
-0.1433689 0.018124465 -0.029485621
-0.02611593 -0.059798401 0.050936799
-0.12335869 0.012017532 -0.027970225
-0.02611593 -0.059798401 0.050936799
-0.02611593 -0.059798401 0.050936799
-0.135326 0.015042001 -0.02669102
-0.02611593 -0.059798401 0.050936799
-0.11631559 0.0089386581 -0.02515683
-0.14828917 0.019069891 -0.025375005
-0.02611593 -0.059798401 0.050936799
-0.12931621 0.013002718 -0.025840137
-0.02611593 -0.059798401 0.050936799
-0.02611593 -0.059798401 0.050936799
-0.14126088 0.01700893 -0.023543261
-0.02611593 -0.059798401 0.050936799
-0.12834598 0.015034968 -0.027822219
-0.16530688 0.028183639 -0.027892377
-0.02611593 -0.059798401 0.050936799
-0.14433822 0.021109466 -0.028413109
-0.02611593 -0.059798401 0.050936799
-0.02611593 -0.059798401 0.050936799
-0.15929711 0.026144354 -0.02704151
-0.02611593 -0.059798401 0.050936799
-0.13731384 0.018048663 -0.026599381
-0.18027665 0.03523628 -0.027484395
-0.02611593 -0.059798401 0.050936799
-0.15328735 0.024105072 -0.02619062
-0.02611593 -0.059798401 0.050936799
-0.02611593 -0.059798401 0.050936799
-0.17327099 0.032193583 -0.026670329
-0.02611593 -0.059798401 0.050936799
-0.14729629 0.022083875 -0.026339401
-0.19520897 0.042252749 -0.025077086
-0.02611593 -0.059798401 0.050936799
-0.16827977 0.030175971 -0.02680032
-0.02611593 -0.059798401 0.050936799
-0.02611593 -0.059798401 0.050936799
-0.19324678 0.042281751 -0.027113985
-0.02611593 -0.059798401 0.050936799
-0.16027428 0.027129684 -0.026005033
-0.22019078 0.055376437 -0.026372403
-0.02611593 -0.059798401 0.050936799
-0.18725573 0.04026055 -0.027262766
-0.02611593 -0.059798401 0.050936799
-0.02611593 -0.059798401 0.050936799
-0.21320385 0.052351821 -0.026557989
-0.02611593 -0.059798401 0.050936799
-0.17221892 0.031135898 -0.023708154
-0.24512033 0.067446038 -0.024686761
-0.02611593 -0.059798401 0.050936799
-0.20924987 0.050373986 -0.028668523
-0.02611593 -0.059798401 0.050936799
-0.02611593 -0.059798401 0.050936799
-0.23514181 0.062410988 -0.024964761
-0.02611593 -0.059798401 0.050936799
-0.19522375 0.04327067 -0.026058733
-0.95659077 0.47495624 -0.2270633
-0.02611593 -0.059798401 0.050936799
-0.22715898 0.058382951 -0.025187157
-0.02611593 -0.059798401 0.050936799
-0.96321112 0.47561941 -0.2069205
-0.26507351 0.078515947 -0.024112746
-0.02611593 -0.059798401 0.050936799
-0.21818028 0.053351514 -0.025446367
-0.96881294 0.47626096 -0.18579686
-0.02611593 -0.059798401 0.050936799
-0.26413375 0.07756678 -0.027148545
-0.02611593 -0.059798401 0.050936799
-0.99246973 0.48605591 -0.16917111
-0.97811389 0.48060003 -0.20254987
-0.02611593 -0.059798401 0.050936799
-0.24512427 0.0664462 -0.024704784
-1.0040773 0.48973656 -0.14888033
-0.98070931 0.47821319 -0.18053705
-0.96332443 0.47071075 -0.21200889
-0.02611593 -0.059798401 0.050936799
-1.0126895 0.49240655 -0.12866396
-0.99734551 0.4839476 -0.16211557
-0.98096442 0.47544885 -0.19358669
-0.95660049 0.46292213 -0.22528017
-1.0333095 0.50215465 -0.11009526
-1.0119488 0.48863882 -0.14175041
-0.98555553 0.47406903 -0.17151821
-0.97121537 0.4646138 -0.20496906
-1.0368929 0.50277084 -0.088009536
-1.0235603 0.4913196 -0.12147764
-1.0031956 0.47880718 -0.15309596
-0.98083913 0.46428794 -0.18478793
-1.0534689 0.50945079 -0.066571087
-1.036145 0.49598554 -0.1001504
-1.0178027 0.48249859 -0.13274881
-0.99343574 0.46595436 -0.16351473
-1.0610437 0.51208091 -0.04437416
-1.0467194 0.49862647 -0.077897102
-1.0263853 0.48313275 -0.11056915
-0.99903059 0.46357828 -0.14144549
-1.0786121 0.52076417 -0.022880882
-1.066306 0.50733489 -0.057365887
-1.0389553 0.48678073 -0.088260248
-1.0206245 0.4702943 -0.12091274
-1.0941845 0.52844042 -0.0014431924
-1.073866 0.50894731 -0.034187332
-1.0435463 0.48540083 -0.06619177
-1.0332173 0.47296056 -0.099621534
-1.1137257 0.53911233 0.021123353
-1.087428 0.51459855 -0.011823617
-1.0751072 0.5001514 -0.045326978
-1.046791 0.47561231 -0.077311859
-1.1252506 0.54472023 0.045448817
-1.1019859 0.52125317 0.010576926
-1.0846668 0.50177091 -0.022110827
-1.0563507 0.47723186 -0.054095708
-1.1427774 0.55436713 0.068959437
-1.1195018 0.52888232 0.035051167
-1.1032013 0.50942171 0.0013825446
-1.0748931 0.48288295 -0.030638382
-1.2331151 0.60425109 0.095562167
-1.1340222 0.53550082 0.059451025
-1.1127384 0.51202285 0.025616366
-1.089444 0.48652008 -0.0072922334
-1.3133806 0.64900953 0.12688521
-1.1505383 0.54312634 0.083906472
-1.1282438 0.51762706 0.051016666
-0.02611593 -0.059798401 0.050936799
-1.3058695 0.64547843 0.15469012
-1.1730191 0.55475461 0.10954641
-1.1497364 0.52625233 0.076583751
-1.1254687 0.49876428 0.04262064
-1.3103286 0.64898914 0.18284667
-1.2542882 0.59851676 0.14087021
-1.1612464 0.53084224 0.10189085
-0.02611593 -0.059798401 0.050936799
-1.3038321 0.64647955 0.20968872
-1.3454424 0.64722365 0.17747033
-1.1807206 0.53944218 0.12842003
-1.1584418 0.5099436 0.09545812
-1.3032999 0.6479727 0.23771527
-1.3438995 0.64669544 0.2064417
-1.1981578 0.54799879 0.15691093
-1.1779013 0.51752561 0.12296893
-1.2938079 0.64445251 0.26448298
-1.3503022 0.65015918 0.23763481
-1.2544343 0.57661951 0.19049367
-1.1993189 0.52607852 0.15253466
-1.2972444 0.64894146 0.29363841
-1.3407766 0.64560294 0.2663838
-1.3803507 0.64128643 0.23703671
-1.218737 0.53462416 0.1820628
-1.2857715 0.64543223 0.31936881
-1.3461754 0.65006286 0.29757613
-1.3887343 0.64473921 0.26926705
-1.235126 0.54112315 0.21349786
-1.2802669 0.64492589 0.34626573
-1.3376456 0.64651012 0.32636192
-1.3901083 0.64614916 0.30232948
-1.2654475 0.55463511 0.24732144
-1.2667981 0.64040953 0.37194055
-1.3390719 0.64897406 0.35644338
-1.3855325 0.64457417 0.33322579
-1.3663671 0.60516042 0.29614145
-1.267258 0.643906 0.40002194
-1.3205972 0.64142227 0.38296986
-1.3799419 0.64197773 0.36508495
-1.4383551 0.63958436 0.34412822
-1.2498354 0.63741183 0.42358628
-1.3220006 0.64486802 0.41406903
-1.3286525 0.61741889 0.38468707
-1.4496328 0.64595693 0.38146728
-1.2472997 0.63989764 0.45159322
-1.3065175 0.63932657 0.44068792
-1.3747368 0.64280528 0.42902416
-1.4241227 0.63332659 0.41077116
-1.2338458 0.63639927 0.47628641
-1.3079212 0.64277238 0.47178707
-1.3671466 0.64020169 0.46084574
-1.4462811 0.64564717 0.45342332
-1.2263563 0.6369037 0.50216413
-1.2884613 0.63623494 0.49731311
-1.3575718 0.63860881 0.49164808
-1.4426265 0.64500332 0.4883551
-1.2188482 0.63738996 0.52904141
-1.2898422 0.64066231 0.52942997
-1.3529696 0.63901544 0.52358007
-1.4339805 0.64234179 0.52315688
-1.2083819 0.6369018 0.55384505
-1.271397 0.63514638 0.55399317
-1.3443757 0.63740802 0.55540091
-1.4273262 0.64168715 0.55803227
-1.1978971 0.63639563 0.57964832
-1.2698013 0.63858134 0.58503592
-1.334801 0.63581514 0.58620328
-1.4196762 0.64002907 0.59287089
-1.1884079 0.63689286 0.60548842
-1.2523557 0.63306904 0.60961795
-1.3271992 0.63621098 0.61807883
-1.4080493 0.63737494 0.6266166
-1.1710148 0.63243461 0.62708944
-1.2487376 0.63747847 0.64164078
-1.3146288 0.63360751 0.64880687
-1.3993807 0.63569516 0.66243607
-1.1605448 0.63294631 0.65191108
-1.2283114 0.63197351 0.6651668
-1.3030543 0.63200748 0.67957169
-1.3887272 0.63502616 0.69723624
-1.1471056 0.63046587 0.6756227
-1.2227201 0.63439423 0.69611639
-1.2954299 0.63338506 0.71246499
-1.3780738 0.63435715 0.73203653
-1.1366128 0.63195932 0.70146197
-1.2023129 0.6289072 0.71864271
-1.2828517 0.63278121 0.74322903
-1.3683975 0.63467348 0.76787323
-1.1192346 0.62851888 0.72208136
-1.1976949 0.63331318 0.75064677
-1.2682966 0.63118851 0.77293772
-1.3537713 0.63200855 0.80156261
-1.1087418 0.63001245 0.74792063
-1.1733336 0.62584841 0.77106249
-1.2557184 0.63058466 0.80370176
-1.3440725 0.63330662 0.83841699
-1.0903636 0.62656838 0.76852131
-1.1618074 0.62630218 0.79886436
-1.2391862 0.628003 0.8323552
-1.3254844 0.63066351 0.87003189
-1.0808479 0.62904721 0.7953971
-1.1492589 0.62773424 0.82766503
-1.224627 0.62741005 0.862082
-1.3137897 0.63095456 0.90683061
-1.0605077 0.62563223 0.81396079
-1.1308206 0.62523586 0.85128272
-1.2100453 0.62779891 0.89282638
-1.2961789 0.62929678 0.93948203
-1.0559232 0.63107419 0.84398353
-1.1163177 0.62469721 0.87801051
-1.1905323 0.62522453 0.92042387
-1.2795453 0.62862432 0.9731698
-1.0306517 0.62469608 0.85940027
-1.1018069 0.62615824 0.90477431
-1.1729926 0.62463892 0.94909465
-1.2579767 0.62598854 1.0037286
-1.016201 0.62521148 0.88314712
-1.0784376 0.6206966 0.92524487
-1.1544569 0.62304991 0.97772855
-1.2393621 0.62532705 1.0363792
-0.99487966 0.62181109 0.90069228
-1.0639042 0.62313938 0.95302641
-1.1359358 0.62247884 1.0053809
-1.2158124 0.62270212 1.0659009
-0.98140609 0.62331182 0.9254756
-1.045462 0.6216408 0.97666204
-1.1144421 0.61991543 1.0319411
-1.1991336 0.62399316 1.1016241
-0.96205777 0.62190008 0.94409406
-1.0250391 0.62015319 0.99926043
-1.0919632 0.6183663 1.0575008
-1.1745842 0.62136465 1.1311269
-0.94858027 0.62440073 0.96889544
-1.0045972 0.61864746 1.0228584
-1.0694845 0.61681724 1.0830606
-1.1500534 0.61875433 1.1596301
-0.92430478 0.61902601 0.98434889
-0.98419285 0.6171779 1.0444571
-1.0470283 0.61428636 1.1076027
-1.1235605 0.61617297 1.1860963
-0.91178185 0.62349367 1.0112044
-0.96572423 0.61766088 1.0691284
-1.0294392 0.61666411 1.1383268
-1.1009654 0.61551511 1.217672
-0.88460833 0.61619896 1.0215672
-0.94234312 0.61519879 1.089653
-1.0049794 0.61512589 1.1628493
-1.0754271 0.61490083 1.2461925
-0.87401706 0.62361914 1.0515132
-0.92189348 0.61569273 1.1132872
-0.98445487 0.61554742 1.190482
-1.04987 0.61426842 1.2757125
-0.84586638 0.61533904 1.0608395
-0.89853108 0.61324871 1.1328121
-0.96290797 0.61694717 1.2191137
-1.0213963 0.61169791 1.3011415
-0.83136249 0.61981761 1.0866578
-0.87514609 0.61178648 1.1533549
-0.93452781 0.61446714 1.2395444
-0.99483526 0.61206186 1.3306608
-0.80516225 0.61450809 1.098075
-0.85080254 0.609357 1.1718615
-0.90908688 0.61294341 1.2630484
-0.97121382 0.61338204 1.3632535
-0.78872275 0.61703414 1.1208208
-0.82934928 0.61084712 1.1954947
-0.88751733 0.61532491 1.2926978
-0.93879688 0.61085141 1.3856083
-0.76443541 0.61465889 1.1363282
-0.80499786 0.61041731 1.2140373
-0.85815597 0.61285937 1.3121101
-0.90739852 0.60834259 1.4069824
-0.74601501 0.6171959 1.1580366
-0.78452563 0.61189294 1.2386891
-0.82977188 0.61137921 1.3325586
-0.87594014 0.60677928 1.4313734
-0.72081065 0.61288971 1.1694908
-0.75723886 0.60950696 1.2541404
-0.80138779 0.60989898 1.3530074
-0.84643596 0.60718662 1.4578373
-0.70232624 0.61737204 1.1942343
-0.73284614 0.61004078 1.2747002
-0.77491665 0.61135316 1.3775464
-0.81399637 0.60563779 1.4812099
-0.67616343 0.61209869 1.2036521
-0.7055406 0.60763669 1.2911512
-0.74457031 0.60990196 1.3959583
-0.77871495 0.60222328 1.4964929
-0.65767509 0.61758083 1.2284135
-0.67924976 0.60625416 1.306639
-0.71328425 0.60750163 1.4113344
-0.74720722 0.60362321 1.5229371
-0.62763709 0.60940224 1.2317042
-0.6519177 0.60583162 1.3241255
-0.68489617 0.60702127 1.4318011
-0.71382409 0.60212511 1.5432919
-0.60623604 0.61194646 1.2523566
-0.62753981 0.60738343 1.343704
-0.6535688 0.60558456 1.4491944
-0.67847478 0.60165584 1.5616277
-0.57906556 0.60866922 1.2617918
-0.5992493 0.60599363 1.3591543
-0.62221873 0.60512966 1.4676056
-0.64314812 0.60020477 1.578946
-0.55672467 0.61026424 1.2794083
-0.57095486 0.60560369 1.3746227
-0.59086865 0.6046747 1.4860165
-0.60682154 0.59875017 1.5962454
-0.53147107 0.60892153 1.2929159
-0.54268306 0.60423207 1.3890736
-0.55861628 0.60330671 1.4993925
-0.57147229 0.59828085 1.6145813
-0.50808901 0.61147666 1.312531
-0.51344883 0.60289305 1.4015062
-0.52440572 0.600968 1.5107135
-0.53418338 0.59685874 1.6298627
-0.47810325 0.60435206 1.3128408
-0.48421472 0.60155398 1.4139389
-0.49302912 0.60249454 1.5301602
-0.49789044 0.5964402 1.6451807
-0.45567572 0.60887432 1.33451
-0.45399946 0.60022944 1.4253531
-0.45789751 0.59922481 1.5374458
-0.45872211 0.59311986 1.6543905
-0.42569 0.60174972 1.3348198
-0.42661819 0.60277021 1.4448929
-0.42556244 0.5997842 1.5548564
-0.42325956 0.59755921 1.6778147
-0.40315711 0.60918105 1.3615415
-0.39262927 0.59663117 1.4451456
-0.39230633 0.5994125 1.5682316
-0.38592541 0.59810066 1.6951314
-0.3722277 0.60210717 1.3588334
-0.36610097 0.60304815 1.471774
-0.35708806 0.59906983 1.5795698
-0.34677184 0.59579825 1.7033595
-0.34875903 0.60758942 1.3825012
-0.33591926 0.60275966 1.4812069
-0.32290706 0.59876692 1.5889276
-0.30759177 0.5954774 1.7126234
-0.31784832 0.60053366 1.3787936
-0.3028661 0.59856957 1.4845134
-0.28673035 0.59745705 1.5982296
-0.26745716 0.59318936 1.7198328
-0.29239872 0.60602683 1.4014241
-0.27162445 0.59922296 1.4969445
-0.25069648 0.59327418 1.6004802
-0.2273147 0.59290117 1.7270786
-0.26338229 0.60188729 1.4028066
-0.23948054 0.59896344 1.5043406
-0.21730453 0.59879291 1.6199614
-0.18817598 0.59161669 1.7343251
-0.23697031 0.60741311 1.4234189
-0.2082389 0.59961683 1.5167717
-0.18022554 0.59657007 1.6242285
-0.14807096 0.59136456 1.7395715
-0.20516129 0.59844446 1.4146583
-0.17613634 0.59839362 1.5221503
-0.14422518 0.59342325 1.6244977
-0.10700752 0.59014523 1.7427815
-0.17868528 0.60591561 1.4383056
-0.1430527 0.5971849 1.5265104
-0.10804061 0.59411299 1.6338358
-0.066861123 0.59085679 1.7500453
-0.14785346 0.59793234 1.4305813
-0.11084475 0.59887075 1.5369415
-0.070935041 0.59387165 1.6391385
-0.026853651 0.58969527 1.7502754
-0.11868631 0.59866536 1.4390514
-0.077843845 0.59573466 1.537267
-0.034908116 0.5927065 1.6404434
0.01317255 0.58851582 1.751505
-0.088560745 0.59843105 1.4454854
-0.043719001 0.59548604 1.5436257
0.0021186303 0.59153771 1.6417294
0.054161116 0.58736879 1.7507166
-0.058517933 0.59626943 1.4478844
-0.010691527 0.59433162 1.544987
0.038228311 0.59229976 1.647069
0.094149873 0.58622545 1.7499468
-0.028347056 0.59799868 1.4563539
0.022396049 0.59412271 1.5493652
0.075176232 0.59020352 1.6443383
0.13508227 0.58513266 1.7461596
0.0016770419 0.59585512 1.4577534
0.055367358 0.59302258 1.5477273
0.11222956 0.59101629 1.64666
-0.02611593 -0.059798401 0.050936799
0.030806722 0.5966242 1.4642241
0.089394659 0.59186459 1.5490699
0.11730702 0.47124392 1.3542993
-0.02611593 -0.059798401 0.050936799
0.061793193 0.5945133 1.4636055
0.12356872 0.59457916 1.557482
0.13657036 0.43671221 1.2682848
0.25697026 0.58578509 1.7388867
0.0927836 0.59340227 1.4630049
-0.02611593 -0.059798401 0.050936799
0.22526899 0.59155631 1.6475537
0.27559522 0.541834 1.620703
0.10162913 0.49800828 1.2600451
0.1936761 0.59621918 1.5622007
0.26112348 0.58955407 1.6398436
0.33666694 0.58376968 1.7223526
0.13941243 0.53729844 1.3470778
0.22654988 0.59420949 1.5555465
0.28131175 0.55509114 1.5498117
0.37762982 0.58565843 1.7196189
0.18926945 0.60160398 1.4863549
0.25699157 0.58258867 1.527757
0.33700117 0.59038967 1.6324356
0.41749147 0.58564144 1.7118695
0.2189517 0.59376901 1.4706521
0.29543579 0.5920527 1.5492157
0.37285963 0.5893873 1.6247435
0.45621043 0.58275527 1.6970875
0.25206584 0.59554166 1.476066
0.32933202 0.5910213 1.5435604
0.41071764 0.58837765 1.6170138
0.49609861 0.58471984 1.6903739
0.28295872 0.59352124 1.4704491
0.36429214 0.5919317 1.5409214
0.44651991 0.58742958 1.6063228
0.53592283 0.58473909 1.6806254
0.31489274 0.59246087 1.4668307
0.39812824 0.58995467 1.5322493
0.48342344 0.58838701 1.6006472
0.57361233 0.58389235 1.6638987
0.35109696 0.59814972 1.4762591
0.43412954 0.59182519 1.5316088
0.519207 0.587457 1.5889564
0.60713714 0.57920527 1.6391779
0.3829709 0.59614372 1.4696238
0.46795085 0.59086615 1.521955
0.55597162 0.58654135 1.5762472
0.39285713 0.33891702 1.033638
0.41382632 0.59415942 1.4620075
0.50283211 0.59084904 1.5152994
-0.02611593 -0.059798401 0.050936799
0.59675729 0.50216591 1.4209046
0.4467454 0.59411335 1.4573889
0.5345524 0.5879879 1.5006487
0.40723452 0.36860844 1.0479107
0.72031116 0.57957393 1.5940503
0.48068297 0.59404558 1.4537511
-0.02611593 -0.059798401 0.050936799
0.58382124 0.51214808 1.3693099
0.75806874 0.58167243 1.5803767
0.51252341 0.59307563 1.4451344
0.45110708 0.43087307 1.1352452
0.69596046 0.58397651 1.5215613
0.79266125 0.57992703 1.5586902
-0.02611593 -0.059798401 0.050936799
0.58993798 0.54212147 1.3697377
0.73069584 0.58510399 1.5069263
0.83038133 0.58206165 1.5430173
0.43243337 0.43560624 1.098668
0.67287558 0.58912206 1.4630668
0.76332623 0.58332962 1.4872768
0.8650192 0.58227968 1.523366
0.58805919 0.56810611 1.3712435
0.70768589 0.59017718 1.4524305
0.80112118 0.58539188 1.4756024
0.89753723 0.58061379 1.4977183
0.64183259 0.59024268 1.4076494
0.73831266 0.58741009 1.4328003
0.83379686 0.58558095 1.4579881
0.9311378 0.58087164 1.4760866
0.67567664 0.59026539 1.3990133
0.77104056 0.58654511 1.418167
0.86643124 0.58480632 1.4383564
0.96371996 0.58115119 1.4534739
0.70642358 0.58938944 1.3854172
0.80583614 0.5886181 1.4065491
0.90111041 0.58598804 1.4207226
0.99526465 0.58147049 1.4288807
0.74131274 0.59137201 1.3787977
0.83748537 0.58682925 1.3879179
0.92964393 0.58331865 1.3961316
1.0278281 0.5817681 1.4052685
0.77616042 0.59239101 1.3701607
0.87226212 0.5889203 1.3753004
0.96226352 0.58356202 1.3755183
1.0593541 0.58210552 1.3796757
0.80682868 0.59058756 1.3525478
0.90289682 0.58815295 1.3557062
0.99488688 0.58480513 1.3549231
1.0878394 0.58149004 1.3521218
0.83855671 0.58972609 1.3379333
0.93453133 0.58738196 1.3360934
1.022387 0.5831753 1.3283697
1.1183469 0.5818491 1.3255483
0.87232977 0.59082103 1.3253165
0.96414745 0.58663625 1.3155185
1.0560517 0.58537859 1.309773
1.1468587 0.58321512 1.2990302
0.90506554 0.59195566 1.3107193
0.9958272 0.58782876 1.2979409
1.085593 0.58470523 1.2851994
1.1732843 0.58166122 1.268497
0.93467385 0.58921027 1.2901081
1.0253832 0.58613741 1.2743489
1.1141156 0.58405352 1.259645
1.2007549 0.58206719 1.2399802
0.9673869 0.58936322 1.2744932
1.0549846 0.58640963 1.2527924
1.1426424 0.58440167 1.2341084
1.2302705 0.58442956 1.2134614
0.99700308 0.58861744 1.2539183
1.0855857 0.58667833 1.231217
1.1691279 0.5837934 1.2065923
1.2546629 0.58391887 1.1809844
1.0307425 0.59074831 1.2393202
1.1131272 0.58601213 1.2066809
1.1956174 0.58418489 1.1790942
1.28316 0.58630282 1.1534847
1.062381 0.59097713 1.2197254
1.1457508 0.5872553 1.1860856
1.2272116 0.58746743 1.1565542
1.3085935 0.58675224 1.1230063
1.0940007 0.59122413 1.1991308
1.1712554 0.58663243 1.1595879
1.2526599 0.58689892 1.1270577
1.3289678 0.58627391 1.0896049
1.1205386 0.58956176 1.1745955
1.203864 0.58889353 1.138011
1.2781268 0.58631223 1.0985603
1.3544053 0.58772314 1.0591444
1.1531807 0.59078681 1.1549999
1.2273086 0.58733237 1.1085337
1.3025795 0.58674711 1.0691006
1.3768059 0.58921927 1.0267411
1.1806997 0.58913887 1.1294461
1.253813 0.58670586 1.0820172
1.3290581 0.58915639 1.0406387
1.3961617 0.5887627 0.9923588
1.2112821 0.58942556 1.1068712
1.2853844 0.58900678 1.0584596
1.3514695 0.58863479 1.009199
1.4134991 0.58833134 0.95701444
1.24085 0.59073383 1.0833333
1.3098369 0.5894416 1.0289998
1.3749036 0.5890913 0.97875822
1.4338776 0.58885294 0.92363107
1.2632684 0.58719456 1.0528392
1.3383487 0.59080768 1.0024817
1.3953005 0.58959484 0.94637448
1.4502192 0.58942503 0.88832349
1.298903 0.59142655 1.0322416
1.3607789 0.59026796 0.97204167
1.4146525 0.5881384 0.91197413
1.4685792 0.5899719 0.85397798
1.3223438 0.58886546 1.0027463
1.3821868 0.58875012 0.94060272
1.4350533 0.58964169 0.87960839
1.4889654 0.59249312 0.82063061
1.3518595 0.59122777 0.97622746
1.4056019 0.5892247 0.90916228
1.4574727 0.59111977 0.84820473
1.5012664 0.59211594 0.78338087
1.3773038 0.58965945 0.94671273
1.4371476 0.59456134 0.88365954
1.4748288 0.59067029 0.81386
1.5186265 0.59266639 0.74905413
1.4047784 0.59106523 0.91821408
1.4534774 0.59213388 0.84829789
1.4941885 0.59121352 0.77949572
1.5339533 0.59425992 0.71278369
1.4322531 0.59247106 0.88971537
1.4768739 0.59262663 0.81585777
1.5155935 0.5937131 0.7471292
1.5442548 0.59388995 0.67557156
1.4607086 0.59389144 0.86019832
1.500293 0.59410107 0.78443539
1.5278945 0.59333599 0.70987946
1.5626265 0.59743631 0.64128006
1.4851236 0.59436244 0.82873911
1.5196527 0.59464431 0.75007105
1.5492991 0.59583545 0.67751294
1.5709094 0.5970915 0.60310584
1.5064752 0.59289885 0.79430121
1.540035 0.59616572 0.71670568
1.5646222 0.59642929 0.6412245
1.5802147 0.59772491 0.56593043
1.5298716 0.5933916 0.76186109
