# .PCD v0.7 - Point Cloud Data file format
VERSION 0.7
FIELDS x y z
SIZE 4 4 4
TYPE F F F
COUNT 1 1 1
WIDTH 1389
HEIGHT 1
VIEWPOINT 0 0 0 1 0 0 0
POINTS 1389
DATA ascii
-0.10158175 -0.039034661 -0.030302212
-0.11758275 -0.039977066 -0.030019585
-0.11663517 -0.03892656 -0.033019349
-0.02611593 -0.059798401 0.050936799
-0.02611593 -0.059798401 0.050936799
-0.02611593 -0.059798401 0.050936799
-0.02611593 -0.059798401 0.050936799
-0.11359828 -0.038973503 -0.031076394
-0.11266942 -0.037904911 -0.03507581
-0.12759571 -0.038923264 -0.030813325
-0.12462978 -0.037898019 -0.032851003
-0.02611593 -0.059798401 0.050936799
-0.02611593 -0.059798401 0.050936799
-0.02611593 -0.059798401 0.050936799
-0.02611593 -0.059798401 0.050936799
-0.1225927 -0.037941374 -0.030889258
-0.1165938 -0.037962906 -0.031002004
-0.13860457 -0.036866032 -0.031570259
-0.13462402 -0.036862299 -0.03264508
-0.02611593 -0.059798401 0.050936799
-0.02611593 -0.059798401 0.050936799
-0.02611593 -0.059798401 0.050936799
-0.02611593 -0.059798401 0.050936799
-0.13463882 -0.035844382 -0.03362672
-0.12862511 -0.036883831 -0.032757822
-0.14959863 -0.035826728 -0.031345543
-0.14461826 -0.035826582 -0.032439154
-0.02611593 -0.059798401 0.050936799
-0.02611593 -0.059798401 0.050936799
-0.02611593 -0.059798401 0.050936799
-0.02611593 -0.059798401 0.050936799
-0.13854447 -0.035920471 -0.028553255
-0.13560119 -0.035876974 -0.031608611
-0.15753706 -0.034852453 -0.028178219
-0.1525567 -0.034852307 -0.029271822
-0.02611593 -0.059798401 0.050936799
-0.02611593 -0.059798401 0.050936799
-0.02611593 -0.059798401 0.050936799
-0.02611593 -0.059798401 0.050936799
-0.1475241 -0.035906263 -0.027384471
-0.1445621 -0.035880849 -0.029440161
-0.17757779 -0.031726915 -0.030747335
-0.166565 -0.032784313 -0.029972382
-0.02611593 -0.059798401 0.050936799
-0.02611593 -0.059798401 0.050936799
-0.02611593 -0.059798401 0.050936799
-0.02611593 -0.059798401 0.050936799
-0.16151367 -0.033856355 -0.027085371
-0.15251926 -0.034888487 -0.027272504
-0.19051138 -0.029734865 -0.027468037
-0.18658699 -0.029676864 -0.031541843
-0.02611593 -0.059798401 0.050936799
-0.02611593 -0.059798401 0.050936799
-0.02611593 -0.059798401 0.050936799
-0.02611593 -0.059798401 0.050936799
-0.17650308 -0.031802863 -0.026767474
-0.16349459 -0.03386727 -0.026048128
-0.21956132 -0.02455928 -0.030831665
-0.20457585 -0.027612606 -0.031167574
-0.02611593 -0.059798401 0.050936799
-0.02611593 -0.059798401 0.050936799
-0.02611593 -0.059798401 0.050936799
-0.02611593 -0.059798401 0.050936799
-0.19551046 -0.02971692 -0.027374085
-0.1825207 -0.031763237 -0.027654398
-0.24755922 -0.020441385 -0.03123311
-0.23458818 -0.022469612 -0.032513086
-0.02611593 -0.059798401 0.050936799
-0.02611593 -0.059798401 0.050936799
-0.02611593 -0.059798401 0.050936799
-0.02611593 -0.059798401 0.050936799
-0.22053155 -0.026591532 -0.028849583
-0.20352773 -0.029670119 -0.028223414
-0.26343608 -0.018492833 -0.024898458
-0.25853458 -0.019420167 -0.030008741
-0.02611593 -0.059798401 0.050936799
-0.02611593 -0.059798401 0.050936799
-0.02611593 -0.059798401 0.050936799
-0.02611593 -0.059798401 0.050936799
-0.2475109 -0.022495313 -0.028270163
-0.23052973 -0.026555642 -0.028661676
-0.97147578 0.10552656 -0.2034592
-0.96400249 0.10098708 -0.23069045
-0.02611593 -0.059798401 0.050936799
-0.02611593 -0.059798401 0.050936799
-0.98109555 0.1062005 -0.18326005
-0.97262633 0.10065761 -0.21052814
-0.93397629 0.089808956 -0.22745374
-0.26554507 -0.022394532 -0.029931262
-0.99872482 0.10892089 -0.16387421
-0.98624539 0.1013459 -0.19025382
-0.96974802 0.093738481 -0.21570893
-0.02611593 -0.059798401 0.050936799
-1.0053116 0.10854806 -0.14175013
-0.99385077 0.10099475 -0.16911061
-0.98237115 0.093423359 -0.19547144
-0.9628861 0.082805693 -0.22103697
-1.0189267 0.11023618 -0.12145782
-1.0054703 0.10167588 -0.1488739
-1.0020266 0.094169363 -0.1770837
-0.975528 0.082508653 -0.20179912
-1.0244911 0.11084149 -0.098334841
-1.0220847 0.10337476 -0.12852518
-0.99958551 0.091728389 -0.15316546
-0.99016953 0.082218796 -0.18252374
-1.045101 0.11355457 -0.077892952
-1.0306712 0.1030091 -0.10636353
-1.0122046 0.09241309 -0.13290992
-1.0037965 0.080907419 -0.16228545
-1.0626926 0.11623879 -0.056507781
-1.0442489 0.10466105 -0.084071882
-1.0308229 0.093119331 -0.11254168
-1.0144051 0.079567209 -0.14110389
-1.0812656 0.11890851 -0.034104168
-1.0598489 0.10533842 -0.062760338
-1.0394093 0.092753679 -0.090380028
-1.0280094 0.079237573 -0.11984794
-1.0898255 0.12052442 -0.010906816
-1.0794215 0.10801173 -0.040337913
-1.0590085 0.093445413 -0.068993308
-1.0285678 0.07680735 -0.095873311
-1.1033846 0.12215828 0.0123845
-1.0929844 0.10864577 -0.017064631
-1.0785851 0.095118903 -0.046588913
-1.0461673 0.077491924 -0.074524194
-1.1149063 0.12374878 0.037637547
-1.1075432 0.11028321 0.0062454641
-1.096166 0.095785365 -0.024240121
-1.0687699 0.077194601 -0.053099118
-1.1294425 0.12636796 0.061965331
-1.1250827 0.11191332 0.030611608
-1.0987012 0.094344087 0.00078976154
-1.0833514 0.077850312 -0.030806698
-1.1459782 0.12899435 0.086330689
-1.1406038 0.11351819 0.05593982
-1.1222584 0.096013822 0.02426897
-1.0909046 0.076445051 -0.0066825226
-1.1425108 0.12853134 0.11126584
-1.137159 0.11207346 0.07985729
-1.134784 0.096608073 0.049522795
-1.1034567 0.07505773 0.017535601
-1.1819515 0.13516721 0.14013411
-1.1616518 0.11569218 0.10639032
-1.1423144 0.096184552 0.074664645
-1.1249807 0.075684294 0.042958535
-0.02611593 -0.059798401 0.050936799
-1.1711593 0.11625758 0.13258743
-1.1548401 0.096778817 0.09991847
-1.1485043 0.07631804 0.068419062
-1.1859694 0.13624418 0.19224647
-1.1896238 0.11781894 0.16097102
-1.1703278 0.097347684 0.12722798
-1.1630335 0.075919643 0.093692437
-1.2103834 0.14079037 0.22279616
-1.1941136 0.1183483 0.18807381
-1.1838157 0.097909339 0.15449992
-1.1735259 0.075470723 0.12088998
-0.02611593 -0.059798401 0.050936799
-1.2065791 0.11988814 0.21634465
-1.1952895 0.09744592 0.18271592
-0.02611593 -0.059798401 0.050936799
-1.2571745 0.14983943 0.28585726
-1.2200068 0.12139538 0.24663359
-1.2067591 0.097982325 0.21094994
-1.2074672 0.075583167 0.17754668
-1.2715571 0.15331373 0.31820035
-0.02611593 -0.059798401 0.050936799
-1.2032393 0.09646523 0.23886606
-0.02611593 -0.059798401 0.050936799
-0.02611593 -0.059798401 0.050936799
-1.2747256 0.12940092 0.31382564
-1.2405761 0.10098572 0.27365866
-1.2213825 0.073588014 0.23579088
-0.02611593 -0.059798401 0.050936799
-1.3040453 0.13387464 0.34946758
-1.2629462 0.10247099 0.3071157
-0.02611593 -0.059798401 0.050936799
-1.3365198 0.16665229 0.42469403
-1.3402698 0.13828301 0.39023936
-0.02611593 -0.059798401 0.050936799
-0.02611593 -0.059798401 0.050936799
-3.1018445 0.47419068 1.0045052
-1.3396667 0.138704 0.42224655
-1.3006315 0.10536214 0.37689722
-0.02611593 -0.059798401 0.050936799
-3.1044052 0.47682965 1.0806267
-3.1012466 0.4053255 0.9962455
-0.02611593 -0.059798401 0.050936799
-1.3048047 0.075435869 0.37343284
-3.172457 0.49126923 1.1821965
-3.1018343 0.4059757 1.0712937
-3.1046104 0.33643845 0.99006033
-1.3310806 0.076845035 0.41196334
-3.2354727 0.50565475 1.2856716
-3.1629217 0.4164089 1.1716602
-3.0922348 0.33306068 1.0637926
-3.1109867 0.25954545 0.98478699
-3.3073289 0.52192736 1.3973491
-3.2398303 0.42873642 1.2813603
-3.164258 0.34046161 1.1683103
-3.0916393 0.254161 1.0573519
-3.3780918 0.53810614 1.5140063
-3.3007498 0.43900689 1.3907237
-3.2371824 0.34877548 1.2778631
-3.1646214 0.25751191 1.1648154
-3.4586387 0.55612135 1.6418835
-3.3833911 0.45210248 1.5145499
-3.3020608 0.35500666 1.3902285
-3.2424858 0.26177201 1.2783887
-3.9461386 0.6490531 1.9748046
-3.467912 0.46709651 1.6444476
-3.3856578 0.36505216 1.5170184
-3.3023956 0.26500389 1.3896067
-3.9005408 0.64633971 2.0599308
-4.9637671 0.69906491 2.4739313
-3.4711604 0.37501433 1.6488441
-3.390955 0.2700139 1.5193994
-3.852999 0.64367342 2.1420202
-4.917592 0.6947909 2.5900288
-4.793767 0.5417769 2.3958766
-3.473459 0.27494809 1.6520782
-3.4889946 0.58199841 2.0440562
-4.5993142 0.64912403 2.5572324
-4.6802845 0.52687579 2.4765096
-4.7822375 0.39866775 2.398073
-3.7706995 0.6401881 2.3174758
-3.4516315 0.47407943 2.0303998
-4.5738344 0.51303577 2.5552931
-4.6588163 0.38278514 2.4755011
-3.7260973 0.63847816 2.4026387
-4.641614 0.66286635 2.8583751
-3.4448504 0.37089092 2.038409
-4.5898981 0.37164688 2.5790443
-3.114836 0.52929348 2.1121206
-4.534194 0.65105867 2.9351764
-3.3084326 0.35391712 2.0625563
-3.4360969 0.26069644 2.0462544
-3.6170769 0.6321497 2.5635374
-3.1238039 0.43194437 2.1325345
-3.2728925 0.35029408 2.1448531
-4.6309805 0.36911699 2.8948748
-2.6042902 0.44237614 1.9399312
-4.3096809 0.62571502 3.0715606
-3.2323949 0.34568939 2.2250385
-3.3371618 0.24645951 2.2041981
-2.8016424 0.48782369 2.1805298
-3.0637209 0.42975491 2.2964256
-3.2658856 0.35142946 2.3578146
-4.3824048 0.34161529 3.0347707
-3.4594841 0.62613273 2.8075607
-2.5917313 0.35652393 2.0391767
-4.178647 0.46866488 3.1552949
-3.256927 0.23601879 2.3775659
-3.4138219 0.62536472 2.8957217
-2.4344232 0.33552122 2.0048399
-2.756114 0.28838497 2.1930742
-4.1607189 0.31711954 3.1802263
-2.3534226 0.41759539 2.0948386
-2.3992348 0.33324164 2.0681615
-3.9779081 0.44720784 3.3031986
-4.0513926 0.30539504 3.2519917
-1.8810844 0.32588011 1.7532203
-2.3266766 0.32540557 2.0986714
-2.3940909 0.2457682 2.0924911
-3.9430995 0.29471013 3.3217945
-1.8315475 0.32116225 1.7822174
-1.8602518 0.25069085 1.7584721
-1.8958306 0.18313554 1.7409101
-2.3810093 0.15230319 2.114563
-1.8752444 0.33617184 1.9023477
-1.8155977 0.24688224 1.7935789
-1.8422984 0.17740352 1.7698139
-1.8778703 0.10683062 1.7531978
-2.0383482 0.37924454 2.1562667
-1.9612093 0.27632686 2.0229156
-1.8702208 0.18353808 1.8794849
-1.8242966 0.10206223 1.7841189
-2.2490668 0.43320671 2.4822986
-2.1388471 0.31298408 2.3029995
-2.0441275 0.20939991 2.1472995
-1.9522445 0.11369854 1.9987978
-3.2586935 0.67047977 3.743921
-3.3254373 0.53093946 3.7316425
-2.2578051 0.24025014 2.4799709
-2.1544056 0.13192397 2.3080173
-3.1626861 0.66312689 3.7980089
-3.2312982 0.52346718 3.7927654
-3.2784429 0.3832351 3.7591002
-3.3324707 0.23890215 3.7324915
-3.0608974 0.65295196 3.8409336
-3.135216 0.51604193 3.850852
-3.1832106 0.37566864 3.8252027
-3.2303185 0.23038319 3.794446
-2.9669082 0.64562428 3.8940592
-3.0450161 0.50952941 3.915067
-3.0909588 0.36809498 3.8923612
-3.1301432 0.22285312 3.8574557
-2.8758957 0.63928914 3.9482591
-2.9538541 0.50304955 3.9772639
-2.990896 0.36067343 3.9493728
-3.0338922 0.21526504 3.9245391
-2.7897623 0.63486308 4.0085869
-2.8597488 0.4966132 4.0364056
-2.8976967 0.35415024 4.0135317
-2.931736 0.20774588 3.9865115
-2.6997499 0.62853152 4.0628052
-2.771507 0.49107152 4.1026759
-2.8044374 0.34857258 4.0807076
-2.8335564 0.20122281 4.0495768
-2.6135788 0.62406927 4.1251326
-2.677398 0.48563516 4.1618357
-2.705374 0.34115461 4.1377378
-2.735302 0.19462739 4.1166406
-2.5274081 0.61960703 4.1874599
-2.5833297 0.47923487 4.2189784
-2.611171 0.33562768 4.2018957
-2.6390808 0.18907514 4.1817608
-2.4286633 0.61249655 4.2274957
-2.4930847 0.47468594 4.2852287
-2.5150247 0.33014777 4.2630172
-2.5369577 0.18259202 4.2417517
-2.3463712 0.60993981 4.2959318
-2.39905 0.46932176 4.3403902
-2.4179161 0.3247005 4.3221207
-2.4436011 0.17792377 4.3139434
-2.2592151 0.60649192 4.3572588
-2.3029785 0.46391422 4.3975129
-2.3275774 0.32006109 4.3933692
-2.3414598 0.17142251 4.3749347
-2.1701386 0.60210937 4.4145312
-2.2156317 0.46128529 4.468854
-2.2304084 0.31555936 4.4554901
-2.2441974 0.1668303 4.4420533
-2.0819454 0.59862173 4.477838
-2.1176353 0.45594293 4.5219402
-2.1293566 0.31015199 4.511519
-2.1439164 0.16220927 4.5101151
-1.9965563 0.59696352 4.5512342
-2.0205226 0.45149547 4.5810614
-2.0359206 0.30641121 4.587728
-2.0427108 0.15765706 4.5741596
-1.901612 0.59268606 4.6013961
-1.9253119 0.44796461 4.645237
-1.9329253 0.3010509 4.6407204
-1.9375848 0.15216294 4.6341124
-0.96832782 0.28310937 2.4846053
-0.96671724 0.20318815 2.4791274
-0.96901941 0.12620842 2.4777777
-0.97126532 0.049174435 2.4794269
-0.88739407 0.26877636 2.4298122
-0.88286984 0.19093445 2.4193158
-0.88216066 0.11694346 2.4179635
-0.8862446 0.042771418 2.4277017
-0.8076098 0.25459161 2.3670406
-0.804901 0.18059346 2.3656509
-0.80504888 0.10947889 2.3713691
-0.80418205 0.037342846 2.3780501
-0.74033558 0.24500048 2.3295949
-0.73181516 0.17116165 2.3180957
-0.7224102 0.1014452 2.2996523
-0.74031788 0.034222193 2.3707955
-0.66848981 0.23179005 2.2699904
-0.65799546 0.1609797 2.2565084
-0.65129727 0.094002157 2.2531705
-0.70647711 0.035334114 2.4682152
-0.6034103 0.22038731 2.2225497
-0.59375411 0.15243533 2.2171378
-0.58516085 0.087558806 2.2078001
-0.59874618 0.026031006 2.2949712
-0.54130757 0.20997708 2.176183
-0.53154594 0.14493416 2.1758235
-0.52100533 0.081104547 2.1634672
-0.50942343 0.018234998 2.1531098
-0.48594832 0.20235634 2.1429973
-0.47235596 0.13746184 2.1335657
-0.460785 0.076610044 2.1222446
-0.46190777 0.01755983 2.180217
-0.42972821 0.19285893 2.1027594
-0.41522181 0.13005096 2.0883467
-0.40251207 0.071068607 2.0840402
-0.44415313 0.021908496 2.3790307
-0.37827075 0.18616191 2.0746653
-0.36189577 0.12347337 2.0532174
-0.34908453 0.066400245 2.0539453
-0.37449634 0.017920773 2.3076301
-0.32891041 0.17856266 2.0415924
-0.31129918 0.11865297 2.0321758
-0.29678792 0.061862089 2.0168715
-0.3098948 0.014005259 2.2333245
-0.28045633 0.17087656 2.0135367
-0.26714265 0.11733244 2.0403278
-0.25396788 0.061915256 2.0600855
-0.24912404 0.0099412911 2.1680913
-0.24331993 0.17466117 2.0729301
-0.22707081 0.11916088 2.0966299
-0.21270505 0.064559057 2.1263833
-0.19800623 0.0086318031 2.1741126
-0.20226309 0.17750394 2.1282315
-0.18493924 0.12192771 2.1559112
-0.16750309 0.066242933 2.1895888
-0.45976931 0.18128285 7.6910067
-0.16106731 0.18221974 2.1905665
-0.14057943 0.12547013 2.2271688
-0.34454966 0.37320983 7.5052581
-0.26475561 0.16824451 7.3730116
-0.23897611 0.51601291 5.2190895
-0.21653789 0.47831726 6.473413
-0.1639695 0.35064799 7.2193723
-0.082855552 0.15540607 7.102282
-0.12577303 0.510373 5.2298717
-0.071748301 0.47500494 6.5146565
0.0043736845 0.33040878 6.9737711
0.083201148 0.14348012 6.8398685
-0.011325479 0.51055622 5.3057585
0.075460672 0.47328711 6.5778904
0.15878347 0.31216514 6.7314682
0.23879588 0.13408667 6.6057057
0.10397085 0.5048188 5.3215013
0.22478823 0.46739137 6.5949941
0.30347985 0.29468593 6.5043659
0.38384587 0.12529837 6.3957601
0.22063449 0.50173348 5.3562722
0.36335799 0.44708747 6.4149714
0.441751 0.27968863 6.3074389
0.51880801 0.11763626 6.1810222
0.34264213 0.50030434 5.4089804
0.49283582 0.42690623 6.2301192
0.56889307 0.26485744 6.1037211
0.64488423 0.10989795 5.9724507
0.46572444 0.49879923 5.4656682
0.61421752 0.40584427 6.0404015
0.69032496 0.2517761 5.9151468
0.76654953 0.10361643 5.7949991
0.6144129 0.51681048 5.7102928
0.73089284 0.3875286 5.8658261
0.80394936 0.23954245 5.7367377
-0.02611593 -0.059798401 0.050936799
0.74053872 0.51119637 5.7168322
0.8396858 0.37013286 5.6974173
-0.02611593 -0.059798401 0.050936799
0.18740092 -0.028118007 1.1878977
-0.02611593 -0.059798401 0.050936799
-0.02611593 -0.059798401 0.050936799
1.0179242 0.21743745 5.4182239
1.0954852 0.088017672 5.3123946
0.17856307 0.051045574 1.1814929
1.0427731 0.33792424 5.3869276
0.26733002 0.0089482721 1.3891399
0.29324093 -0.022175945 1.390092
1.0545977 0.45647612 5.3548398
0.27663735 0.039729811 1.3995259
1.2102518 0.19808529 5.1181712
1.2858191 0.079707004 5.0105782
0.27867994 0.069789886 1.3960303
1.2273703 0.31031272 5.1028757
1.298612 0.19025669 4.9783282
1.3741765 0.075895809 4.8698072
1.2345389 0.42052212 5.0907307
1.3137114 0.29749221 4.9629798
1.3851415 0.18227243 4.8475184
1.4597816 0.072860055 4.7421069
1.3189731 0.40260112 4.95678
1.3962631 0.28548682 4.8341732
1.4698246 0.17515051 4.7247629
1.5392568 0.069972463 4.6075201
1.3996631 0.38745865 4.8359547
1.4790245 0.27428231 4.7163806
1.5474155 0.1681442 4.5971403
-0.02611593 -0.059798401 0.050936799
1.4794282 0.37224758 4.7191467
1.5557311 0.26315358 4.5957026
-0.02611593 -0.059798401 0.050936799
0.4600412 -0.024701549 1.2718834
1.5521197 0.35713384 4.5984712
-0.02611593 -0.059798401 0.050936799
0.45268741 -0.00024637394 1.2484555
1.7738039 0.064259686 4.2629094
-0.02611593 -0.059798401 0.050936799
0.417034 0.017537121 1.1574138
1.7740895 0.15129915 4.2614775
1.8395516 0.063168742 4.1426182
0.38682508 0.033868708 1.090252
0.50463063 0.026751827 1.2929864
1.8389151 0.14612204 4.1461315
1.9085609 0.061813802 4.0362654
0.49653515 0.049957521 1.2835546
1.8404204 0.22692379 4.1575689
1.9079877 0.14169523 4.0437236
1.9745709 0.060469605 3.9299691
1.8289536 0.30473655 4.1711955
1.9034035 0.21859157 4.0512033
1.9699639 0.13638419 3.9364307
2.0407157 0.059998617 3.8306885
1.89094 0.2923905 4.0657759
1.9654427 0.21020865 3.9478545
2.040302 0.13270037 3.848017
2.1049173 0.059480563 3.7344444
1.9509863 0.28099719 3.9634109
2.0286355 0.20267729 3.8525028
2.101496 0.13019341 3.7517934
2.167119 0.058969676 3.638238
2.0173955 0.27123833 3.8799627
2.0919633 0.19601911 3.7641668
2.1606641 0.12571207 3.6545718
2.2335713 0.060208939 3.5549879
2.0724804 0.25982678 3.779691
2.1491838 0.19049084 3.6699636
2.2210498 0.12402763 3.5683815
2.2857187 0.059788197 3.4559703
2.1328945 0.25108925 3.6963735
2.2095909 0.18477091 3.5857008
2.2752414 0.12054596 3.4722712
2.3450749 0.060143184 3.3678358
2.1902115 0.24145314 3.6080964
2.2658827 0.17817402 3.4954967
2.3315859 0.11791223 3.3841386
2.4065466 0.061382297 3.2856793
2.2465703 0.23278424 3.5218551
2.3201787 0.17258416 3.4053483
2.3890054 0.11520257 3.2999861
2.4557922 0.061881717 3.1917346
2.3009295 0.22412254 3.4356513
2.3786838 0.1677808 3.3261395
2.4474847 0.11343486 3.2188318
2.5152791 0.062110096 3.1105976
2.3543074 0.21544635 3.3504663
2.427999 0.16219079 3.2370849
2.5008864 0.11075763 3.1337545
2.5707898 0.063334562 3.0305531
2.4098198 0.20763613 3.2722588
2.4824674 0.15743794 3.1559515
2.555408 0.10996795 3.0546927
2.6222486 0.065627471 2.9476032
2.4571991 0.19898148 3.1871867
2.5380709 0.15355475 3.0818148
2.6038139 0.10830849 2.9697278
2.6737037 0.066920564 2.864635
2.5117905 0.19210234 3.1130152
2.5885215 0.14883438 2.9997573
2.6573732 0.10748622 2.892684
2.7262337 0.068137713 2.7856467
2.5663447 0.18525939 3.0368438
2.6349573 0.14514621 2.9167931
2.7129509 0.10663864 2.8166022
2.7777674 0.070358276 2.7066951
2.6168807 0.17844889 2.9597485
2.6875424 0.14129187 2.8417132
2.7573955 0.10495739 2.7337115
2.8231673 0.071727157 2.6208408
2.6663985 0.1716601 2.8816721
2.7421646 0.13739417 2.7685955
2.8038623 0.10425068 2.6518011
2.8737388 0.073915146 2.5439074
2.7149537 0.16483869 2.8056138
2.7866013 0.13371322 2.6856687
2.856478 0.1033777 2.577775
2.9740999 0.078167021 2.5080931
2.7553606 0.1581907 2.7217085
2.8300943 0.12998161 2.6057599
2.9203238 0.10424785 2.5155745
3.0216341 0.080401927 2.4292169
2.8090727 0.1532063 2.6535897
2.879725 0.12810148 2.5327718
2.9983208 0.10592289 2.4611261
3.0732093 0.083586141 2.3522828
2.8505356 0.14650047 2.5726647
2.9781079 0.12832503 2.4989223
3.049922 0.10607143 2.386137
3.1177073 0.085868001 2.2714636
2.9215105 0.14220162 2.5182395
3.0307341 0.12543434 2.4258602
3.0964677 0.10629219 2.308243
3.169301 0.08903414 2.195529
2.9904485 0.13794613 2.461853
3.0793095 0.12361208 2.3498917
3.1440129 0.10650934 2.2303305
3.2279873 0.092084706 2.1244617
3.0410674 0.13306294 2.388792
3.1278987 0.1207719 2.2749052
3.1956329 0.10663981 2.1563413
3.2735071 0.095344707 2.0446413
3.0917046 0.12816167 2.3167307
3.1785109 0.11890629 2.2008989
3.2472563 0.10777012 2.08237
4.7084479 0.16484401 2.7592747
3.1423423 0.12326039 2.2446697
3.2251048 0.11707311 2.125968
4.663466 0.17808416 2.8113739
4.7865396 0.17040129 2.6558781
3.187906 0.11844942 2.168704
3.2675831 0.11436301 2.0450964
4.7476387 0.18053 2.7128091
4.5858059 0.16266535 2.4074121
3.2355063 0.11359509 2.0946996
4.7036772 0.18471386 2.7677262
4.8064699 0.18139146 2.5966837
4.6488438 0.16833076 2.3012984
4.6619987 0.17958452 2.8394382
4.7747045 0.18333361 2.6623359
4.5967598 0.16965236 2.3503141
4.7794843 0.17717616 2.225987
4.7350664 0.17414351 2.7369368
4.6245046 0.16987644 2.4428301
4.6830254 0.17200053 2.2567098
5.0714078 0.19421558 2.2158263
4.7949824 0.16789408 2.6266646
4.6340446 0.16618596 2.3125405
5.018424 0.18741551 2.271714
5.1402764 0.20002225 2.1006029
4.5892863 0.15010545 2.3821113
4.7132211 0.16463232 2.2149968
5.101469 0.19099136 2.1661882
9.2930536 0.41558331 3.4972243
4.6583915 0.14464265 2.2816844
5.053607 0.17702983 2.2298534
5.1643267 0.19382009 2.0510235
9.3045092 0.42192122 3.2540419
4.9403596 0.14862972 2.2764757
5.1235409 0.17574364 2.1194835
9.6556005 0.41268736 3.5233929
9.289834 0.42747924 3.0043328
5.0819368 0.14645559 2.1997597
10.227601 0.40078631 3.8925936
9.7373724 0.41644877 3.2968531
9.3225584 0.43648797 2.7748051
5.1347046 0.140376 2.0816216
10.506433 0.40579459 3.7204051
9.7949533 0.41847751 3.0607319
9.2909765 0.44101673 2.5303957
11.827393 0.38333026 4.4014978
10.724626 0.40763396 3.5152836
9.9431267 0.42662132 2.8540349
9.2725134 0.44738987 2.2917755
11.825501 0.3669273 4.0911307
10.987051 0.41309762 3.3214037
9.9625263 0.42896736 2.6086307
9.257164 0.45464355 2.0591154
12.455673 0.37334016 3.986413
11.202943 0.41523352 3.1003251
10.085475 0.43641815 2.3903897
9.2458887 0.46181056 1.8303785
12.865964 0.37034643 3.7856092
11.206716 0.41021362 2.8230698
10.186213 0.44214711 2.1615298
9.2326717 0.46893048 1.6046784
14.334571 0.40241063 3.8507152
11.576159 0.42027435 2.6282687
10.218699 0.44737363 1.9199344
9.2084379 0.47610801 1.3781852
14.536782 0.39216578 3.5426395
11.597873 0.41524404 2.3476763
10.351537 0.45589691 1.6955252
9.1431799 0.48045123 1.1514086
14.561085 0.37744355 3.1887982
11.975944 0.42663407 2.1327307
10.378982 0.46017772 1.4520062
9.0910397 0.48663887 0.93042171
13.799403 0.33944869 2.6882019
12.740932 0.45374936 1.9598401
10.372316 0.46368921 1.2031102
6.0907297 0.31319749 0.4973115
13.087653 0.30639058 2.2357767
12.10144 0.42322388 1.5731298
6.1783104 0.25514376 0.59165359
5.9989262 0.31323078 0.34898064
12.471879 0.27705008 1.8336384
11.554801 0.39855286 1.2298017
6.0023255 0.24864247 0.43577805
6.0133395 0.3206833 0.20979835
11.932858 0.25171235 1.4701487
6.1209025 0.1814428 0.53137481
6.0276842 0.25209236 0.29431772
3.7156432 0.18034284 0.06222878
11.393371 0.2278714 1.1347045
5.9779863 0.17475075 0.37887782
3.6404004 0.13071947 0.11275703
3.0670049 0.14220956 -0.011341702
6.0486627 0.087563947 0.48401314
6.0233717 0.17609303 0.23900497
3.0676565 0.10243836 0.030941006
3.1036696 0.14837475 -0.083941251
6.0419207 0.083202399 0.33901128
6.0857387 0.1783922 0.097831026
3.0993104 0.105622 -0.041618645
2.8605127 0.13534924 -0.14064354
6.0221968 0.077869594 0.19523536
3.0939624 0.060855117 0.001686377
3.1319308 0.10983808 -0.11617839
2.7224247 0.12989128 -0.19617571
3.8779335 0.025856392 0.052392431
3.1305888 0.062039237 -0.072002932
2.7229791 0.089210719 -0.15890932
2.7581828 0.13596962 -0.26375815
3.8741956 0.023528442 -0.039610878
2.8574307 0.05213898 -0.12908712
2.7477279 0.092329033 -0.22633913
2.7849054 0.14211643 -0.3331708
3.5686538 0.015122734 -0.11706862
2.7742465 0.048573736 -0.19061503
2.7874398 0.096429519 -0.2960321
2.3607569 0.11475159 -0.33172411
3.4521499 0.0099837761 -0.19500673
2.8957982 0.053524476 -0.26982808
2.8919542 0.10549485 -0.37785265
2.3906291 0.12074292 -0.39319587
3.3806825 0.0066467929 -0.27175504
2.9613521 0.056676537 -0.34802493
2.3880634 0.078181975 -0.36190712
2.4204445 0.12678851 -0.45766658
3.329253 0.0042016841 -0.34686184
3.0567551 0.060865466 -0.43476474
2.4288547 0.083206348 -0.42760223
2.5558231 0.14088647 -0.54797685
1.9341282 -0.023461606 -0.22820154
2.951668 0.057288736 -0.49088097
2.4576213 0.086292222 -0.49410748
2.7975991 0.16419581 -0.67312431
3.0459917 -0.0045990152 -0.4627569
2.8018444 0.051620595 -0.53219241
2.8070219 0.10955765 -0.64027792
2.6430678 0.15625651 -0.69838327
3.4681628 0.0015520295 -0.61860263
2.8194778 0.053872731 -0.60550666
2.8694422 0.11686449 -0.72634363
2.5184867 0.15126333 -0.7271508
3.6030221 0.003104412 -0.73413861
2.8400321 0.055186633 -0.68289393
2.5944901 0.10279973 -0.71844751
2.3781025 0.14312908 -0.74467558
3.4529397 -0.001310654 -0.78942734
2.837703 0.056474544 -0.75385112
2.4788885 0.097792335 -0.74838388
2.4982066 0.15855202 -0.84968078
3.5358794 -0.00064383261 -0.90000558
2.5568609 0.046340186 -0.74077189
3.0541947 0.13828084 -1.0115119
-0.02611593 -0.059798401 0.050936799
2.6269379 -0.017225923 -0.72522843
2.1291273 0.029670756 -0.66603971
-0.02611593 -0.059798401 0.050936799
0.18238108 -0.041071828 -0.034657095
2.5252144 -0.019157462 -0.76237148
3.0660603 0.070078015 -1.0589838
-0.02611593 -0.059798401 0.050936799
-0.02611593 -0.059798401 0.050936799
2.4255466 -0.021150442 -0.79655308
-0.02611593 -0.059798401 0.050936799
0.18032438 -0.046027631 -0.036708925
0.16234337 -0.041963704 -0.036298618
-0.02611593 -0.059798401 0.050936799
0.18532252 -0.051062804 -0.035893302
-0.02611593 -0.059798401 0.050936799
-0.02611593 -0.059798401 0.050936799
0.18435533 -0.057112463 -0.032983642
-0.02611593 -0.059798401 0.050936799
0.15830575 -0.04693041 -0.037313215
0.14432402 -0.042880844 -0.036978073
-0.02611593 -0.059798401 0.050936799
0.15832356 -0.051965736 -0.035403974
-0.02611593 -0.059798401 0.050936799
-0.02611593 -0.059798401 0.050936799
0.15736027 -0.057015568 -0.032476299
-0.02611593 -0.059798401 0.050936799
0.13532475 -0.047865786 -0.035899386
0.12235764 -0.044837728 -0.034601387
-0.02611593 -0.059798401 0.050936799
0.13930437 -0.052879289 -0.03606464
-0.02611593 -0.059798401 0.050936799
-0.02611593 -0.059798401 0.050936799
0.13536036 -0.057936437 -0.032080926
-0.02611593 -0.059798401 0.050936799
0.11634301 -0.048815511 -0.034560718
0.10635662 -0.045780137 -0.034318756
-0.02611593 -0.059798401 0.050936799
0.11932676 -0.0528256 -0.034689162
-0.02611593 -0.059798401 0.050936799
-0.02611593 -0.059798401 0.050936799
0.11836346 -0.057875425 -0.031761486
-0.02611593 -0.059798401 0.050936799
0.10334146 -0.049768686 -0.034334458
0.096339732 -0.045726158 -0.035130519
-0.02611593 -0.059798401 0.050936799
0.10234466 -0.053782508 -0.033388089
-0.02611593 -0.059798401 0.050936799
-0.02611593 -0.059798401 0.050936799
0.099400461 -0.058843248 -0.029423166
-0.02611593 -0.059798401 0.050936799
0.093305841 -0.049696621 -0.036145888
0.082357086 -0.046693828 -0.033885799
-0.02611593 -0.059798401 0.050936799
0.090346858 -0.05373944 -0.033162605
-0.02611593 -0.059798401 0.050936799
-0.02611593 -0.059798401 0.050936799
0.091327034 -0.05874218 -0.033271488
-0.02611593 -0.059798401 0.050936799
0.075398825 -0.050722294 -0.030827366
0.07335481 -0.04766136 -0.033734705
-0.02611593 -0.059798401 0.050936799
0.080326043 -0.054685291 -0.033992369
-0.02611593 -0.059798401 0.050936799
-0.02611593 -0.059798401 0.050936799
0.080329053 -0.0587027 -0.03306479
-0.02611593 -0.059798401 0.050936799
0.066377819 -0.051671736 -0.031675927
0.064356454 -0.047629058 -0.033565588
-0.02611593 -0.059798401 0.050936799
0.068365678 -0.054678407 -0.031767566
-0.02611593 -0.059798401 0.050936799
-0.02611593 -0.059798401 0.050936799
0.066387773 -0.058706723 -0.02980274
-0.02611593 -0.059798401 0.050936799
0.057398193 -0.05165752 -0.030507151
0.057353813 -0.048603766 -0.033452075
-0.02611593 -0.059798401 0.050936799
0.058367513 -0.054642517 -0.031579658
-0.02611593 -0.059798401 0.050936799
-0.02611593 -0.059798401 0.050936799
0.058370523 -0.058659926 -0.030652072
-0.02611593 -0.059798401 0.050936799
0.054323856 -0.051574402 -0.034449425
0.051317472 -0.048546057 -0.035338666
-0.02611593 -0.059798401 0.050936799
0.052345954 -0.055602722 -0.032484602
-0.02611593 -0.059798401 0.050936799
-0.02611593 -0.059798401 0.050936799
0.050371982 -0.058631212 -0.030501749
-0.02611593 -0.059798401 0.050936799
0.0443592 -0.052574519 -0.032280218
0.044318747 -0.048520934 -0.03520713
-0.02611593 -0.059798401 0.050936799
0.045347236 -0.055577602 -0.032353066
-0.02611593 -0.059798401 0.050936799
-0.02611593 -0.059798401 0.050936799
0.043391988 -0.058624178 -0.029370554
-0.02611593 -0.059798401 0.050936799
0.040307697 -0.051506069 -0.035186023
0.038319845 -0.048499402 -0.035094388
-0.02611593 -0.059798401 0.050936799
0.037367426 -0.055566978 -0.031203076
-0.02611593 -0.059798401 0.050936799
-0.02611593 -0.059798401 0.050936799
0.037355639 -0.058566466 -0.03125713
-0.02611593 -0.059798401 0.050936799
0.034323592 -0.052502453 -0.034091633
0.033283312 -0.048445277 -0.036999755
-0.02611593 -0.059798401 0.050936799
0.033330712 -0.055516444 -0.033127233
-0.02611593 -0.059798401 0.050936799
-0.02611593 -0.059798401 0.050936799
0.03231911 -0.058512345 -0.033162497
-0.02611593 -0.059798401 0.050936799
-0.02611593 -0.059798401 0.050936799
0.026318114 -0.049456164 -0.034886923
-0.02611593 -0.059798401 0.050936799
-0.02611593 -0.059798401 0.050936799
-0.02611593 -0.059798401 0.050936799
-0.02611593 -0.059798401 0.050936799
0.028263675 -0.058443721 -0.036086328
-0.02611593 -0.059798401 0.050936799
0.02425053 -0.052394208 -0.03790237
0.022281399 -0.049405631 -0.036811076
-0.02611593 -0.059798401 0.050936799
-0.02611593 -0.059798401 0.050936799
-0.02611593 -0.059798401 0.050936799
-0.02611593 -0.059798401 0.050936799
-0.02611593 -0.059798401 0.050936799
-0.02611593 -0.059798401 0.050936799
0.020232536 -0.052361764 -0.038826875
-0.02611593 -0.059798401 0.050936799
-0.02611593 -0.059798401 0.050936799
-0.02611593 -0.059798401 0.050936799
-0.02611593 -0.059798401 0.050936799
-0.02611593 -0.059798401 0.050936799
-0.02611593 -0.059798401 0.050936799
-0.02611593 -0.059798401 0.050936799
-0.02611593 -0.059798401 0.050936799
-0.02611593 -0.059798401 0.050936799
-0.02611593 -0.059798401 0.050936799
-0.02611593 -0.059798401 0.050936799
-0.02611593 -0.059798401 0.050936799
-0.02611593 -0.059798401 0.050936799
-0.02611593 -0.059798401 0.050936799
-0.02611593 -0.059798401 0.050936799
-0.02611593 -0.059798401 0.050936799
-0.02611593 -0.059798401 0.050936799
-0.02611593 -0.059798401 0.050936799
-0.02611593 -0.059798401 0.050936799
-0.02611593 -0.059798401 0.050936799
-0.02611593 -0.059798401 0.050936799
-0.02611593 -0.059798401 0.050936799
-0.02611593 -0.059798401 0.050936799
-0.02611593 -0.059798401 0.050936799
-0.02611593 -0.059798401 0.050936799
-0.02611593 -0.059798401 0.050936799
-0.02611593 -0.059798401 0.050936799
-0.02611593 -0.059798401 0.050936799
-0.02611593 -0.059798401 0.050936799
-0.02611593 -0.059798401 0.050936799
-0.02611593 -0.059798401 0.050936799
-0.02611593 -0.059798401 0.050936799
-0.02611593 -0.059798401 0.050936799
-0.02611593 -0.059798401 0.050936799
-0.02611593 -0.059798401 0.050936799
-0.02611593 -0.059798401 0.050936799
-0.02611593 -0.059798401 0.050936799
-0.02611593 -0.059798401 0.050936799
-0.02611593 -0.059798401 0.050936799
-0.02611593 -0.059798401 0.050936799
-0.02611593 -0.059798401 0.050936799
-0.02611593 -0.059798401 0.050936799
-0.02611593 -0.059798401 0.050936799
-0.02611593 -0.059798401 0.050936799
-0.02611593 -0.059798401 0.050936799
-0.02611593 -0.059798401 0.050936799
-0.02611593 -0.059798401 0.050936799
-0.02611593 -0.059798401 0.050936799
-0.02611593 -0.059798401 0.050936799
-0.02611593 -0.059798401 0.050936799
-0.02611593 -0.059798401 0.050936799
-0.02611593 -0.059798401 0.050936799
-0.02611593 -0.059798401 0.050936799
-0.02611593 -0.059798401 0.050936799
-0.02611593 -0.059798401 0.050936799
-0.02611593 -0.059798401 0.050936799
-0.02611593 -0.059798401 0.050936799
-0.02611593 -0.059798401 0.050936799
-0.02611593 -0.059798401 0.050936799
-0.02611593 -0.059798401 0.050936799
-0.02611593 -0.059798401 0.050936799
-0.02611593 -0.059798401 0.050936799
-0.02611593 -0.059798401 0.050936799
-0.02611593 -0.059798401 0.050936799
-0.02611593 -0.059798401 0.050936799
-0.02611593 -0.059798401 0.050936799
-0.02611593 -0.059798401 0.050936799
-0.02611593 -0.059798401 0.050936799
-0.02611593 -0.059798401 0.050936799
-0.02611593 -0.059798401 0.050936799
-0.02611593 -0.059798401 0.050936799
-0.02611593 -0.059798401 0.050936799
-0.02611593 -0.059798401 0.050936799
-0.02611593 -0.059798401 0.050936799
-0.02611593 -0.059798401 0.050936799
-0.02611593 -0.059798401 0.050936799
-0.02611593 -0.059798401 0.050936799
-0.02611593 -0.059798401 0.050936799
-0.02611593 -0.059798401 0.050936799
-0.02611593 -0.059798401 0.050936799
-0.02611593 -0.059798401 0.050936799
-0.02611593 -0.059798401 0.050936799
-0.02611593 -0.059798401 0.050936799
-0.02611593 -0.059798401 0.050936799
-0.02611593 -0.059798401 0.050936799
-0.02611593 -0.059798401 0.050936799
-0.02611593 -0.059798401 0.050936799
-0.02611593 -0.059798401 0.050936799
-0.02611593 -0.059798401 0.050936799
-0.02611593 -0.059798401 0.050936799
-0.02611593 -0.059798401 0.050936799
-0.02611593 -0.059798401 0.050936799
-0.02611593 -0.059798401 0.050936799
-0.02611593 -0.059798401 0.050936799
-0.02611593 -0.059798401 0.050936799
-0.02611593 -0.059798401 0.050936799
-0.02611593 -0.059798401 0.050936799
-0.02611593 -0.059798401 0.050936799
-0.02611593 -0.059798401 0.050936799
-0.02611593 -0.059798401 0.050936799
-0.02611593 -0.059798401 0.050936799
-0.02611593 -0.059798401 0.050936799
-0.02611593 -0.059798401 0.050936799
-0.02611593 -0.059798401 0.050936799
-0.02611593 -0.059798401 0.050936799
-0.02611593 -0.059798401 0.050936799
-0.02611593 -0.059798401 0.050936799
-0.02611593 -0.059798401 0.050936799
-0.02611593 -0.059798401 0.050936799
-0.02611593 -0.059798401 0.050936799
-0.02611593 -0.059798401 0.050936799
-0.02611593 -0.059798401 0.050936799
-0.02611593 -0.059798401 0.050936799
-0.02611593 -0.059798401 0.050936799
-0.02611593 -0.059798401 0.050936799
-0.02611593 -0.059798401 0.050936799
-0.02611593 -0.059798401 0.050936799
-0.02611593 -0.059798401 0.050936799
-0.02611593 -0.059798401 0.050936799
-0.02611593 -0.059798401 0.050936799
-0.02611593 -0.059798401 0.050936799
-0.02611593 -0.059798401 0.050936799
-0.02611593 -0.059798401 0.050936799
-0.02611593 -0.059798401 0.050936799
-0.02611593 -0.059798401 0.050936799
-0.02611593 -0.059798401 0.050936799
-0.02611593 -0.059798401 0.050936799
-0.02611593 -0.059798401 0.050936799
-0.02611593 -0.059798401 0.050936799
-0.02611593 -0.059798401 0.050936799
-0.02611593 -0.059798401 0.050936799
-0.02611593 -0.059798401 0.050936799
-0.02611593 -0.059798401 0.050936799
-0.02611593 -0.059798401 0.050936799
-0.02611593 -0.059798401 0.050936799
-0.02611593 -0.059798401 0.050936799
-0.02611593 -0.059798401 0.050936799
-0.02611593 -0.059798401 0.050936799
-0.02611593 -0.059798401 0.050936799
-0.02611593 -0.059798401 0.050936799
-0.02611593 -0.059798401 0.050936799
-0.02611593 -0.059798401 0.050936799
-0.02611593 -0.059798401 0.050936799
-0.02611593 -0.059798401 0.050936799
-0.02611593 -0.059798401 0.050936799
-0.02611593 -0.059798401 0.050936799
-0.02611593 -0.059798401 0.050936799
-0.02611593 -0.059798401 0.050936799
-0.02611593 -0.059798401 0.050936799
-0.02611593 -0.059798401 0.050936799
-0.02611593 -0.059798401 0.050936799
-0.02611593 -0.059798401 0.050936799
-0.02611593 -0.059798401 0.050936799
-0.02611593 -0.059798401 0.050936799
-0.02611593 -0.059798401 0.050936799
-0.02611593 -0.059798401 0.050936799
-0.02611593 -0.059798401 0.050936799
-0.02611593 -0.059798401 0.050936799
-0.02611593 -0.059798401 0.050936799
-0.02611593 -0.059798401 0.050936799
-0.02611593 -0.059798401 0.050936799
-0.02611593 -0.059798401 0.050936799
-0.02611593 -0.059798401 0.050936799
-0.02611593 -0.059798401 0.050936799
-0.02611593 -0.059798401 0.050936799
-0.02611593 -0.059798401 0.050936799
-0.02611593 -0.059798401 0.050936799
-0.02611593 -0.059798401 0.050936799
-0.02611593 -0.059798401 0.050936799
-0.02611593 -0.059798401 0.050936799
-0.02611593 -0.059798401 0.050936799
-0.02611593 -0.059798401 0.050936799
-0.02611593 -0.059798401 0.050936799
-0.02611593 -0.059798401 0.050936799
-0.02611593 -0.059798401 0.050936799
-0.02611593 -0.059798401 0.050936799
-0.02611593 -0.059798401 0.050936799
-0.02611593 -0.059798401 0.050936799
-0.02611593 -0.059798401 0.050936799
-0.02611593 -0.059798401 0.050936799
-0.02611593 -0.059798401 0.050936799
-0.02611593 -0.059798401 0.050936799
-0.02611593 -0.059798401 0.050936799
-0.081730075 -0.052013785 -0.035910573
-0.02611593 -0.059798401 0.050936799
-0.02611593 -0.059798401 0.050936799
-0.02611593 -0.059798401 0.050936799
-0.02611593 -0.059798401 0.050936799
-0.02611593 -0.059798401 0.050936799
-0.086632542 -0.056103691 -0.029890731
-0.02611593 -0.059798401 0.050936799
-0.084654637 -0.052075371 -0.031855557
-0.083684407 -0.050043121 -0.033837639
-0.02611593 -0.059798401 0.050936799
-0.02611593 -0.059798401 0.050936799
-0.02611593 -0.059798401 0.050936799
-0.02611593 -0.059798401 0.050936799
-0.094664589 -0.055038974 -0.031721711
-0.02611593 -0.059798401 0.050936799
-0.09270934 -0.051992394 -0.03470422
-0.088668704 -0.051043097 -0.032762043
-0.02611593 -0.059798401 0.050936799
-0.092604861 -0.054100592 -0.028742287
-0.02611593 -0.059798401 0.050936799
-0.02611593 -0.059798401 0.050936799
-0.09758915 -0.055100568 -0.027666695
-0.02611593 -0.059798401 0.050936799
-0.097670987 -0.052010629 -0.032610949
-0.095682219 -0.050000053 -0.033612154
-0.02611593 -0.059798401 0.050936799
-0.099599652 -0.053075638 -0.028592736
-0.02611593 -0.059798401 0.050936799
-0.02611593 -0.059798401 0.050936799
-0.10356932 -0.055097118 -0.02655429
-0.02611593 -0.059798401 0.050936799
-0.10163281 -0.052032448 -0.03053645
-0.099629246 -0.051039796 -0.030556016
-0.02611593 -0.059798401 0.050936799
-0.11169107 -0.052942123 -0.033365559
-0.02611593 -0.059798401 0.050936799
-0.02611593 -0.059798401 0.050936799
-0.1105454 -0.054090254 -0.025405079
-0.02611593 -0.059798401 0.050936799
-0.10659445 -0.052050684 -0.02844318
-0.10662797 -0.051014673 -0.030424479
-0.02611593 -0.059798401 0.050936799
-0.11561545 -0.053000126 -0.029291753
-0.02611593 -0.059798401 0.050936799
-0.02611593 -0.059798401 0.050936799
-0.1175254 -0.054083224 -0.02427388
-0.02611593 -0.059798401 0.050936799
-0.11764468 -0.050957106 -0.031217452
-0.11362669 -0.05098955 -0.030292947
-0.02611593 -0.059798401 0.050936799
-0.1215769 -0.05301477 -0.027179681
-0.02611593 -0.059798401 0.050936799
-0.02611593 -0.059798401 0.050936799
-0.13463069 -0.052913845 -0.029934384
-0.02611593 -0.059798401 0.050936799
-0.12358741 -0.05098984 -0.028105721
-0.11958814 -0.051004197 -0.028180886
-0.02611593 -0.059798401 0.050936799
-0.13258968 -0.051957373 -0.027954627
-0.02611593 -0.059798401 0.050936799
-0.02611593 -0.059798401 0.050936799
-0.14259179 -0.052921314 -0.027784742
-0.02611593 -0.059798401 0.050936799
-0.13460411 -0.050932273 -0.028898694
-0.13265672 -0.049885355 -0.031917244
-0.02611593 -0.059798401 0.050936799
-0.14763917 -0.050849438 -0.030653734
-0.02611593 -0.059798401 0.050936799
-0.02611593 -0.059798401 0.050936799
-0.15660401 -0.051853146 -0.028503321
-0.02611593 -0.059798401 0.050936799
-0.14560209 -0.050892796 -0.028691996
-0.14061782 -0.04989282 -0.029767588
-0.02611593 -0.059798401 0.050936799
-0.15861844 -0.050828051 -0.029447373
-0.02611593 -0.059798401 0.050936799
-0.02611593 -0.059798401 0.050936799
-0.1665608 -0.05085361 -0.026298068
-0.02611593 -0.059798401 0.050936799
-0.15557763 -0.049875166 -0.02748641
-0.15261562 -0.049849752 -0.0295421
-0.02611593 -0.059798401 0.050936799
-0.17159341 -0.049799655 -0.028185427
-0.02611593 -0.059798401 0.050936799
-0.02611593 -0.059798401 0.050936799
-0.18657194 -0.04976391 -0.026903901
-0.02611593 -0.059798401 0.050936799
-0.17361178 -0.049774386 -0.029147498
-0.16459469 -0.049824774 -0.02831696
-0.02611593 -0.059798401 0.050936799
-0.19262309 -0.048688278 -0.029772125
-0.02611593 -0.059798401 0.050936799
-0.02611593 -0.059798401 0.050936799
-0.1985136 -0.049775109 -0.023679439
-0.02611593 -0.059798401 0.050936799
-0.18556821 -0.048767671 -0.026904672
-0.17253706 -0.04985033 -0.025167651
-0.02611593 -0.059798401 0.050936799
-0.20052801 -0.048750013 -0.024623498
-0.02611593 -0.059798401 0.050936799
-0.02611593 -0.059798401 0.050936799
-0.23157458 -0.04758466 -0.027021956
-0.02611593 -0.059798401 0.050936799
-0.20658308 -0.048674215 -0.027509738
-0.19355194 -0.049756877 -0.025772709
-0.02611593 -0.059798401 0.050936799
-0.23760699 -0.046527117 -0.028890513
-0.02611593 -0.059798401 0.050936799
-0.02611593 -0.059798401 0.050936799
-0.25852433 -0.045524277 -0.024479248
-0.02611593 -0.059798401 0.050936799
-0.23459277 -0.047555804 -0.027965236
-0.22159907 -0.04860229 -0.028227534
-0.02611593 -0.059798401 0.050936799
-0.26859739 -0.045416035 -0.028289989
-0.02611593 -0.059798401 0.050936799
-0.02611593 -0.059798401 0.050936799
-1.0252491 0.0020962397 -0.22433043
-0.02611593 -0.059798401 0.050936799
-0.25854698 -0.046506017 -0.025496926
-0.25160837 -0.047476701 -0.028645463
-1.0458816 0.0038275723 -0.20490623
-1.031312 0.00017237943 -0.22725272
-0.02611593 -0.059798401 0.050936799
-0.02611593 -0.059798401 0.050936799
-1.0544454 0.0044436594 -0.1817269
-1.0429127 0.00083540706 -0.20601633
-1.0333648 -0.0037835836 -0.22928654
-1.0137851 -0.0094744712 -0.25076336
-1.0509779 0.0039806659 -0.15679175
-1.0514804 0.00045165885 -0.18285504
-1.0459692 -0.0041167974 -0.20804939
-1.0384661 -0.010692095 -0.23331735
-1.0655594 0.0046363673 -0.13449933
-1.0570487 5.7143625e-05 -0.15975007
-1.0525413 -0.0055075549 -0.18494368
-1.0500748 -0.012028724 -0.212117
-1.0620878 0.0051732007 -0.10954615
-1.0706342 -0.00029057078 -0.13749446
-1.0601131 -0.0068947184 -0.16181915
-1.0546324 -0.014444578 -0.18806723
-1.0676562 0.0047786864 -0.086441204
-1.0631527 -0.001785839 -0.11165281
-1.075717 -0.007217166 -0.14052561
-1.0652224 -0.01580289 -0.16588601
-1.0762012 0.0053766835 -0.062262207
-1.0817521 -0.0010976894 -0.090284884
-1.0692353 -0.0087088495 -0.1146652
-1.0717984 -0.018193472 -0.1427983
-1.0837651 0.0059891734 -0.03910166
-1.0802842 -0.0015535043 -0.065312147
-1.0727891 -0.010128458 -0.090616167
-1.0683161 -0.019674385 -0.11688149
-1.1003237 0.0076337978 -0.015753977
-1.0928512 -0.0019228968 -0.042075671
-1.0873557 -0.010490673 -0.067342117
-1.0939409 -0.020942686 -0.09641774
-1.1258618 0.0092926342 0.0087624714
-1.1154125 -0.0012565693 -0.018633269
-1.0839148 -0.012935238 -0.043442659
-1.0944804 -0.023390984 -0.071443476
-1.1424054 0.0099193314 0.033091802
-1.1369551 -0.00061192003 0.0057900101
-1.1164929 -0.012214932 -0.020812012
-1.1110506 -0.024745852 -0.048149832
-1.1479323 0.010488477 0.058214094
-1.142486 -0.0010426128 0.030894279
-1.1310446 -0.013595067 0.0034437031
-1.1186075 -0.027150936 -0.024043687
-1.1634533 0.012093334 0.083542302
-1.158011 -0.00043758971 0.056204468
-1.1395751 -0.014014992 0.028604347
-1.1271418 -0.028570693 0.0010989383
-1.1739607 0.01266232 0.10975821
-1.1625421 -0.00087187189 0.081289954
-1.1581033 -0.014399029 0.053952891
-1.1366799 -0.030986693 0.026242338
-1.1824495 0.013206046 0.13693619
-1.1740344 -0.0013172089 0.10850629
-1.1466453 -0.016890392 0.078701682
-1.1542125 -0.032374147 0.051554076
-1.1939152 0.01474228 0.16518822
-1.1845455 -0.0017480464 0.13470417
-0.02611593 -0.059798401 0.050936799
-0.02611593 -0.059798401 0.050936799
-1.2293352 0.017328303 0.19590858
-1.1950154 -0.0012152278 0.1629194
-0.02611593 -0.059798401 0.050936799
-0.02611593 -0.059798401 0.050936799
-0.02611593 -0.059798401 0.050936799
-0.02611593 -0.059798401 0.050936799
-0.02611593 -0.059798401 0.050936799
-0.02611593 -0.059798401 0.050936799
-1.2173223 0.017311839 0.24970159
-1.2378949 -0.00012491597 0.22276223
-1.2415118 -0.01858633 0.19348606
-1.2271813 -0.040075663 0.16181831
-0.02611593 -0.059798401 0.050936799
-0.02611593 -0.059798401 0.050936799
-0.02611593 -0.059798401 0.050936799
-0.02611593 -0.059798401 0.050936799
-0.02611593 -0.059798401 0.050936799
-0.02611593 -0.059798401 0.050936799
-1.2374531 -0.021627836 0.25037435
-1.2291442 -0.044077374 0.21780165
-1.2804333 0.021753285 0.34999752
-0.02611593 -0.059798401 0.050936799
-0.02611593 -0.059798401 0.050936799
-0.02611593 -0.059798401 0.050936799
-0.02611593 -0.059798401 0.050936799
-1.3173968 0.00078111188 0.35631236
-0.02611593 -0.059798401 0.050936799
-0.02611593 -0.059798401 0.050936799
-6.2204084 0.34959936 1.826918
-0.02611593 -0.059798401 0.050936799
-1.3154951 -0.024221815 0.35582432
-0.02611593 -0.059798401 0.050936799
-3.0880535 0.14310274 1.0032575
-6.2378993 0.228699 1.8240577
-0.02611593 -0.059798401 0.050936799
-1.2917259 -0.053194482 0.34885284
-3.1104796 0.14568679 1.0867524
-3.0883157 0.081131369 1.0011407
-6.2522912 0.099662647 1.8279942
-0.02611593 -0.059798401 0.050936799
-3.1795251 0.15209515 1.1901962
-3.117696 0.080686785 1.087712
-3.0855606 0.01411391 1.0008768
-6.2320113 -0.04926075 1.8179173
-3.2584195 0.15839471 1.301825
-3.1857431 0.082074337 1.1920465
-3.1089685 0.011666235 1.0862997
-3.090817 -0.060891576 1.0016186
-3.3114202 0.16269174 1.4079311
-3.2527301 0.084403858 1.2993792
-3.185955 0.0090143997 1.1947298
-3.1261406 -0.066386119 1.0922114
-3.3970656 0.16978106 1.5327052
-3.3285322 0.085584939 1.4168596
-3.2598815 0.0072973613 1.3061206
-3.1872206 -0.073022336 1.1962702
-3.4875381 0.17772536 1.6665881
-3.4062362 0.087682605 1.539394
-3.3208141 0.0045338273 1.4172492
-3.2680907 -0.079785757 1.3117011
-4.7776742 0.26859954 2.3996351
-3.4877901 0.089649901 1.6700008
-3.4113863 0.001534285 1.547935
-3.335963 -0.086595841 1.4268876
-4.649406 0.26187837 2.467135
-4.7730341 0.14347622 2.4042864
-3.4869792 -0.0015010089 1.6773392
-3.4136128 -0.094586924 1.5542401
-4.5746822 0.25893426 2.5587137
-4.6427526 0.13572994 2.4727304
-4.7613745 0.014292285 2.4107337
-3.5000927 -0.10270852 1.6907586
-3.4494982 0.18184696 2.040077
-4.5986519 0.1315355 2.584867
-4.6261163 0.0055463314 2.4780657
-5.0559359 -0.13347505 2.5716302
-4.640769 0.26854631 2.872231
-3.4447048 0.081665114 2.0481777
-4.6374145 -0.0010256618 2.6232076
-4.936337 -0.14248918 2.6572571
-3.502872 0.18963933 2.2853005
-4.631073 0.12929893 2.8825343
-3.4349012 -0.0205524 2.0571485
-4.8296618 -0.15152903 2.7471266
-4.4200873 0.25710621 3.0149407
-3.3083522 0.073869638 2.1735265
-4.6024714 -0.01394365 2.8884096
-3.3489895 -0.13123074 2.0195248
-4.3058882 0.25150749 3.078723
-4.401402 0.11582683 3.025039
-3.2224209 -0.031809524 2.1359932
-3.2491434 -0.13643554 2.0645769
-2.6108968 0.12985376 1.967411
-3.262867 0.068336606 2.3596377
-3.2905514 -0.036321998 2.2902393
-3.213578 -0.14309429 2.1488192
-2.749161 0.14183347 2.1652834
-2.6109052 0.041543111 1.9838192
-4.2673674 -0.036216818 3.1078072
-3.2174888 -0.15211561 2.2617674
-3.9970856 0.23765188 3.2807593
-2.730377 0.044618968 2.1721756
-2.5792501 -0.049574345 1.982578
-2.651958 -0.14195643 1.9632616
-2.4048834 0.12011492 2.074414
-3.975307 0.091254041 3.2967088
-2.500658 -0.053450711 2.0140471
-2.5436897 -0.14563295 1.9771727
-1.9133849 0.084376179 1.7304488
-2.41067 0.030608919 2.1029131
-2.5461671 -0.057683948 2.1478679
-2.5163436 -0.15104608 2.0495875
-1.8638215 0.081639916 1.7604816
-1.8985286 0.010190222 1.7368309
-2.4833102 -0.06175613 2.1936331
-2.4446046 -0.15604188 2.0891674
-1.8181971 0.079863548 1.7936064
-1.8449844 0.0074576791 1.7657888
-1.878677 -0.065013513 1.7431009
-1.9183054 -0.14053503 1.7244705
-1.9609509 0.092372634 2.0185816
-1.8768922 0.0075714774 1.877426
-1.8339628 -0.067876555 1.7812248
-1.866686 -0.14333273 1.7574646
-2.157304 0.10975759 2.3176739
-2.0401304 0.011632711 2.1316419
-1.9551619 -0.07208176 1.9854872
-1.843545 -0.14853254 1.818958
-3.3375916 0.20792541 3.7320271
-2.2520149 0.018588368 2.4578452
-2.1349273 -0.077446401 2.2668514
-2.0215971 -0.16466732 2.0870907
-3.2414975 0.20349957 3.7901678
-3.2928491 0.05344636 3.7474
-3.3500752 -0.093694359 3.7107975
-2.2472854 -0.18494624 2.4290655
-3.1474402 0.1991172 3.8463461
-3.2016227 0.048911907 3.8126323
-3.2558389 -0.10025734 3.7769368
-3.3062515 -0.25627697 3.7320433
-3.0582511 0.19462611 3.9096167
-3.1055324 0.04348629 3.870755
-3.154768 -0.10568281 3.8339658
-3.2129025 -0.26294488 3.8041995
-2.9661522 0.19121449 3.9678504
-3.0113857 0.0380136 3.9319139
-3.059588 -0.1121951 3.8970873
-3.1127422 -0.26945704 3.8662274
-2.8701518 0.18687913 4.0209928
-2.9192159 0.033529818 3.994128
-2.9643853 -0.11772566 3.9612267
-3.0086384 -0.27592927 3.9251812
