# .PCD v0.7 - Point Cloud Data file format
VERSION 0.7
FIELDS x y z
SIZE 4 4 4
TYPE F F F
COUNT 1 1 1
WIDTH 1410
HEIGHT 1
VIEWPOINT 0 0 0 1 0 0 0
POINTS 1410
DATA ascii
-0.99206066 0.14334221 -0.18838465
-1.0198404 0.17141879 -0.075318329
-1.0154423 0.16194524 -0.1055823
-1.01204 0.15347509 -0.13580947
-1.0096977 0.14406294 -0.16903482
-0.02611593 -0.059798401 0.050936799
-1.0340526 0.16465113 -0.085177995
-1.0186496 0.15212052 -0.11470305
-1.0122743 0.14165802 -0.14602229
-1.0620295 0.17982996 -0.033362061
-1.0416354 0.16528171 -0.0630171
-1.0282317 0.15275826 -0.092504576
-1.0088373 0.13821362 -0.12214084
-1.0865934 0.18452087 -0.010809667
-1.0782453 0.17206961 -0.043202169
-1.0388179 0.15239978 -0.070305347
-1.0154133 0.13582303 -0.099053152
-1.0921578 0.18512617 0.012313306
-1.0817951 0.17164984 -0.01913514
-1.0654228 0.1561342 -0.049732707
-1.0320318 0.13652208 -0.078722462
-1.1026946 0.18773101 0.036565918
-1.090359 0.1722659 0.0040441975
-1.0829998 0.15780051 -0.027365893
-1.0576409 0.13925311 -0.058186643
-1.1202263 0.19136079 0.060968097
-1.1068947 0.17489229 0.028409556
-1.0945443 0.15840928 -0.0031305328
-1.0722035 0.13989073 -0.034894556
-1.1357771 0.19500148 0.084333017
-1.1174356 0.17649728 0.05264416
-1.1030895 0.15900728 0.021048471
-1.0877661 0.14053193 -0.011583686
-1.1403042 0.19556703 0.10943653
-1.1319757 0.17811665 0.076953918
-1.1186293 0.16063023 0.045377024
-1.1053096 0.14116222 0.012764435
-1.1697618 0.20318492 0.13713524
-1.1444935 0.18071057 0.10224378
-1.1291552 0.1612173 0.070593268
-1.1148583 0.14076397 0.036944203
-0.02611593 -0.059798401 0.050936799
-1.1520013 0.1812688 0.12840331
-1.1336863 0.16078301 0.095678747
-1.1233888 0.14034404 0.062104844
-1.2096852 0.21233548 0.19306719
-1.1635044 0.1828412 0.15465602
-1.1561834 0.16339473 0.12215617
-1.1399134 0.14095268 0.08743383
-0.02611593 -0.059798401 0.050936799
-1.1839566 0.18740924 0.18313122
-1.1676867 0.16496716 0.14840889
-1.1693867 0.14457124 0.11506048
-1.24853 0.22240992 0.25299704
-1.1994176 0.18995965 0.21147645
-1.1871469 0.16753191 0.17682926
-0.02611593 -0.059798401 0.050936799
-1.255955 0.22489543 0.28319123
-0.02611593 -0.059798401 0.050936799
-1.1856456 0.16604011 0.2037833
-1.1783779 0.1426305 0.16921206
-1.2773285 0.23039451 0.3157019
-1.2501854 0.20000479 0.27563038
-1.217021 0.17057525 0.23646384
-1.2037996 0.14518061 0.19974449
-1.2618523 0.22787072 0.34137517
-1.2705628 0.20450047 0.30810425
-0.02611593 -0.059798401 0.050936799
-0.02611593 -0.059798401 0.050936799
-0.02611593 -0.059798401 0.050936799
-1.2869262 0.20796385 0.34148458
-1.2787079 0.18158734 0.30484116
-1.2435929 0.14918731 0.26358366
-1.3124545 0.24177046 0.41359851
-1.2962947 0.21040229 0.37471533
-1.2930607 0.18302582 0.33914751
-0.02611593 -0.059798401 0.050936799
-3.0944028 0.66342288 0.99178457
-1.340457 0.22080219 0.41774493
-1.3362684 0.19145863 0.38012293
-0.02611593 -0.059798401 0.050936799
-3.0612411 0.65916896 1.0541079
-3.1147256 0.5995779 0.98700857
-1.3157822 0.18689913 0.40666586
-0.02611593 -0.059798401 0.050936799
-3.0697327 0.6647746 1.1333952
-3.0874689 0.59525502 1.0544429
-3.1280236 0.53267217 0.98404628
-1.3219364 0.15696193 0.40423876
-3.0464823 0.66348368 1.199959
-3.1555133 0.61169434 1.1560487
-3.0868227 0.52433586 1.0491462
-3.1324151 0.45678991 0.97775382
-3.0172555 0.66118944 1.2653925
-3.2195017 0.62806493 1.2605783
-3.1499062 0.53577614 1.1495683
-3.0872042 0.44642153 1.0437421
-2.9711788 0.65496159 1.3234369
-3.2715235 0.64141113 1.3638287
-3.2238073 0.55009258 1.259248
-3.151258 0.45582953 1.1461462
-2.9330552 0.65072584 1.383667
-3.3323441 0.65760815 1.4772989
-3.284719 0.56236261 1.3686475
-3.2231414 0.46510339 1.2576977
-2.8979273 0.64750075 1.4439713
-3.3297188 0.66004825 1.5633231
-3.3683445 0.57946122 1.4925644
-3.2909846 0.47532663 1.3711913
-2.8657613 0.64425021 1.5063314
-3.2537084 0.64774984 1.6186962
-3.4508579 0.59644765 1.6224607
-3.369612 0.48738998 1.4959238
-2.8325915 0.64199591 1.5686908
-3.2242942 0.64527476 1.6941262
-3.7134926 0.648435 1.8473945
-3.4610045 0.50128263 1.6329328
-2.8014174 0.64074868 1.6311057
-3.1760683 0.63889498 1.7601303
-3.7035763 0.64856088 1.9492457
-4.4139919 0.65585637 2.1987631
-2.7692435 0.63949782 1.6935018
-3.1664252 0.64129186 1.8470227
-3.6738443 0.6457783 2.0416701
-4.4283848 0.65842026 2.337126
-2.7321308 0.63728338 1.752787
-3.1171989 0.63490844 1.9130079
-3.5076518 0.61586183 2.0560222
-4.4852567 0.66766697 2.502414
-2.69206 0.6340946 1.8099984
-3.0907166 0.63538939 1.9915475
-3.599488 0.63725019 2.2211843
-3.4493651 0.49890509 2.0398097
-2.6598861 0.63284373 1.8723946
-3.0681589 0.63581228 2.0741606
-3.5627801 0.63346076 2.3124595
-4.579782 0.68487525 2.8446109
-2.6207922 0.63064027 1.9306425
-3.0169291 0.63042152 2.1401265
-3.1648252 0.55962104 2.1606216
-3.5607374 0.52000242 2.3363769
-2.5846565 0.62941128 1.9909642
-2.9598358 0.62413609 2.1989636
-2.6331248 0.45834237 1.8927439
-4.3875561 0.65796292 3.0195844
-2.5416198 0.62724769 2.046138
-2.8367345 0.60249919 2.2072704
-3.4327865 0.62314701 2.5789294
-2.6260638 0.36893439 1.9130012
-2.497587 0.62408078 2.1012752
-2.8958583 0.62404042 2.3568177
-2.7872274 0.49840981 2.200458
-2.5562654 0.3598741 1.9565454
-2.4574895 0.62287354 2.1595221
-2.8377235 0.61871499 2.4176536
-3.3631022 0.62134624 2.7746587
-2.4747019 0.34898815 1.987832
-1.9134065 0.47790024 1.7605779
-2.3598688 0.51042378 2.1066425
-3.3183684 0.61950964 2.8668191
-2.4177806 0.34186566 2.0376544
-1.8442376 0.46643752 1.7710791
-1.878742 0.39880624 1.7574971
-1.913257 0.33319274 1.7429515
-2.3648136 0.336721 2.0895872
-1.8163028 0.46643597 1.8205727
-1.8311484 0.3940413 1.7895306
-1.8518463 0.32554087 1.765671
-1.8824115 0.25694969 1.7489967
-1.9833952 0.52657431 2.0718744
-1.9071181 0.42051613 1.946485
-1.8248212 0.32445264 1.8201638
-1.8337431 0.25210881 1.7850103
-2.1736472 0.59401971 2.3667562
-2.0759609 0.47239175 2.2126746
-1.9938307 0.36745641 2.0791938
-1.9184618 0.27034593 1.9569846
-2.1941972 0.6138193 2.493542
-2.4343398 0.57588422 2.7084248
-2.2036135 0.41946959 2.4021719
-2.10885 0.30781445 2.2503266
-2.1305399 0.60692489 2.5292377
-2.4995465 0.60559881 2.9052501
-3.2858009 0.67068523 3.7384305
-3.3356338 0.53317404 3.72087
-2.0786357 0.60485572 2.5772448
-2.4374609 0.60231298 2.9630477
-3.1661811 0.65659112 3.7729475
-3.2403638 0.52557147 3.7889719
-2.0325952 0.60368121 2.63238
-2.3792398 0.59991467 3.0279362
-3.0495379 0.64348948 3.8085389
-3.1440418 0.51691115 3.8600359
-1.9816498 0.60257918 2.6824234
-2.3142145 0.59567255 3.0826607
-2.9641688 0.63683218 3.881845
-3.0448515 0.50836676 3.924046
-1.9287308 0.59948844 2.7313933
-2.2530501 0.59331775 3.1444938
-2.8632033 0.6284976 3.9338214
-2.9407558 0.49989492 3.9829636
-1.8699442 0.59650284 2.7732525
-2.1850629 0.58910102 3.1971624
-2.7807324 0.62376028 4.012218
-2.8464632 0.49327764 4.0521021
-1.8218817 0.59630293 2.8293684
-2.1209366 0.58677155 3.2569401
-2.6963136 0.62006992 4.0875964
-2.7462654 0.48672935 4.1161294
-1.7640723 0.59430259 2.8722644
-2.0510058 0.58260202 3.306572
-2.5992877 0.61269528 4.1426654
-2.6471422 0.48025689 4.176177
-1.7091687 0.59222263 2.9202149
-2.0023434 0.58684045 3.3937671
-2.5022202 0.60628438 4.1997514
-2.5498648 0.47464684 4.2442775
-1.6474575 0.58929855 2.9580197
-1.9159225 0.57808089 3.4169986
-2.4080133 0.60175723 4.2639275
-2.4497004 0.46913457 4.3063231
-1.5896107 0.58726209 3.0029149
-1.8613623 0.58038861 3.4990466
-2.3157685 0.59720117 4.3301406
-2.348521 0.46260071 4.3693318
-1.5298243 0.5842728 3.0447557
-1.7777795 0.57449466 3.530386
-2.2215393 0.59365571 4.3953338
-2.2541194 0.4598923 4.4435406
-1.4718759 0.58414555 3.0946853
-1.7028873 0.5703432 3.5779247
-2.1282907 0.59009588 4.4615459
-2.1509514 0.45536909 4.505548
-1.4111044 0.58217061 3.1355255
-1.6404412 0.57273078 3.6538241
-2.0282159 0.58567381 4.5186119
-2.049746 0.45081678 4.5695925
-1.3492918 0.58115572 3.1783645
-1.5597975 0.56779313 3.6882367
-1.9329637 0.58310652 4.5848045
-1.9475367 0.44726083 4.633636
-1.0119541 0.4395206 2.5282662
-0.99857825 0.35777375 2.5105309
-0.98908842 0.28094995 2.4979594
-0.97858006 0.20410439 2.4863687
-0.923334 0.41743159 2.4581835
-0.91369051 0.34146291 2.4536276
-0.90219313 0.26663157 2.4410543
-0.88972962 0.19283262 2.4264812
-0.84633243 0.40104091 2.4074283
-0.82997495 0.32431859 2.3877275
-0.81744736 0.25246507 2.3761892
-0.80581808 0.18252434 2.3697042
-0.77140939 0.38372993 2.3526938
-0.75496525 0.30993474 2.3370459
-0.7376405 0.2392621 2.3144352
-0.7269057 0.172234 2.3130214
-0.69863963 0.36557102 2.2899816
-0.68110895 0.29469937 2.2783673
-0.66465604 0.2279211 2.2618461
-0.64910543 0.16205576 2.2503595
-0.63445538 0.35206369 2.2485216
-0.61497343 0.2832388 2.2339067
-0.59561467 0.21654017 2.2123306
-0.57999611 0.15362009 2.2038972
-0.57228953 0.33858159 2.2060995
-0.5508976 0.27083984 2.1864669
-0.53239197 0.20801747 2.171979
-0.51388228 0.14619499 2.1575093
-0.512142 0.3251248 2.1627152
-0.49166328 0.26031375 2.1471543
-0.47216865 0.19950557 2.1316838
-0.45167026 0.13969365 2.1162131
-0.45779443 0.31450814 2.1294942
-0.43436849 0.25074041 2.1108961
-0.41398239 0.19103701 2.089427
-0.39243892 0.13318497 2.0759726
-0.40260464 0.30203295 2.0882213
-0.38012925 0.24123211 2.0716951
-0.35858181 0.18437991 2.0582588
-0.33801547 0.1275132 2.045841
-0.35127518 0.29144511 2.0540571
-0.32773206 0.23358589 2.0405655
-0.30616194 0.17771547 2.0281465
-0.2846067 0.12286291 2.0147462
-0.3037273 0.28367215 2.0310187
-0.28008661 0.22672236 2.022543
-0.26183301 0.17723194 2.0453138
-0.24156892 0.1257166 2.0690105
-0.2614955 0.28228644 2.0432069
-0.24013405 0.23167689 2.0719011
-0.22067468 0.18198392 2.1056497
-0.19835481 0.13040714 2.1323075
-0.2234076 0.28812137 2.0996187
-0.19983663 0.23830552 2.1392896
-0.17638586 0.18659851 2.1729267
-0.15183772 0.13579734 2.2115612
-0.1821626 0.29580054 2.1640072
-0.15579119 0.24315527 2.1935713
-0.02611593 -0.059798401 0.050936799
-0.23281512 0.48743054 6.1377687
-0.13992169 0.3024762 2.2283587
-0.18256059 0.52465343 4.2278543
-0.1450291 0.50751615 5.0041046
-0.085722722 0.48377687 6.1419501
-0.13776448 0.54739326 3.7332587
-0.088978499 0.52374083 4.2580953
-0.029777147 0.50483245 5.016902
0.061144978 0.48034027 6.1341357
-0.056532905 0.54285002 3.7456598
0.0063894466 0.52102035 4.2772675
0.087298073 0.5003047 5.0206299
0.21514657 0.49598172 6.3426061
0.023897879 0.54112887 3.7681305
0.10285866 0.5202055 4.3014545
0.20353502 0.49863532 5.0324273
0.36909181 0.49344748 6.338676
0.10540729 0.54033166 3.7945991
0.19899783 0.51669866 4.3085933
0.32190663 0.49783197 5.0512028
0.50553876 0.47527701 6.1517296
0.18880008 0.53863603 3.8150139
0.29744795 0.51589471 4.3317437
0.43837485 0.49188346 5.0229049
0.63539195 0.45975125 5.9859614
0.27444372 0.53869766 3.8484228
0.39672545 0.51425016 4.3458595
0.56138313 0.4954679 5.0746841
0.75805527 0.44343174 5.8103104
0.3585102 0.53530633 3.8517888
0.49804008 0.51256227 4.3619375
-0.02611593 -0.059798401 0.050936799
-0.02611593 -0.059798401 0.050936799
0.44705576 0.53444779 3.8801248
0.59910738 0.51010966 4.3650026
-0.02611593 -0.059798401 0.050936799
0.98272359 0.41555959 5.4764867
-0.02611593 -0.059798401 0.050936799
-0.02611593 -0.059798401 0.050936799
-0.02611593 -0.059798401 0.050936799
0.2598649 0.058642872 1.4081851
0.16604149 0.11486426 1.1948864
-0.02611593 -0.059798401 0.050936799
0.26622894 0.089380912 1.4216264
0.29488111 0.059498996 1.408545
-0.02611593 -0.059798401 0.050936799
0.26938364 0.11932887 1.4241099
1.1834983 0.49506292 5.1280475
1.2782049 0.37948924 5.0271497
0.26853517 0.14829135 1.4266505
1.0170007 0.50667262 4.4091311
1.2749844 0.48107976 4.996037
1.3643667 0.36884937 4.8772931
0.89068043 0.52113616 3.9115889
1.1208988 0.50437212 4.403142
1.3645644 0.46701354 4.8690624
1.4520041 0.3597531 4.7524447
0.9871161 0.5213573 3.933795
1.2440313 0.51084751 4.4609733
1.4481493 0.45396852 4.7422185
1.5366046 0.35070392 4.6256542
1.0801474 0.51896966 3.9350102
1.3561232 0.510337 4.4648671
1.5299112 0.44276765 4.624445
-0.02611593 -0.059798401 0.050936799
1.1773919 0.5183683 3.9471831
1.486217 0.51682353 4.5205674
1.6118641 0.43238562 4.5166864
0.38058278 0.034125395 1.0773692
1.2745613 0.51783925 3.9553571
1.5770867 0.5105437 4.4607325
-0.02611593 -0.059798401 0.050936799
0.4965696 0.053938739 1.2846264
1.371577 0.51645517 3.9555154
-0.02611593 -0.059798401 0.050936799
0.49787351 0.078731924 1.2960542
1.8358624 0.32487082 4.1624274
-0.02611593 -0.059798401 0.050936799
0.49092379 0.10078949 1.2945828
1.8285446 0.4025245 4.1839767
1.900703 0.31867582 4.0480628
0.4179627 0.099899448 1.1378796
1.8109922 0.47743165 4.1936631
1.8892955 0.39241683 4.0656161
1.9687757 0.31425256 3.9456735
0.50977027 0.11993513 1.2825723
1.8780338 0.46501336 4.0911489
1.9584686 0.38488203 3.9691522
2.036942 0.30973893 3.8482823
1.8162578 0.52319938 4.0393405
1.9420983 0.45358759 3.9897082
2.0205491 0.37746277 3.867821
2.0969973 0.30536249 3.745044
1.9055023 0.51656491 3.9995358
2.003201 0.44213644 3.8903234
2.0795891 0.36909065 3.7645292
2.1602848 0.30275792 3.6537807
1.9719449 0.50577009 3.9180689
2.0623679 0.43263784 3.7940114
2.1460552 0.36429471 3.6831706
2.2236092 0.30011719 3.5645175
2.0393794 0.49297193 3.8365474
2.1247256 0.42394745 3.7076573
2.2053127 0.35872307 3.590929
2.2787635 0.29666811 3.4663889
2.0965726 0.48044482 3.742218
2.1860642 0.41527867 3.6203225
2.2584741 0.35226363 3.4937837
2.3381302 0.29500535 3.3792181
2.1518033 0.46788874 3.6499255
2.2402883 0.40574378 3.5271032
2.320941 0.34748206 3.4125004
2.3965347 0.29330999 3.2940648
2.2101872 0.456177 3.5655918
2.2976696 0.39805308 3.4418607
2.3793337 0.34278721 3.3272934
2.449861 0.29070511 3.2049892
2.2717059 0.44532773 3.4882176
2.35307 0.39035136 3.3576555
2.4296343 0.33821157 3.2372382
2.5083444 0.28993726 3.1238527
2.3240385 0.43469164 3.401016
2.4085114 0.38361335 3.2754676
2.4851477 0.33541864 3.1581213
2.5607917 0.28922707 3.0408297
2.3774874 0.42494324 3.3198111
2.4629722 0.37686095 3.1942985
2.5385828 0.33170536 3.0750258
2.6132429 0.28951675 2.9578249
2.4309549 0.41517681 3.2396064
2.5144372 0.37111899 3.1132038
2.5910552 0.3279596 2.993948
2.6687868 0.28970525 2.8797619
2.4813859 0.40545726 3.1574588
2.5658793 0.36439538 3.031091
2.6476662 0.32607242 2.9198289
2.7192717 0.28896606 2.7987759
2.5328579 0.39669782 3.0773094
2.6215014 0.36049405 2.9579542
2.6940877 0.32340223 2.8358831
2.7718201 0.29016513 2.7207873
2.5885015 0.38876098 3.0060997
2.6689672 0.35476655 2.8769345
2.7435837 0.32064888 2.7558794
2.8193095 0.29043654 2.6398757
2.6369967 0.38099402 2.9270244
2.7144332 0.34904617 2.7959526
2.7941582 0.31881946 2.6798737
2.8678172 0.29068634 2.5599451
2.6865478 0.37316915 2.8509295
2.7710922 0.34510505 2.7247961
2.841677 0.31705505 2.6009252
2.9600747 0.29707503 2.5183194
2.7371399 0.36630443 2.7768331
2.8196406 0.34130126 2.6477921
2.8932927 0.31618571 2.5269182
3.0228353 0.3000389 2.451175
2.7846541 0.35852292 2.698776
2.8600888 0.33561692 2.5659046
2.9906392 0.32146624 2.4901783
3.0693326 0.30231363 2.3703179
2.8302097 0.35171232 2.6227744
2.9472902 0.33706069 2.5222831
3.0341213 0.31975237 2.409306
3.1158633 0.30355227 2.2914426
2.877784 0.34487638 2.5477345
3.012151 0.33690932 2.4610455
3.0857222 0.31990093 2.3343172
3.1704755 0.30668959 2.2164514
2.979264 0.34599859 2.5188451
3.0576584 0.33215261 2.3820803
3.1343012 0.31907848 2.2583671
3.2200699 0.30986285 2.1405544
3.0227451 0.33926743 2.4388821
3.111326 0.33022195 2.3110168
3.1859019 0.31922704 2.1833782
3.2625678 0.31215191 2.0597727
3.0713418 0.3334097 2.3648412
3.1589012 0.32840329 2.2350674
3.2324662 0.3194297 2.1064839
4.4724483 0.44570225 2.6547382
3.1179237 0.32857707 2.2898562
3.2034314 0.3246319 2.1571388
3.2881491 0.32149118 2.0354548
4.5365009 0.45034611 2.5495872
3.1594093 0.32285294 2.2099488
3.2570844 0.32371917 2.0850935
4.4664164 0.4507325 2.5989232
4.6844244 0.46487626 2.48806
3.22018 0.31878898 2.1447155
4.554224 0.4657653 2.7446005
4.6831517 0.46923986 2.5791934
4.6525145 0.4597674 2.3345129
3.258666 0.31307563 2.0648644
4.5069933 0.44998348 2.5761421
4.5925732 0.4539561 2.3925495
4.7185707 0.46540394 2.2293425
4.5424728 0.44645938 2.7084591
4.7863359 0.47268867 2.5873265
4.6616731 0.45652813 2.2902675
4.984355 0.4937157 2.2098718
4.6246972 0.44284099 2.613822
4.615972 0.44541416 2.3619466
4.9326134 0.48165962 2.2796462
4.952487 0.48957053 2.0583417
4.7604775 0.44450688 2.5472875
4.6891155 0.44491813 2.2625344
4.8926749 0.47359809 2.1251953
5.1605468 0.51277524 2.001847
4.6254892 0.41874468 2.341279
5.011466 0.47146827 2.2729831
5.0886946 0.49086496 2.0678184
5.1851487 0.51599354 1.8734013
4.7026768 0.41518047 2.2447367
4.9049535 0.45317009 2.0905845
5.2019601 0.49913338 1.9728152
5.1906123 0.51640713 1.7382606
5.0007567 0.43405327 2.2424965
5.1755219 0.47464597 2.0608969
5.27388 0.50387514 1.8605163
5.2092161 0.51964706 1.6099273
4.9063506 0.41460365 2.0658524
5.49827 0.50077152 2.0393198
5.339726 0.50871086 1.7443316
5.2409558 0.52471334 1.4883835
5.2182636 0.43458888 2.0543699
5.5760794 0.50158292 1.9218378
5.4095716 0.51353228 1.6280717
5.2193646 0.52427834 1.3507333
5.9891758 0.49612591 2.1900954
5.6518373 0.50345564 1.8014123
5.4803834 0.51938587 1.5098118
5.2320061 0.52750355 1.2245122
6.101934 0.49484822 2.0699205
5.7416525 0.50622356 1.683741
5.5411181 0.52434814 1.387723
5.2476931 0.53268152 1.10027
6.2397966 0.49738967 1.9543463
5.8142796 0.50823367 1.5563743
5.6108742 0.53025967 1.2664828
5.2272134 0.53213435 0.96859896
6.352427 0.49723843 1.8271917
5.8969646 0.51115334 1.4318368
5.6594992 0.53537351 1.1386216
5.2610021 0.54015666 0.84907085
6.5092192 0.50178367 1.7072978
5.9775577 0.51417071 1.3023386
5.6810002 0.53669333 1.0051976
5.3007483 0.54719388 0.72741276
6.6347399 0.50269419 1.5739188
6.0541353 0.51822031 1.1719339
5.7105274 0.53996617 0.87265909
-0.02611593 -0.059798401 0.050936799
6.7671871 0.50465167 1.436428
6.1045532 0.51850867 1.0339485
5.6909308 0.53852403 0.73495322
5.2830596 0.55378056 0.47677815
6.875463 0.50485843 1.290355
6.1619401 0.52080768 0.89386815
5.7445436 0.54563767 0.60603452
5.2537017 0.55515683 0.35131022
7.0158052 0.50889546 1.1467516
6.1942663 0.52125108 0.75122249
5.9473791 0.56803286 0.48460078
3.5733395 0.36295071 0.17223355
7.1198716 0.50831568 0.98973966
6.2125549 0.52078104 0.60682267
5.9537754 0.57051492 0.34547877
3.5357611 0.36159986 0.08888445
7.2489676 0.51162761 0.83332944
6.0164065 0.50046247 0.44507274
3.536618 0.31661245 0.14307299
2.9990163 0.3010684 0.012813008
6.1414518 0.4187372 0.568295
6.0127478 0.49801746 0.30404922
3.5430665 0.319085 0.059968811
3.0187404 0.30724034 -0.056468118
5.9764032 0.40121642 0.41101485
3.5299401 0.26811266 0.11631164
3.0244396 0.26539728 -0.011316416
3.0264211 0.31149185 -0.12755913
6.1248822 0.40709779 0.274295
3.0411706 0.22247867 0.03560989
3.0581198 0.27055529 -0.082877949
2.6614389 0.27065569 -0.16847822
-0.02611593 -0.059798401 0.050936799
3.0518391 0.22371994 -0.035591539
3.0547721 0.27186489 -0.15481596
2.6882591 0.2777119 -0.23287454
3.0576222 0.1697523 0.016341571
3.0914538 0.22691105 -0.11030083
2.6628735 0.23205312 -0.19121106
2.7240071 0.28580797 -0.30142066
3.084265 0.16995439 -0.056178182
2.7343891 0.1941534 -0.15722407
2.714618 0.24009177 -0.26005775
2.009387 0.19881032 -0.25759989
3.1238346 0.17118201 -0.13292283
2.6003513 0.18260972 -0.20894089
2.7483354 0.24521361 -0.32962
2.331666 0.24341276 -0.36086199
2.7128775 0.13952753 -0.17381507
2.7469339 0.19646922 -0.28846154
2.3381066 0.20281915 -0.32970631
2.3625267 0.25141826 -0.42331615
2.7535629 0.14164285 -0.24456252
2.7516594 0.19767775 -0.35655126
2.3599946 0.20782128 -0.39004609
2.3843849 0.2584562 -0.48561922
2.7822468 0.14280143 -0.31510252
2.3624544 0.16220675 -0.35690603
2.3898256 0.21284895 -0.45353514
2.5536399 0.28559273 -0.58533102
2.3510239 0.11051682 -0.31661341
2.3893001 0.16622725 -0.41935706
2.4515011 0.22292376 -0.52653241
2.6161962 0.29879004 -0.66529059
2.3868229 0.11254156 -0.38126892
2.4190707 0.17030936 -0.48586318
2.6903656 0.25418827 -0.64848036
2.4985714 0.28779081 -0.69529748
2.4275496 0.11562053 -0.44999906
2.734659 0.20155072 -0.62325329
2.5796125 0.24429034 -0.68559843
-0.02611593 -0.059798401 0.050936799
2.5628898 0.12473743 -0.54139906
2.6686735 0.1967257 -0.67412239
2.4769366 0.23529124 -0.71885014
2.4077559 0.28586555 -0.79066437
2.8284967 0.14410605 -0.67506683
2.5469973 0.18679492 -0.70703506
2.4270351 0.23333587 -0.76596719
-0.02611593 -0.059798401 0.050936799
2.7286031 0.13731289 -0.72033477
2.4373641 0.17878458 -0.7381379
2.4288294 0.2375004 -0.83094746
0.19043069 -0.028102754 -0.034573175
2.5233572 0.12326822 -0.72874898
2.4312041 0.17992406 -0.80002296
-0.02611593 -0.059798401 0.050936799
-0.02611593 -0.059798401 0.050936799
2.5916936 0.12862624 -0.8189621
-0.02611593 -0.059798401 0.050936799
0.18835525 -0.03304046 -0.037624672
0.16540475 -0.03099443 -0.035157122
3.0455191 0.1620473 -1.0519334
0.1913725 -0.038086552 -0.035771802
-0.02611593 -0.059798401 0.050936799
-0.02611593 -0.059798401 0.050936799
-0.02611593 -0.059798401 0.050936799
-0.02611593 -0.059798401 0.050936799
0.15838246 -0.036968291 -0.035133697
0.14339699 -0.033914965 -0.034797784
0.18434629 -0.04506024 -0.0357664
0.17229323 -0.039945666 -0.039449476
-0.02611593 -0.059798401 0.050936799
-0.02611593 -0.059798401 0.050936799
-0.02611593 -0.059798401 0.050936799
-0.02611593 -0.059798401 0.050936799
0.13737845 -0.038892582 -0.034775134
0.12935819 -0.034828376 -0.036552072
0.15734336 -0.046962999 -0.035295092
0.14830849 -0.041877281 -0.038034875
-0.02611593 -0.059798401 0.050936799
-0.02611593 -0.059798401 0.050936799
-0.02611593 -0.059798401 0.050936799
-0.02611593 -0.059798401 0.050936799
0.11939654 -0.039845902 -0.033455271
0.10840642 -0.037806761 -0.033212539
0.13634329 -0.047887459 -0.034918509
0.12928538 -0.043790665 -0.038713556
-0.02611593 -0.059798401 0.050936799
-0.02611593 -0.059798401 0.050936799
-0.02611593 -0.059798401 0.050936799
-0.02611593 -0.059798401 0.050936799
0.1033916 -0.041788135 -0.033190656
0.098370798 -0.037734695 -0.03502395
0.1143769 -0.049844347 -0.032541838
0.1172462 -0.044711251 -0.040505413
-0.02611593 -0.059798401 0.050936799
-0.02611593 -0.059798401 0.050936799
-0.02611593 -0.059798401 0.050936799
-0.02611593 -0.059798401 0.050936799
0.09138988 -0.042744901 -0.032983191
0.087364949 -0.039694875 -0.034853294
0.10334146 -0.049768686 -0.034334458
0.097320825 -0.045711659 -0.036148977
-0.02611593 -0.059798401 0.050936799
-0.02611593 -0.059798401 0.050936799
-0.02611593 -0.059798401 0.050936799
-0.02611593 -0.059798401 0.050936799
0.080387972 -0.043705251 -0.032794513
0.07341975 -0.040698729 -0.03160926
0.090321191 -0.050703771 -0.03510787
0.089262195 -0.046628509 -0.039015647
-0.02611593 -0.059798401 0.050936799
-0.02611593 -0.059798401 0.050936799
-0.02611593 -0.059798401 0.050936799
-0.02611593 -0.059798401 0.050936799
0.068423681 -0.044698194 -0.030587722
0.06834577 -0.040608428 -0.03551396
0.078338183 -0.051678624 -0.03390073
0.076279379 -0.04759977 -0.037789728
-0.02611593 -0.059798401 0.050936799
-0.02611593 -0.059798401 0.050936799
-0.02611593 -0.059798401 0.050936799
-0.02611593 -0.059798401 0.050936799
0.062383406 -0.045640312 -0.032492321
0.057396099 -0.042622875 -0.032344311
0.071283303 -0.051599234 -0.036768191
0.064333804 -0.048610799 -0.034583274
-0.02611593 -0.059798401 0.050936799
-0.02611593 -0.059798401 0.050936799
-0.02611593 -0.059798401 0.050936799
-0.02611593 -0.059798401 0.050936799
0.054366145 -0.045593511 -0.03334165
0.051378485 -0.042583253 -0.033231221
0.06130385 -0.051581435 -0.035580624
0.060259655 -0.048524089 -0.038506757
-0.02611593 -0.059798401 0.050936799
-0.02611593 -0.059798401 0.050936799
-0.02611593 -0.059798401 0.050936799
-0.02611593 -0.059798401 0.050936799
0.047363501 -0.046568215 -0.033228133
0.044394549 -0.043576051 -0.032118052
0.053282667 -0.052534465 -0.03644798
0.052242391 -0.048477288 -0.039356101
-0.02611593 -0.059798401 0.050936799
-0.02611593 -0.059798401 0.050936799
-0.02611593 -0.059798401 0.050936799
-0.02611593 -0.059798401 0.050936799
0.039402403 -0.046575684 -0.031078488
0.03935802 -0.043521926 -0.034023419
0.047283765 -0.052512929 -0.036335237
0.042315185 -0.049513586 -0.035187569
-0.02611593 -0.059798401 0.050936799
-0.02611593 -0.059798401 0.050936799
-0.02611593 -0.059798401 0.050936799
-0.02611593 -0.059798401 0.050936799
0.035346974 -0.046507061 -0.034002312
0.032374099 -0.044514727 -0.032910239
0.039285224 -0.052484218 -0.036184911
0.037297376 -0.049477551 -0.036093276
-0.02611593 -0.059798401 0.050936799
-0.02611593 -0.059798401 0.050936799
-0.02611593 -0.059798401 0.050936799
-0.02611593 -0.059798401 0.050936799
0.029344141 -0.047485359 -0.033907589
0.029303683 -0.04343177 -0.036834501
0.032301303 -0.053477019 -0.035071738
0.032242123 -0.049405344 -0.03899831
-0.02611593 -0.059798401 0.050936799
-0.02611593 -0.059798401 0.050936799
-0.02611593 -0.059798401 0.050936799
-0.02611593 -0.059798401 0.050936799
-0.02611593 -0.059798401 0.050936799
0.022357207 -0.044460751 -0.033721998
0.027283493 -0.053440984 -0.035977446
-0.02611593 -0.059798401 0.050936799
-0.02611593 -0.059798401 0.050936799
-0.02611593 -0.059798401 0.050936799
-0.02611593 -0.059798401 0.050936799
-0.02611593 -0.059798401 0.050936799
-0.02611593 -0.059798401 0.050936799
-0.02611593 -0.059798401 0.050936799
0.022246966 -0.053386863 -0.037882809
0.022187784 -0.049315188 -0.04180938
-0.02611593 -0.059798401 0.050936799
-0.02611593 -0.059798401 0.050936799
-0.02611593 -0.059798401 0.050936799
-0.02611593 -0.059798401 0.050936799
-0.02611593 -0.059798401 0.050936799
0.014265056 -0.04434159 -0.038569987
0.01722916 -0.053350829 -0.038788524
-0.02611593 -0.059798401 0.050936799
-0.02611593 -0.059798401 0.050936799
-0.02611593 -0.059798401 0.050936799
-0.02611593 -0.059798401 0.050936799
-0.02611593 -0.059798401 0.050936799
-0.02611593 -0.059798401 0.050936799
-0.02611593 -0.059798401 0.050936799
-0.02611593 -0.059798401 0.050936799
-0.02611593 -0.059798401 0.050936799
-0.02611593 -0.059798401 0.050936799
-0.02611593 -0.059798401 0.050936799
-0.02611593 -0.059798401 0.050936799
-0.02611593 -0.059798401 0.050936799
-0.02611593 -0.059798401 0.050936799
-0.02611593 -0.059798401 0.050936799
-0.02611593 -0.059798401 0.050936799
-0.02611593 -0.059798401 0.050936799
-0.02611593 -0.059798401 0.050936799
-0.02611593 -0.059798401 0.050936799
-0.02611593 -0.059798401 0.050936799
-0.02611593 -0.059798401 0.050936799
-0.02611593 -0.059798401 0.050936799
-0.02611593 -0.059798401 0.050936799
-0.02611593 -0.059798401 0.050936799
-0.02611593 -0.059798401 0.050936799
-0.02611593 -0.059798401 0.050936799
-0.02611593 -0.059798401 0.050936799
-0.02611593 -0.059798401 0.050936799
-0.02611593 -0.059798401 0.050936799
-0.02611593 -0.059798401 0.050936799
-0.02611593 -0.059798401 0.050936799
-0.02611593 -0.059798401 0.050936799
-0.02611593 -0.059798401 0.050936799
-0.02611593 -0.059798401 0.050936799
-0.02611593 -0.059798401 0.050936799
-0.02611593 -0.059798401 0.050936799
-0.02611593 -0.059798401 0.050936799
-0.02611593 -0.059798401 0.050936799
-0.02611593 -0.059798401 0.050936799
-0.02611593 -0.059798401 0.050936799
-0.02611593 -0.059798401 0.050936799
-0.02611593 -0.059798401 0.050936799
-0.02611593 -0.059798401 0.050936799
-0.02611593 -0.059798401 0.050936799
-0.02611593 -0.059798401 0.050936799
-0.02611593 -0.059798401 0.050936799
-0.02611593 -0.059798401 0.050936799
-0.02611593 -0.059798401 0.050936799
-0.02611593 -0.059798401 0.050936799
-0.02611593 -0.059798401 0.050936799
-0.02611593 -0.059798401 0.050936799
-0.02611593 -0.059798401 0.050936799
-0.02611593 -0.059798401 0.050936799
-0.02611593 -0.059798401 0.050936799
-0.02611593 -0.059798401 0.050936799
-0.02611593 -0.059798401 0.050936799
-0.02611593 -0.059798401 0.050936799
-0.02611593 -0.059798401 0.050936799
-0.02611593 -0.059798401 0.050936799
-0.02611593 -0.059798401 0.050936799
-0.02611593 -0.059798401 0.050936799
-0.02611593 -0.059798401 0.050936799
-0.02611593 -0.059798401 0.050936799
-0.02611593 -0.059798401 0.050936799
-0.02611593 -0.059798401 0.050936799
-0.02611593 -0.059798401 0.050936799
-0.02611593 -0.059798401 0.050936799
-0.02611593 -0.059798401 0.050936799
-0.02611593 -0.059798401 0.050936799
-0.02611593 -0.059798401 0.050936799
-0.02611593 -0.059798401 0.050936799
-0.02611593 -0.059798401 0.050936799
-0.02611593 -0.059798401 0.050936799
-0.02611593 -0.059798401 0.050936799
-0.02611593 -0.059798401 0.050936799
-0.02611593 -0.059798401 0.050936799
-0.02611593 -0.059798401 0.050936799
-0.02611593 -0.059798401 0.050936799
-0.02611593 -0.059798401 0.050936799
-0.02611593 -0.059798401 0.050936799
-0.02611593 -0.059798401 0.050936799
-0.02611593 -0.059798401 0.050936799
-0.02611593 -0.059798401 0.050936799
-0.02611593 -0.059798401 0.050936799
-0.02611593 -0.059798401 0.050936799
-0.02611593 -0.059798401 0.050936799
-0.02611593 -0.059798401 0.050936799
-0.02611593 -0.059798401 0.050936799
-0.02611593 -0.059798401 0.050936799
-0.02611593 -0.059798401 0.050936799
-0.02611593 -0.059798401 0.050936799
-0.02611593 -0.059798401 0.050936799
-0.02611593 -0.059798401 0.050936799
-0.02611593 -0.059798401 0.050936799
-0.02611593 -0.059798401 0.050936799
-0.02611593 -0.059798401 0.050936799
-0.02611593 -0.059798401 0.050936799
-0.02611593 -0.059798401 0.050936799
-0.02611593 -0.059798401 0.050936799
-0.02611593 -0.059798401 0.050936799
-0.02611593 -0.059798401 0.050936799
-0.02611593 -0.059798401 0.050936799
-0.02611593 -0.059798401 0.050936799
-0.02611593 -0.059798401 0.050936799
-0.02611593 -0.059798401 0.050936799
-0.02611593 -0.059798401 0.050936799
-0.02611593 -0.059798401 0.050936799
-0.02611593 -0.059798401 0.050936799
-0.02611593 -0.059798401 0.050936799
-0.02611593 -0.059798401 0.050936799
-0.02611593 -0.059798401 0.050936799
-0.02611593 -0.059798401 0.050936799
-0.02611593 -0.059798401 0.050936799
-0.02611593 -0.059798401 0.050936799
-0.02611593 -0.059798401 0.050936799
-0.02611593 -0.059798401 0.050936799
-0.02611593 -0.059798401 0.050936799
-0.02611593 -0.059798401 0.050936799
-0.02611593 -0.059798401 0.050936799
-0.02611593 -0.059798401 0.050936799
-0.02611593 -0.059798401 0.050936799
-0.02611593 -0.059798401 0.050936799
-0.02611593 -0.059798401 0.050936799
-0.02611593 -0.059798401 0.050936799
-0.02611593 -0.059798401 0.050936799
-0.02611593 -0.059798401 0.050936799
-0.02611593 -0.059798401 0.050936799
-0.02611593 -0.059798401 0.050936799
-0.02611593 -0.059798401 0.050936799
-0.02611593 -0.059798401 0.050936799
-0.02611593 -0.059798401 0.050936799
-0.02611593 -0.059798401 0.050936799
-0.02611593 -0.059798401 0.050936799
-0.02611593 -0.059798401 0.050936799
-0.02611593 -0.059798401 0.050936799
-0.02611593 -0.059798401 0.050936799
-0.02611593 -0.059798401 0.050936799
-0.02611593 -0.059798401 0.050936799
-0.02611593 -0.059798401 0.050936799
-0.02611593 -0.059798401 0.050936799
-0.02611593 -0.059798401 0.050936799
-0.02611593 -0.059798401 0.050936799
-0.02611593 -0.059798401 0.050936799
-0.02611593 -0.059798401 0.050936799
-0.02611593 -0.059798401 0.050936799
-0.02611593 -0.059798401 0.050936799
-0.02611593 -0.059798401 0.050936799
-0.02611593 -0.059798401 0.050936799
-0.02611593 -0.059798401 0.050936799
-0.02611593 -0.059798401 0.050936799
-0.02611593 -0.059798401 0.050936799
-0.02611593 -0.059798401 0.050936799
-0.02611593 -0.059798401 0.050936799
-0.02611593 -0.059798401 0.050936799
-0.02611593 -0.059798401 0.050936799
-0.02611593 -0.059798401 0.050936799
-0.02611593 -0.059798401 0.050936799
-0.02611593 -0.059798401 0.050936799
-0.02611593 -0.059798401 0.050936799
-0.02611593 -0.059798401 0.050936799
-0.074775741 -0.04898515 -0.038987041
-0.02611593 -0.059798401 0.050936799
-0.02611593 -0.059798401 0.050936799
-0.02611593 -0.059798401 0.050936799
-0.02611593 -0.059798401 0.050936799
-0.074730434 -0.047021668 -0.036951683
-0.02611593 -0.059798401 0.050936799
-0.02611593 -0.059798401 0.050936799
-0.077681579 -0.049064826 -0.033932365
-0.02611593 -0.059798401 0.050936799
-0.02611593 -0.059798401 0.050936799
-0.02611593 -0.059798401 0.050936799
-0.02611593 -0.059798401 0.050936799
-0.078692265 -0.047043487 -0.034877196
-0.076669976 -0.046068925 -0.033897098
-0.085684039 -0.050035942 -0.033800058
-0.087788157 -0.047920574 -0.039724402
-0.02611593 -0.059798401 0.050936799
-0.02611593 -0.059798401 0.050936799
-0.02611593 -0.059798401 0.050936799
-0.02611593 -0.059798401 0.050936799
-0.083653912 -0.047061723 -0.032783922
-0.079613268 -0.046112426 -0.030841731
-0.092720211 -0.049974646 -0.035667844
-0.09276852 -0.047920719 -0.038630791
-0.02611593 -0.059798401 0.050936799
-0.02611593 -0.059798401 0.050936799
-0.02611593 -0.059798401 0.050936799
-0.02611593 -0.059798401 0.050936799
-0.086597189 -0.047105223 -0.029728565
-0.085630886 -0.046072803 -0.031728655
-0.096659377 -0.049014729 -0.032575686
-0.099763311 -0.046895765 -0.038481239
-0.02611593 -0.059798401 0.050936799
-0.02611593 -0.059798401 0.050936799
-0.02611593 -0.059798401 0.050936799
-0.02611593 -0.059798401 0.050936799
-0.094633169 -0.047040336 -0.031577561
-0.095718749 -0.044946641 -0.036521047
-0.1036581 -0.048989605 -0.032444149
-0.1037064 -0.046935678 -0.035407089
-0.02611593 -0.059798401 0.050936799
-0.02611593 -0.059798401 0.050936799
-0.02611593 -0.059798401 0.050936799
-0.02611593 -0.059798401 0.050936799
-0.10164669 -0.045997292 -0.032427672
-0.098662026 -0.044990141 -0.033465691
-0.10961563 -0.048004419 -0.030314054
-0.10764951 -0.04697559 -0.032332949
-0.02611593 -0.059798401 0.050936799
-0.02611593 -0.059798401 0.050936799
-0.02611593 -0.059798401 0.050936799
-0.02611593 -0.059798401 0.050936799
-0.10558978 -0.046037201 -0.029353525
-0.10666057 -0.04496143 -0.033315364
-0.11965124 -0.047932353 -0.032125484
-0.11969955 -0.045878425 -0.035088424
-0.02611593 -0.059798401 0.050936799
-0.02611593 -0.059798401 0.050936799
-0.02611593 -0.059798401 0.050936799
-0.02611593 -0.059798401 0.050936799
-0.11256978 -0.046030171 -0.028222326
-0.11164093 -0.044961575 -0.032221753
-0.12864567 -0.04690022 -0.031938348
-0.12767938 -0.045867801 -0.033938438
-0.02611593 -0.059798401 0.050936799
-0.02611593 -0.059798401 0.050936799
-0.02611593 -0.059798401 0.050936799
-0.02611593 -0.059798401 0.050936799
-0.12260147 -0.044958275 -0.030015722
-0.11758367 -0.04499431 -0.029110026
-0.13255131 -0.046976313 -0.026864875
-0.13667379 -0.044835672 -0.033751309
-0.02611593 -0.059798401 0.050936799
-0.02611593 -0.059798401 0.050936799
-0.02611593 -0.059798401 0.050936799
-0.02611593 -0.059798401 0.050936799
-0.13261835 -0.044904299 -0.030827485
-0.12761927 -0.04492224 -0.030921437
-0.14555982 -0.04491191 -0.027584221
-0.14766786 -0.043796364 -0.033526592
-0.02611593 -0.059798401 0.050936799
-0.02611593 -0.059798401 0.050936799
-0.02611593 -0.059798401 0.050936799
-0.02611593 -0.059798401 0.050936799
-0.13754255 -0.044958711 -0.026734889
-0.13356201 -0.044954974 -0.027809709
-0.16362749 -0.043775123 -0.031226624
-0.15864319 -0.042775147 -0.032302219
-0.02611593 -0.059798401 0.050936799
-0.02611593 -0.059798401 0.050936799
-0.02611593 -0.059798401 0.050936799
-0.02611593 -0.059798401 0.050936799
-0.15460648 -0.042825677 -0.030378055
-0.1455746 -0.043893989 -0.028565869
-0.17961669 -0.041718036 -0.03088994
-0.17363651 -0.041721482 -0.032002341
-0.02611593 -0.059798401 0.050936799
-0.02611593 -0.059798401 0.050936799
-0.02611593 -0.059798401 0.050936799
-0.02611593 -0.059798401 0.050936799
-0.16758145 -0.04179728 -0.02911609
-0.15756848 -0.04285109 -0.028322365
-0.19255424 -0.040725816 -0.027628656
-0.18761131 -0.040689494 -0.030721594
-0.02611593 -0.059798401 0.050936799
-0.02611593 -0.059798401 0.050936799
-0.02611593 -0.059798401 0.050936799
-0.02611593 -0.059798401 0.050936799
-0.17752345 -0.041815661 -0.025929209
-0.1705474 -0.042822525 -0.02707842
-0.22061221 -0.037553482 -0.031047113
-0.2075998 -0.038618058 -0.030309748
-0.02611593 -0.059798401 0.050936799
-0.02611593 -0.059798401 0.050936799
-0.02611593 -0.059798401 0.050936799
-0.02611593 -0.059798401 0.050936799
-0.19753066 -0.039726131 -0.026517022
-0.18350363 -0.041812215 -0.024816804
-0.2485953 -0.034453504 -0.030466922
-0.23562427 -0.036481727 -0.031746894
-0.02611593 -0.059798401 0.050936799
-0.02611593 -0.059798401 0.050936799
-0.02611593 -0.059798401 0.050936799
-0.02611593 -0.059798401 0.050936799
-0.22557385 -0.037571713 -0.028953835
-0.21258408 -0.03961803 -0.029234149
-0.02611593 -0.059798401 0.050936799
-0.26057044 -0.033428699 -0.029223759
-0.02611593 -0.059798401 0.050936799
-0.02611593 -0.059798401 0.050936799
-0.97605866 0.047894467 -0.22342268
-0.02611593 -0.059798401 0.050936799
-0.25254232 -0.035493247 -0.027410783
-0.23657575 -0.038532071 -0.028765157
-0.98465985 0.048546735 -0.20224264
-0.97614926 0.043967508 -0.22749339
-0.02611593 -0.059798401 0.050936799
-0.02611593 -0.059798401 0.050936799
-0.99226528 0.048195578 -0.18109944
-0.99580461 0.044713512 -0.20910567
-0.98729396 0.040134288 -0.2343564
-0.26354426 -0.036453594 -0.027222108
-1.00788 0.049890872 -0.16076952
-0.99837345 0.04430823 -0.18605706
-0.99188513 0.038754448 -0.2122879
-0.02611593 -0.059798401 0.050936799
-1.0204805 0.050557487 -0.13951436
-1.0019609 0.04392463 -0.16398937
-1.0055082 0.038442913 -0.19203162
-0.99803168 0.029886041 -0.2183353
-1.0380949 0.052259963 -0.11914687
-1.0296108 0.045699168 -0.14543331
-1.0211308 0.038138554 -0.17173776
-1.0076593 0.028560318 -0.19817218
-1.0376416 0.052825663 -0.095136985
-1.0371975 0.045329921 -0.12329043
-1.0297211 0.036773063 -0.14959413
-1.0252815 0.028263137 -0.17784074
-1.0542375 0.054506466 -0.073788621
-1.0397663 0.044924639 -0.10024186
-1.0433254 0.036443442 -0.12833816
-1.032876 0.025894236 -0.15573391
-1.0708185 0.05516934 -0.05145862
-1.0443347 0.044526536 -0.077155702
-1.0418801 0.035005875 -0.1043831
-1.0534978 0.025607822 -0.13534608
-1.095409 0.057878695 -0.029941924
-1.0719473 0.046264913 -0.056600295
-1.0494481 0.034618538 -0.081240572
-1.0490569 0.02315966 -0.11146542
-1.1059499 0.059483688 -0.0057073236
-1.090528 0.046934977 -0.034232721
-1.0700512 0.034314036 -0.059853092
-1.0506151 0.020733047 -0.087472007
-1.1124952 0.060074504 0.0184341
-1.1060719 0.047558084 -0.0099221841
-1.0916499 0.03501296 -0.038428806
-1.0722179 0.020432131 -0.066065729
-1.1260169 0.061672181 0.043724731
-1.1176163 0.048166845 0.014313176
-1.095185 0.033575252 -0.013380133
-1.0777713 0.019019699 -0.041979142
-1.1485515 0.064320073 0.068202831
-1.1311606 0.048782781 0.038586136
-1.1247599 0.035284631 0.0092121661
-1.1133716 0.018769028 -0.020309813
-1.1560781 0.06489639 0.093362704
-1.1526806 0.050409172 0.064027093
-1.1312757 0.033839602 0.035316877
-1.1229057 0.01735286 0.0048516095
-1.1775566 0.067486435 0.120821
-1.1612109 0.049989246 0.089187726
-1.1498002 0.0344554 0.060683437
-1.1404531 0.016983323 0.029181708
-1.1890411 0.069040753 0.14807338
-1.180694 0.051572282 0.11659043
-1.1673474 0.034085862 0.085013539
-0.02611593 -0.059798401 0.050936799
-1.192531 0.069566548 0.1751574
-1.1941818 0.052133948 0.14386237
-1.1708453 0.032611981 0.11206152
-1.1575067 0.013125891 0.080448598
-1.2079959 0.071117118 0.20348459
-1.201671 0.052674085 0.17102155
-1.184337 0.032173824 0.13931544
-1.1650224 0.011684464 0.10657209
-1.2015102 0.070625275 0.22936302
-1.2141217 0.053195994 0.20027402
-1.1898305 0.031706952 0.16641903
-1.1884938 0.011264104 0.13501357
-1.2288902 0.074146233 0.26195043
-1.2265724 0.053717896 0.22952649
-1.21626 0.03226101 0.19693422
-0.02611593 -0.059798401 0.050936799
-0.02611593 -0.059798401 0.050936799
-1.2210718 0.052211717 0.25640535
-0.02611593 -0.059798401 0.050936799
-0.02611593 -0.059798401 0.050936799
-0.02611593 -0.059798401 0.050936799
-1.2534174 0.054714609 0.29106799
-1.2241951 0.030262403 0.25406602
-0.02611593 -0.059798401 0.050936799
-0.02611593 -0.059798401 0.050936799
-1.2927016 0.058188193 0.32887915
-0.02611593 -0.059798401 0.050936799
-0.02611593 -0.059798401 0.050936799
-1.3262295 0.087006286 0.40205294
-0.02611593 -0.059798401 0.050936799
-0.02611593 -0.059798401 0.050936799
-0.02611593 -0.059798401 0.050936799
-3.1382043 0.29398024 0.9669134
-1.3512628 0.063045822 0.40508926
-0.02611593 -0.059798401 0.050936799
-0.02611593 -0.059798401 0.050936799
-3.0721874 0.28773484 1.021583
-3.1405566 0.22808908 0.96076351
-0.02611593 -0.059798401 0.050936799
-1.2715362 0.000742645 0.34845036
-3.1273816 0.29523748 1.1167843
-3.0755019 0.22181107 1.017451
-3.1388843 0.1591479 0.9564836
-0.02611593 -0.059798401 0.050936799
-3.194416 0.30463818 1.2202445
-3.1287124 0.22530724 1.1125429
-3.0807719 0.15284075 1.0163018
-6.2215815 0.22431667 1.8416789
-3.2583947 0.31397384 1.3266473
-3.1977396 0.23169753 1.2169862
-3.1260331 0.1533449 1.1091897
-3.0781538 0.074915603 1.0108414
-3.3381717 0.32618549 1.4434013
-3.2646964 0.23700844 1.3253726
-3.1960611 0.15472153 1.2145616
-3.1323502 0.072380215 1.107843
-3.4178174 0.33827052 1.5671532
-3.3365128 0.24421038 1.4408867
-3.2719154 0.1569567 1.329061
-3.2023566 0.069721334 1.215142
-3.4834738 0.34830567 1.6906058
-3.4201028 0.25123823 1.568622
-3.3377717 0.15915604 1.4433725
-3.2672846 0.067971997 1.3263637
-4.7484412 0.50215173 2.4203196
-3.4976561 0.25820839 1.6982441
-3.4193816 0.16117759 1.5709803
-3.3480265 0.065099359 1.4478647
-4.6330929 0.49138749 2.49299
-4.7507796 0.37301803 2.4270296
-3.486994 0.16314891 1.6983249
-3.4286149 0.063081846 1.5773809
-4.5811515 0.49032658 2.5960331
-4.6235309 0.3613013 2.4944582
-4.7243481 0.23898014 2.4221084
-3.4962096 0.060017847 1.7066349
-3.42962 0.35355052 2.0538154
-4.6111283 0.3609497 2.622263
-4.6060004 0.22820505 2.4947226
-4.7158217 0.094881862 2.4243431
-3.3486583 0.3483054 2.1052222
-3.4268677 0.25241223 2.0599365
-4.6410503 0.22650132 2.6524014
-4.5983806 0.084019944 2.5019741
-3.3309081 0.34956521 2.1979442
-4.6118608 0.36190528 2.902389
-3.4250104 0.14916931 2.0720382
-4.6511989 0.078146286 2.672915
-3.2894552 0.34801069 2.275166
-3.2579234 0.23786132 2.1645455
-4.577404 0.21576828 2.9010999
-3.4123294 0.035015434 2.0767376
-3.2775688 0.35016522 2.3750165
-4.3743501 0.34153232 3.0376196
-3.1917942 0.12905544 2.1383305
-4.5686402 0.060400579 2.9181314
-4.1873941 0.47046173 3.1684957
-3.2529535 0.23904009 2.3755453
-4.3516617 0.19622116 3.0485699
-4.450274 0.049607422 2.9917448
-2.752178 0.29144245 2.1890543
-4.1637468 0.32418337 3.1774096
-2.6215725 0.091402762 1.9389056
-3.2846327 0.015963662 2.3290875
-3.9859605 0.45732528 3.2985308
-4.0585351 0.31659916 3.2423248
-4.1410022 0.17881796 3.1913593
-2.61959 -0.0039319489 1.9561499
-3.8828087 0.44880271 3.3604662
-3.9582663 0.30897865 3.3103325
-4.0307808 0.16919807 3.2571437
-2.7400436 -0.0058878362 2.1464343
-1.9029331 0.19028609 1.7341702
-2.3892117 0.16256537 2.101898
-3.9255352 0.16057786 3.3240399
-3.9990809 0.012802232 3.2707257
-1.8533696 0.18754981 1.764203
-1.8880394 0.11606395 1.7425516
-1.9227386 0.046613924 1.7189369
-2.4260402 -0.021165602 2.093261
-1.8175561 0.18562846 1.8075124
-1.8394232 0.11227715 1.7755841
-1.8721081 0.041802049 1.7529134
-1.899922 -0.032581802 1.7240789
-1.9739941 0.21093231 2.0469801
-1.8890007 0.11916494 1.9036803
-1.8234735 0.037997168 1.7869457
-1.8541931 -0.03646636 1.7631657
-2.1604667 0.24144195 2.3371217
-2.0570374 0.13609719 2.1662216
-1.9731146 0.045405596 2.01896
-1.8674196 -0.040130641 1.8583792
-3.3187709 0.41280782 3.7363825
-2.2649381 0.15810829 2.4886215
-2.1507878 0.053995218 2.3025382
-2.0394511 -0.041253339 2.1246703
-3.2266614 0.40737852 3.7955797
-3.2818091 0.26115805 3.7629561
-3.3340847 0.1160533 3.7232964
-2.2650163 -0.044589415 2.4699502
-3.1345477 0.40294898 3.854795
-3.1837459 0.25374365 3.8200054
-3.2408295 0.10947583 3.7904544
-3.292099 -0.04366735 3.7526312
-3.0453811 0.39747614 3.9170475
-3.0954669 0.24816591 3.8882749
-3.1406729 0.10196382 3.8524644
-3.1899388 -0.050186682 3.8146217
-2.9571919 0.39298865 3.9803367
-3.0003765 0.24274388 3.9464159
-3.0406244 0.095560208 3.9084942
-3.0946128 -0.057843518 3.8857224
-2.8622139 0.38767517 4.0324798
-2.9042904 0.23631847 4.0045204
-2.9464254 0.089033417 3.9726343
-2.992528 -0.064290486 3.9437141
-2.7721221 0.38227105 4.0907154
-2.8140826 0.23180564 4.0687718
-2.855166 0.083462946 4.0398479
-2.8933482 -0.07081715 4.0067606
-2.6868913 0.37875795 4.1560779
-2.7200141 0.22540547 4.1259141
-2.7570612 0.077012233 4.0989141
-2.7990742 -0.077416301 4.0748992
-2.5967772 0.37433565 4.2153311
-2.6259239 0.21998705 4.1840744
-2.661881 0.070499949 4.1620359
-2.6969519 -0.083899446 4.1348906
-2.5047238 0.36896056 4.2715297
-2.533735 0.21548517 4.2472882
-2.5677152 0.065009154 4.2241945
-2.5987682 -0.089422688 4.1979733
-2.4145684 0.36550185 4.3327999
-2.439626 0.21004866 4.306448
-2.4695883 0.059540182 4.2842789
-2.5034568 -0.096061602 4.2680926
-2.3225293 0.36114472 4.3880157
-2.3464935 0.20559746 4.3666439
-2.3733857 0.05400604 4.3483992
-2.4032924 -0.10157393 4.3301392
-2.2284949 0.35578054 4.4431772
-2.2552488 0.2010449 4.4328761
-2.2782018 0.048493579 4.4115386
-2.3021884 -0.10803539 4.3891487
-2.1402643 0.35225666 4.5084839
-2.1601584 0.19562288 4.4910173
-2.1800928 0.04304269 4.4706235
-2.2068357 -0.11371066 4.4612856
-2.048147 0.348827 4.5677171
-2.0650268 0.19116455 4.5511756
-2.0867548 0.038392544 4.5418158
-2.1046717 -0.11923017 4.523294
-1.9541271 0.34448075 4.6218967
-1.9707782 0.18760106 4.6173697
-1.9885339 0.032833114 4.6068983
-2.0015078 -0.12475326 4.5852838
-0.99553788 0.15193912 2.4987469
-1.0028665 0.067978531 2.4973648
-1.0274272 -0.012641709 2.5363793
-1.902156 -0.13044287 4.6573448
-0.91162634 0.14163083 2.4419699
-0.91886437 0.061597202 2.4446588
-0.94428599 -0.017146405 2.490726
-1.7978799 -0.13607807 4.7253132
-0.83272868 0.13235842 2.3843055
-0.83509088 0.054433111 2.3799388
-0.84982097 -0.021042965 2.408859
-1.6907878 -0.14054336 4.7832475
-0.76252198 0.12482851 2.3428409
-0.76383907 0.048863113 2.3404906
-0.77186608 -0.025348831 2.3533027
-1.5883951 -0.14528008 4.8572698
-0.68871319 0.11666431 2.2802901
-0.69273704 0.043437831 2.293045
-0.7034148 -0.028089467 2.3239617
-1.4820821 -0.15095866 4.9272003
-0.62165964 0.10829007 2.2308662
-0.6293301 0.038751669 2.2617626
-0.62856776 -0.031276189 2.2624817
-1.3708783 -0.1555468 4.9910569
-0.56231213 0.10267269 2.1966419
-0.55860645 0.032688323 2.1943061
-1.2660447 -0.00013704598 5.0579281
-1.264303 -0.16147861 5.0749826
-0.50312215 0.09520036 2.1543846
-0.49553648 0.028327763 2.1450295
-1.1595967 -0.0049424022 5.1348743
-1.1500436 -0.16613179 5.1417818
-0.44498417 0.088785723 2.1091645
-0.47848243 0.031346064 2.3068197
-1.0491494 -0.0097621083 5.2117448
-1.0376154 -0.17094059 5.2176151
-0.392519 0.084084779 2.0810878
-0.43185425 0.030565944 2.3399436
-0.93587112 -0.014429793 5.279563
-0.92313123 -0.17581084 5.2964106
-0.34218848 0.07851778 2.0460327
-0.37348381 0.02593391 2.3067558
-1.3859645 0.011399969 9.1057539
-1.3347327 -0.26513663 9.0107594
-0.29283905 0.072936296 2.0119963
-0.31526318 0.021446574 2.2655709
-1.1169832 0.0010423213 8.6783857
-1.0635576 -0.25963083 8.5906401
-0.2538833 0.073877037 2.0623009
-0.25743571 0.017339118 2.2033925
-0.87279451 -0.0093799084 8.3155022
-0.81765139 -0.25573698 8.2099781
-0.21387547 0.073760092 2.1155682
-0.20592897 0.013605401 2.177352
-0.65026104 -0.019048952 7.9710445
-0.59086168 -0.25262156 7.8766751
-0.17271024 0.075494498 2.1768491
-0.15836109 0.011876125 2.2074401
-0.44515073 -0.026196562 7.6569681
-0.38668931 -0.24878556 7.5638156
-0.3755303 0.40646869 7.5534563
-0.31302512 0.18081163 7.4631734
-0.25470471 -0.034615763 7.3611498
-0.19752899 -0.24387777 7.2502565
-0.20516571 0.3821868 7.3097448
-0.13904573 0.1639121 7.1975203
-0.08279404 -0.040401436 7.0897346
-0.024129912 -0.24010287 7.0029945
-0.046121359 0.35725206 7.0492272
0.020210341 0.14981268 6.946198
0.077553354 -0.045560256 6.8415551
0.13793026 -0.23696272 6.737927
0.1025921 0.33472317 6.8239589
0.16995896 0.13627863 6.7210736
0.22927687 -0.051048562 6.6135378
0.28887653 -0.23362985 6.5200872
0.24553527 0.31299856 6.6108179
0.3097508 0.12374414 6.4981537
0.37028715 -0.055768896 6.4007401
0.43188041 -0.23032254 6.305397
0.37662345 0.29418981 6.404954
