# .PCD v0.7 - Point Cloud Data file format
VERSION 0.7
FIELDS x y z
SIZE 4 4 4
TYPE F F F
COUNT 1 1 1
WIDTH 1400
HEIGHT 1
VIEWPOINT 0 0 0 1 0 0 0
POINTS 1400
DATA ascii
-0.67733663 0.59955257 1.6225891
-0.75437534 0.5969103 1.6750015
-0.49126291 0.59568763 1.5190003
-0.56621534 0.59596527 1.5754278
-0.64208484 0.59817386 1.6359086
-0.7180075 0.59641933 1.6943183
-0.46095312 0.59928989 1.5345033
-0.532974 0.5966115 1.5878212
-0.60488957 0.59684229 1.6461917
-0.68353778 0.59784472 1.7187068
-0.42691106 0.59711379 1.5368272
-0.4949967 0.59247583 1.5870352
-0.56959248 0.59742707 1.6615466
-0.64236987 0.59451717 1.727879
-0.39386484 0.59594131 1.5391881
-0.46173277 0.59410381 1.6004463
-0.53241593 0.59611356 1.67083
-0.60310006 0.59310609 1.7421231
-0.36173177 0.59769958 1.5456206
-0.42658943 0.59383351 1.6077859
-0.49426228 0.59381467 1.6790768
-0.56480747 0.59268022 1.7574036
-0.32862547 0.59747261 1.5509984
-0.39150611 0.59261763 1.6121086
-0.45706308 0.59348291 1.6893779
-0.52647352 0.59321803 1.7747015
-0.29653379 0.59826714 1.5554134
-0.35729855 0.59429622 1.622502
-0.4207997 0.59510016 1.7027326
-0.48534298 0.58992678 1.7818743
-0.26354375 0.59714884 1.5547752
-0.32225269 0.59311658 1.6248252
-0.38370198 0.59285915 1.7079993
-0.44702768 0.59048271 1.7981726
-0.23053499 0.59601247 1.5551369
-0.28714678 0.59288239 1.6301656
-0.34555918 0.59257805 1.7152826
-0.40678772 0.59110379 1.8104346
-0.19852214 0.5958795 1.5555352
-0.25304067 0.59265184 1.6355246
-0.30654064 0.58940244 1.716495
-0.36467221 0.58882678 1.8166069
-0.16459239 0.59381217 1.5518613
-0.21790814 0.59439921 1.6419007
-0.26931489 0.59105229 1.7278317
-0.3235752 0.58657151 1.8217984
-0.13341382 0.5975374 1.5603479
-0.18196003 0.59230661 1.6391889
-0.23210785 0.59272009 1.7381687
-0.28229401 0.58815265 1.8360591
-0.10152117 0.59551328 1.5547123
-0.14685017 0.59307224 1.6445472
-0.19318293 0.58963501 1.734383
-0.24121183 0.58691519 1.8402689
-0.068568572 0.59443122 1.5520749
-0.11189796 0.59198302 1.6418723
-0.15517901 0.58748084 1.7346325
-0.20008826 0.58664143 1.846496
-0.037574247 0.59432 1.5514923
-0.076949656 0.58989394 1.6391792
-0.11710715 0.58827192 1.7379352
-0.15800627 0.58540046 1.8506871
-0.0056776442 0.59329575 1.5458747
-0.041914687 0.59073198 1.6405389
-0.078039408 0.58805954 1.7412009
-0.115943 0.58417749 1.8538786
0.025177768 0.59131151 1.5382584
-0.0068797246 0.59157002 1.6418985
-0.039129276 0.58599228 1.7364335
-0.072894692 0.58396894 1.8560696
0.057179768 0.59319633 1.5376933
0.026892398 0.58764762 1.6301912
-0.0010347627 0.58776516 1.7407537
-0.029827669 0.5837422 1.8592602
0.088117927 0.59313929 1.5341117
0.06197267 0.59044915 1.6335864
0.035875723 0.58570504 1.7360239
0.011082079 0.58166784 1.8544551
0.11901472 0.59211868 1.528513
0.096887439 0.58939606 1.628912
0.074767113 0.58365589 1.7302567
0.053254679 0.58435374 1.8627169
-0.02611593 -0.059798401 0.050936799
0.13076496 0.58838272 1.6222571
0.11286555 0.58642858 1.7345951
0.096066535 0.58136278 1.8528579
0.18090282 0.59500408 1.521404
-0.02611593 -0.059798401 0.050936799
0.15074235 0.58540088 1.727865
0.13798001 0.58028454 1.8480521
0.20955566 0.5892086 1.5037568
0.19962521 0.58926153 1.6139809
-0.02611593 -0.059798401 0.050936799
-0.02611593 -0.059798401 0.050936799
0.24256532 0.59308952 1.5032088
0.23446509 0.5882808 1.6053081
0.22867975 0.58717483 1.7234362
0.13391434 0.34999704 1.1967418
0.27241004 0.59312654 1.4946477
0.26502004 0.58156872 1.5826068
0.26537642 0.58331406 1.707674
0.26681057 0.58096611 1.8376487
0.30333343 0.59408742 1.4900845
0.30116805 0.58731186 1.5890361
0.26219735 0.50505078 1.5002476
0.30762669 0.57898211 1.8278455
0.32888928 0.58739334 1.4674774
0.33395216 0.58639258 1.5774018
0.33908206 0.5833199 1.6912887
0.33287507 0.55046403 1.7398269
0.35769278 0.58647031 1.4569178
0.36679631 0.58641887 1.5687844
0.375824 0.58142257 1.6775618
-0.02611593 -0.059798401 0.050936799
0.38754147 0.58750719 1.4483749
0.3995617 0.58551764 1.5561503
0.41264874 0.58145255 1.6678696
-0.02611593 -0.059798401 0.050936799
0.41636765 0.5875659 1.4388329
0.4334096 0.58654016 1.5475321
0.45045459 0.58149707 1.657159
-0.02611593 -0.059798401 0.050936799
0.44516033 0.5886606 1.4273099
0.46623898 0.58758438 1.5379331
0.48626074 0.58154875 1.6464859
-0.02611593 -0.059798401 0.050936799
0.47394514 0.58775574 1.4157505
0.49692592 0.58576286 1.52132
0.52302933 0.58163303 1.6337947
-0.02611593 -0.059798401 0.050936799
0.50275654 0.58883238 1.4052269
0.52971393 0.58584344 1.5097036
0.55876058 0.58175713 1.619123
-0.02611593 -0.059798401 0.050936799
0.52529812 0.5831669 1.3816946
0.56148344 0.58594573 1.4971064
0.59348816 0.58088487 1.604452
0.63477606 0.57652032 1.7266414
-0.02611593 -0.059798401 0.050936799
-0.02611593 -0.059798401 0.050936799
-0.02611593 -0.059798401 0.050936799
-0.02611593 -0.059798401 0.050936799
0.59129572 0.59496415 1.3786712
0.62398905 0.58718967 1.4699495
0.64926195 0.56780422 1.5411497
0.57594764 0.45786044 1.3864812
0.61280006 0.58933842 1.3531582
0.65256 0.5844841 1.4473578
0.69548792 0.57945621 1.5504982
0.75175828 0.57605565 1.6714242
0.63849187 0.58853477 1.336657
0.68227369 0.58464777 1.4317993
0.73018187 0.57962 1.5338459
0.78731316 0.57434291 1.6477194
0.66518736 0.58872724 1.320155
0.71092737 0.58386952 1.4132423
0.76385742 0.57980549 1.5162128
0.82495052 0.57455021 1.6280118
0.69092047 0.58888721 1.3056713
0.73958111 0.5830912 1.3946855
0.7964769 0.58004886 1.4955994
0.86052811 0.57381916 1.6053249
0.7165935 0.58810151 1.2881706
0.7702986 0.58425111 1.3791262
0.83015633 0.58123416 1.4779844
0.89811313 0.57508057 1.5826361
0.73922569 0.58636308 1.2687088
0.79691523 0.58351606 1.3586076
0.86073488 0.58052105 1.4553914
0.9326722 0.57437116 1.5589684
0.76492131 0.58655918 1.2522256
0.82759529 0.58471227 1.3410488
0.89335823 0.58176422 1.4347961
0.96613783 0.5737558 1.5303209
0.78957981 0.58679503 1.2337619
0.85523438 0.58495545 1.3215292
0.92185837 0.58013076 1.408224
1.0027231 0.57502079 1.5076512
0.81527936 0.587991 1.2172968
0.88389599 0.58617681 1.3030083
0.95244074 0.58041745 1.3856488
1.03623 0.57536912 1.481021
0.83687431 0.58629221 1.1958545
0.90947545 0.58548158 1.2805092
0.98200464 0.58072585 1.3620929
1.0646366 0.57382607 1.4494506
0.86669737 0.59036481 1.1853664
0.93609995 0.58674628 1.2600268
1.0095087 0.58009589 1.3355577
1.1022668 0.57705104 1.4287975
0.88419157 0.58677113 1.1589649
0.96166068 0.58606923 1.2365279
1.0411175 0.58236057 1.3139995
1.1296362 0.57554781 1.3952465
0.90783143 0.58702874 1.1395203
0.98620278 0.58541381 1.2120482
1.0676219 0.58173412 1.2874829
1.1590462 0.57500106 1.3636752
0.93249768 0.58926427 1.1210926
1.0117862 0.58571839 1.1895672
1.0940701 0.58116198 1.2579674
1.1935648 0.57834524 1.3370805
0.95511901 0.58954352 1.1006672
1.0353324 0.58606642 1.1651243
1.1236231 0.58348817 1.2334478
1.2179159 0.57687092 1.3025861
0.97774035 0.58982277 1.0802418
1.0639832 0.58930552 1.1456399
1.1470718 0.58292669 1.2039887
1.2432705 0.57639271 1.2680911
0.99730217 0.58916724 1.0568558
1.0834434 0.58674079 1.1172196
1.1715392 0.5823437 1.1755103
1.2727073 0.57782763 1.2375555
1.0199236 0.58944643 1.0364304
1.10493 0.58615041 1.0897973
1.1970141 0.58375669 1.1470493
1.3001032 0.57830596 1.2050403
1.0405077 0.58976901 1.0140432
1.1274803 0.58750176 1.0653913
1.2204666 0.58419514 1.1176081
1.3234435 0.57885295 1.1696012
1.0600922 0.59009522 0.99167484
1.1510307 0.58884966 1.0409664
1.2449005 0.58464807 1.0871487
1.350847 0.58133101 1.1371219
1.080639 0.59045398 0.96728837
1.172521 0.58925909 1.0135622
1.2673345 0.58510816 1.0567266
1.3731835 0.58088177 1.1016836
1.0992048 0.59080184 0.94393915
1.1940342 0.59065032 0.98717564
1.2897912 0.58655006 1.0273223
1.3975463 0.58240688 1.0672433
1.1177481 0.59016794 0.91957229
1.2145247 0.59106332 0.95979017
1.3091698 0.58707523 0.99395758
1.4178498 0.58300078 1.0298613
1.1362954 0.59053385 0.89522332
1.2329932 0.59050179 0.93142462
1.3306042 0.58753902 0.96355438
1.4402128 0.58453304 0.9954586
1.1538426 0.5909034 0.8708933
1.2453612 0.58805251 0.89813751
1.3520236 0.58902061 0.9321695
1.4564757 0.58417773 0.95613438
1.1713713 0.59129101 0.84556353
1.2719413 0.59237105 0.87471002
1.3704023 0.58954936 0.89882368
1.4747794 0.58477885 0.91878998
1.1878775 0.59070051 0.81923485
1.2873728 0.59185648 0.84440148
1.3877811 0.59008169 0.86549664
1.4951094 0.5873543 0.88244355
1.2094734 0.59401906 0.79688305
1.303808 0.59233814 0.81409228
1.405164 0.59161389 0.83218759
1.5073316 0.58604968 0.84117711
1.2229427 0.59347546 0.76861137
1.3192434 0.59282339 0.78380173
1.4205056 0.59218961 0.79689878
1.523621 0.58767587 0.80288857
1.241475 0.5948593 0.74328089
1.3346788 0.59330863 0.75351131
1.4378884 0.59372175 0.7635898
1.539929 0.58928394 0.76559973
1.2559855 0.59527576 0.71700782
1.3511178 0.5947901 0.72321999
1.4492084 0.59333003 0.72735846
1.5531775 0.58995724 0.72535014
1.2684323 0.59375405 0.68773735
1.364531 0.59430081 0.69194943
1.4655914 0.5948658 0.69406825
1.5644451 0.59061968 0.68613791
1.2839466 0.59516674 0.66146356
1.3789519 0.59580755 0.66069609
1.4769151 0.59547389 0.65785503
1.575698 0.5923 0.645944
1.2994421 0.59659761 0.63419002
1.3923688 0.59631807 0.62944353
1.4902613 0.59705657 0.62262177
1.5889919 0.59493685 0.60772991
1.313915 0.59705025 0.60591769
1.4047673 0.59685022 0.59721005
1.5025887 0.59866107 0.58640766
1.5962188 0.59464997 0.56657541
1.3223478 0.59656084 0.57574069
1.4151661 0.59738964 0.56501424
1.5088868 0.59730554 0.54925269
1.6034724 0.59634465 0.52645665
1.3368247 0.59801328 0.54748631
1.4245465 0.5979507 0.53183752
1.5192147 0.59891707 0.51307619
1.6127256 0.59803212 0.48630035
1.3482796 0.59849477 0.51827067
1.4399751 0.60145354 0.50060147
1.5305651 0.60150677 0.47789863
1.6189754 0.59873056 0.44618237
1.3587307 0.59798008 0.48905581
1.4493514 0.60101473 0.46740669
1.540897 0.60411823 0.44174016
1.6252331 0.60142869 0.40610045
1.3691709 0.59948307 0.4588773
1.4557135 0.60160464 0.4332867
1.5441809 0.60379136 0.40365985
1.630487 0.60313052 0.36601928
1.3806297 0.60096443 0.42967966
1.4650978 0.60316551 0.40012801
1.5454799 0.60245389 0.36659878
1.1604967 0.41508228 0.24737692
1.3900661 0.60147119 0.39950192
1.4734823 0.60472995 0.36698806
1.2733995 0.48705289 0.2805762
1.0022591 0.35163361 0.19517414
1.3964807 0.60100698 0.36836284
1.4647635 0.5984292 0.33002478
1.0688741 0.40097219 0.2178271
1.0208752 0.35996199 0.17296872
1.4038987 0.60153908 0.33722305
1.1284864 0.44933605 0.24059358
1.0101459 0.37579978 0.18445998
0.88393521 0.30618298 0.13454677
1.3379346 0.56859213 0.2928471
1.1339984 0.44978485 0.21448964
1.0096966 0.37623391 0.16046812
0.81733572 0.27991286 0.1083096
1.1293588 0.46952802 0.22993886
-0.02611593 -0.059798401 0.050936799
0.81059402 0.29273677 0.11967166
0.75179619 0.25458467 0.08507064
1.1278642 0.46800232 0.20393044
0.82489854 0.31346589 0.1317829
0.76409322 0.27332136 0.097183436
0.74243027 0.25196123 0.066192143
0.99385089 0.40525019 0.16329063
0.76936108 0.28910169 0.10837406
0.75172007 0.26870894 0.078325272
0.74207848 0.25330475 0.047216598
0.75760067 0.29694441 0.11973996
0.74596632 0.27852985 0.089614473
0.742369 0.26506755 0.060428418
0.74477142 0.25660101 0.030220043
0.74624211 0.29131052 0.10184465
0.74662918 0.27885184 0.071601786
0.75005013 0.27036357 0.042374283
0.75043029 0.26092246 0.011185819
0.75493389 0.29458523 0.084735349
0.7523216 0.28213727 0.05454886
0.74873203 0.27067468 0.025398834
0.74509025 0.26026616 -0.0067321472
0.75160843 0.29290387 0.067761451
0.76702803 0.28938976 0.037398893
0.76039767 0.27697429 0.0062878989
0.75874466 0.26857635 -0.026844289
0.75629699 0.29519308 0.050709292
0.77370155 0.29268971 0.01932751
0.80307519 0.29719645 -0.015152607
0.81837171 0.29580864 -0.052476749
0.75597483 0.29450077 0.033697039
0.78036022 0.29700765 0.00027449057
0.79872012 0.29755449 -0.034071006
0.81999385 0.30018064 -0.073435143
0.75164944 0.29282296 0.016741922
0.78403425 0.30031836 -0.017740514
0.79336143 0.29691628 -0.05298863
0.79364496 0.291583 -0.090102993
0.75533825 0.2951158 -0.00029144064
0.77268356 0.29668415 -0.035599791
0.78600311 0.29628524 -0.071868673
0.78729033 0.2919482 -0.10898381
0.75400138 0.29544497 -0.018266547
0.76834339 0.29602426 -0.053536545
0.78365159 0.29763597 -0.090806633
0.76996332 0.28931731 -0.12571266
0.7516796 0.29475987 -0.035241228
0.76701045 0.29735327 -0.071493633
0.78629237 0.30198628 -0.11078416
0.67887217 0.25261399 -0.12267007
0.74836183 0.29507813 -0.052179094
0.76067066 0.2967006 -0.089392811
0.76897627 0.29733759 -0.12654938
0.65662402 0.2459112 -0.13437876
0.75002843 0.29639637 -0.070192553
0.76831436 0.30203277 -0.10944626
0.68986112 0.26462674 -0.12565954
0.65730256 0.25023249 -0.15231937
0.74769175 0.29672915 -0.088148877
0.76099342 0.30136561 -0.12632698
0.63370609 0.24190395 -0.12902033
0.69881952 0.27262071 -0.182702
0.74137062 0.29605839 -0.10504839
0.68585885 0.26865849 -0.12651198
0.62742645 0.24219681 -0.14390251
0.21275565 0.050786763 -0.032563441
0.75600612 0.30438307 -0.12617898
0.62573409 0.24391423 -0.12783432
0.61916184 0.24147896 -0.15776548
0.19871986 0.045855943 -0.033390135
0.68086755 0.27067611 -0.12638199
0.61249614 0.24017863 -0.13965805
0.21675192 0.054789819 -0.033566199
-0.02611593 -0.059798401 0.050936799
0.63271904 0.24992426 -0.12985706
0.61318946 0.24348205 -0.15661703
0.2076856 0.051876903 -0.036450122
0.17066698 0.035976231 -0.034043834
0.60851955 0.24117474 -0.13856521
0.21377118 0.054782499 -0.032510161
-0.02611593 -0.059798401 0.050936799
-0.02611593 -0.059798401 0.050936799
0.60225463 0.24044968 -0.15246573
0.20272005 0.050858833 -0.034374855
0.17367429 0.037965126 -0.03406417
0.14565101 0.026049566 -0.032754604
0.21874461 0.057800226 -0.034549374
-0.02611593 -0.059798401 0.050936799
-0.02611593 -0.059798401 0.050936799
-0.02611593 -0.059798401 0.050936799
0.19476198 0.046833962 -0.031297628
0.17167464 0.037972305 -0.034026589
0.15361299 0.031074274 -0.035813823
0.12861575 0.021129515 -0.033524908
-0.02611593 -0.059798401 0.050936799
-0.02611593 -0.059798401 0.050936799
-0.02611593 -0.059798401 0.050936799
-0.02611593 -0.059798401 0.050936799
0.16968982 0.036961563 -0.033007372
0.15162818 0.030063534 -0.034794595
0.12961558 0.021125924 -0.033543702
0.10367073 0.010130662 -0.028255053
-0.02611593 -0.059798401 0.050936799
-0.02611593 -0.059798401 0.050936799
-0.02611593 -0.059798401 0.050936799
-0.02611593 -0.059798401 0.050936799
0.14567365 0.027031306 -0.031736918
0.13358524 0.023147408 -0.035582159
0.11557978 0.016195113 -0.034370393
0.096593194 0.0092283171 -0.032140184
-0.02611593 -0.059798401 0.050936799
-0.02611593 -0.059798401 0.050936799
-0.02611593 -0.059798401 0.050936799
-0.02611593 -0.059798401 0.050936799
0.1266457 0.01910086 -0.031524047
0.11457995 0.016198702 -0.034351602
0.09859284 0.0092211394 -0.032177765
0.084598407 0.005253972 -0.030987103
-0.02611593 -0.059798401 0.050936799
-0.02611593 -0.059798401 0.050936799
-0.02611593 -0.059798401 0.050936799
-0.02611593 -0.059798401 0.050936799
0.10567038 0.010123483 -0.028292634
0.10551365 0.013285777 -0.037235525
0.086579315 0.0052648834 -0.032024354
0.073584706 0.0012941273 -0.030852482
-0.02611593 -0.059798401 0.050936799
-0.02611593 -0.059798401 0.050936799
-0.02611593 -0.059798401 0.050936799
-0.02611593 -0.059798401 0.050936799
0.094637953 0.0061817276 -0.029157672
0.091515303 0.0083187874 -0.036062893
0.079520501 0.0043444419 -0.034909822
0.067529634 0.001369928 -0.033738725
-0.02611593 -0.059798401 0.050936799
-0.02611593 -0.059798401 0.050936799
-0.02611593 -0.059798401 0.050936799
-0.02611593 -0.059798401 0.050936799
0.083624259 0.0022218907 -0.029023048
0.079516575 0.0033446115 -0.034927838
0.069510549 0.0013808393 -0.034775972
0.060504343 -0.00058652181 -0.034642894
-0.02611593 -0.059798401 0.050936799
-0.02611593 -0.059798401 0.050936799
-0.02611593 -0.059798401 0.050936799
-0.02611593 -0.059798401 0.050936799
0.075561687 0.00030521175 -0.031907748
0.071491465 0.0013917505 -0.035813212
0.061504159 -0.00059011066 -0.034661684
0.048561782 -0.0056149568 -0.03050885
-0.02611593 -0.059798401 0.050936799
-0.02611593 -0.059798401 0.050936799
-0.02611593 -0.059798401 0.050936799
-0.02611593 -0.059798401 0.050936799
0.067551374 -0.0026655653 -0.031811479
0.060511284 -0.0036040992 -0.033697281
0.051527731 -0.004589715 -0.03254652
0.042540237 -0.0065751653 -0.031413786
-0.02611593 -0.059798401 0.050936799
-0.02611593 -0.059798401 0.050936799
-0.02611593 -0.059798401 0.050936799
-0.02611593 -0.059798401 0.050936799
0.055590101 -0.0076759188 -0.028677098
0.056441054 -0.0025175526 -0.037602745
0.047472291 -0.0045210919 -0.035470352
0.036533482 -0.0085532889 -0.031337082
-0.02611593 -0.059798401 0.050936799
-0.02611593 -0.059798401 0.050936799
-0.02611593 -0.059798401 0.050936799
-0.02611593 -0.059798401 0.050936799
0.046617415 -0.010679285 -0.026562717
0.045498315 -0.0075495839 -0.033487499
0.037533298 -0.0085568782 -0.031355873
0.032500695 -0.0075029284 -0.03324322
-0.02611593 -0.059798401 0.050936799
-0.02611593 -0.059798401 0.050936799
-0.02611593 -0.059798401 0.050936799
-0.02611593 -0.059798401 0.050936799
0.042558048 -0.011610493 -0.029504552
0.041428082 -0.0064630415 -0.037392959
0.033477861 -0.0084882556 -0.034279697
0.026493942 -0.0094810566 -0.033166517
-0.02611593 -0.059798401 0.050936799
-0.02611593 -0.059798401 0.050936799
-0.02611593 -0.059798401 0.050936799
-0.02611593 -0.059798401 0.050936799
0.037517585 -0.012556201 -0.031427946
0.036402427 -0.0084266653 -0.038334712
0.029422425 -0.008419632 -0.037203513
0.019524807 -0.01149177 -0.031071696
-0.02611593 -0.059798401 0.050936799
-0.02611593 -0.059798401 0.050936799
-0.02611593 -0.059798401 0.050936799
-0.02611593 -0.059798401 0.050936799
0.031496037 -0.013516406 -0.032332875
0.028452199 -0.010451883 -0.035221443
0.021468274 -0.01144468 -0.034108263
0.015506821 -0.011459325 -0.031996187
-0.02611593 -0.059798401 0.050936799
-0.02611593 -0.059798401 0.050936799
-0.02611593 -0.059798401 0.050936799
-0.02611593 -0.059798401 0.050936799
0.025526725 -0.015530712 -0.030256853
0.023411741 -0.011397591 -0.037144821
0.017469011 -0.011430325 -0.034033101
0.011488828 -0.01142688 -0.032920692
-0.02611593 -0.059798401 0.050936799
-0.02611593 -0.059798401 0.050936799
-0.02611593 -0.059798401 0.050936799
-0.02611593 -0.059798401 0.050936799
0.019523893 -0.016509008 -0.030162122
0.017461155 -0.013429983 -0.03406914
0.013398777 -0.010343782 -0.037938569
0.0064897453 -0.011408935 -0.03282674
-0.02611593 -0.059798401 0.050936799
-0.02611593 -0.059798401 0.050936799
-0.02611593 -0.059798401 0.050936799
-0.02611593 -0.059798401 0.050936799
0.015501978 -0.017476395 -0.031104647
0.014372014 -0.012328943 -0.038993053
0.0074629821 -0.013394093 -0.033881236
-0.02611593 -0.059798401 0.050936799
-0.02611593 -0.059798401 0.050936799
-0.02611593 -0.059798401 0.050936799
-0.02611593 -0.059798401 0.050936799
-0.02611593 -0.059798401 0.050936799
-0.02611593 -0.059798401 0.050936799
0.0074364045 -0.015375664 -0.034916934
0.0043964968 -0.011311312 -0.037787471
-0.02611593 -0.059798401 0.050936799
-0.02611593 -0.059798401 0.050936799
-0.02611593 -0.059798401 0.050936799
-0.02611593 -0.059798401 0.050936799
-0.02611593 -0.059798401 0.050936799
-0.02611593 -0.059798401 0.050936799
0.0034223415 -0.014343393 -0.035823409
-0.00058779307 -0.012311287 -0.036711868
-0.005582951 -0.011293512 -0.036599897
-0.02611593 -0.059798401 0.050936799
-0.02611593 -0.059798401 0.050936799
-0.02611593 -0.059798401 0.050936799
-0.02611593 -0.059798401 0.050936799
-0.02611593 -0.059798401 0.050936799
-0.00059564784 -0.014310949 -0.036747906
-0.0055720853 -0.013311259 -0.035636276
-0.02611593 -0.059798401 0.050936799
-0.02611593 -0.059798401 0.050936799
-0.02611593 -0.059798401 0.050936799
-0.02611593 -0.059798401 0.050936799
-0.02611593 -0.059798401 0.050936799
-0.02611593 -0.059798401 0.050936799
-0.00557994 -0.01531092 -0.035672314
-0.0086237779 -0.012246398 -0.038560871
-0.02611593 -0.059798401 0.050936799
-0.02611593 -0.059798401 0.050936799
-0.02611593 -0.059798401 0.050936799
-0.02611593 -0.059798401 0.050936799
-0.02611593 -0.059798401 0.050936799
-0.02611593 -0.059798401 0.050936799
-0.0095979311 -0.015278475 -0.036596812
-0.012637839 -0.011214123 -0.03946735
-0.02611593 -0.059798401 0.050936799
-0.02611593 -0.059798401 0.050936799
-0.02611593 -0.059798401 0.050936799
-0.02611593 -0.059798401 0.050936799
-0.02611593 -0.059798401 0.050936799
-0.02611593 -0.059798401 0.050936799
-0.013597199 -0.01526412 -0.036521651
-0.02611593 -0.059798401 0.050936799
-0.02611593 -0.059798401 0.050936799
-0.02611593 -0.059798401 0.050936799
-0.02611593 -0.059798401 0.050936799
-0.02611593 -0.059798401 0.050936799
-0.02611593 -0.059798401 0.050936799
-0.02611593 -0.059798401 0.050936799
-0.018615007 -0.015228086 -0.037427362
-0.02611593 -0.059798401 0.050936799
-0.02611593 -0.059798401 0.050936799
-0.02611593 -0.059798401 0.050936799
-0.02611593 -0.059798401 0.050936799
-0.02611593 -0.059798401 0.050936799
-0.02611593 -0.059798401 0.050936799
-0.02611593 -0.059798401 0.050936799
-0.02611593 -0.059798401 0.050936799
-0.02611593 -0.059798401 0.050936799
-0.02611593 -0.059798401 0.050936799
-0.02611593 -0.059798401 0.050936799
-0.02611593 -0.059798401 0.050936799
-0.02611593 -0.059798401 0.050936799
-0.02611593 -0.059798401 0.050936799
-0.02611593 -0.059798401 0.050936799
-0.02611593 -0.059798401 0.050936799
-0.02611593 -0.059798401 0.050936799
-0.02611593 -0.059798401 0.050936799
-0.02611593 -0.059798401 0.050936799
-0.02611593 -0.059798401 0.050936799
-0.02611593 -0.059798401 0.050936799
-0.02611593 -0.059798401 0.050936799
-0.02611593 -0.059798401 0.050936799
-0.02611593 -0.059798401 0.050936799
-0.02611593 -0.059798401 0.050936799
-0.02611593 -0.059798401 0.050936799
-0.02611593 -0.059798401 0.050936799
-0.02611593 -0.059798401 0.050936799
-0.02611593 -0.059798401 0.050936799
-0.02611593 -0.059798401 0.050936799
-0.02611593 -0.059798401 0.050936799
-0.02611593 -0.059798401 0.050936799
-0.036581203 -0.012182087 -0.036035411
-0.02611593 -0.059798401 0.050936799
-0.02611593 -0.059798401 0.050936799
-0.02611593 -0.059798401 0.050936799
-0.02611593 -0.059798401 0.050936799
-0.02611593 -0.059798401 0.050936799
-0.02611593 -0.059798401 0.050936799
-0.037607599 -0.01416007 -0.037052326
-0.040576547 -0.011167901 -0.035942227
-0.043530699 -0.0091936542 -0.033850502
-0.02611593 -0.059798401 0.050936799
-0.02611593 -0.059798401 0.050936799
-0.02611593 -0.059798401 0.050936799
-0.02611593 -0.059798401 0.050936799
-0.02611593 -0.059798401 0.050936799
-0.042621482 -0.013124201 -0.03794001
-0.02611593 -0.059798401 0.050936799
-0.047526039 -0.0081794644 -0.033757322
-0.02611593 -0.059798401 0.050936799
-0.02611593 -0.059798401 0.050936799
-0.02611593 -0.059798401 0.050936799
-0.02611593 -0.059798401 0.050936799
-0.02611593 -0.059798401 0.050936799
-0.046568509 -0.014163948 -0.034883883
-0.048571154 -0.010139358 -0.035773888
-0.051540103 -0.007147192 -0.0346638
-0.02611593 -0.059798401 0.050936799
-0.02611593 -0.059798401 0.050936799
-0.02611593 -0.059798401 0.050936799
-0.02611593 -0.059798401 0.050936799
-0.02611593 -0.059798401 0.050936799
-0.02611593 -0.059798401 0.050936799
-0.053547595 -0.0091396756 -0.034662258
-0.054502111 -0.0071726041 -0.03260811
-0.02611593 -0.059798401 0.050936799
-0.02611593 -0.059798401 0.050936799
-0.02611593 -0.059798401 0.050936799
-0.02611593 -0.059798401 0.050936799
-0.02611593 -0.059798401 0.050936799
-0.054529604 -0.014171415 -0.032734241
-0.056498725 -0.011182834 -0.031642936
-0.058482651 -0.0071763368 -0.031533282
-0.02611593 -0.059798401 0.050936799
-0.02611593 -0.059798401 0.050936799
-0.02611593 -0.059798401 0.050936799
-0.02611593 -0.059798401 0.050936799
-0.02611593 -0.059798401 0.050936799
-0.058487494 -0.013193402 -0.030641727
-0.061542202 -0.0081111304 -0.034493912
-0.062440552 -0.0061983289 -0.029440779
-0.02611593 -0.059798401 0.050936799
-0.02611593 -0.059798401 0.050936799
-0.02611593 -0.059798401 0.050936799
-0.02611593 -0.059798401 0.050936799
-0.02611593 -0.059798401 0.050936799
-0.063534893 -0.011121534 -0.033510726
-0.065500095 -0.0071331253 -0.032401413
-0.067487948 -0.0041264561 -0.032309778
-0.02611593 -0.059798401 0.050936799
-0.02611593 -0.059798401 0.050936799
-0.02611593 -0.059798401 0.050936799
-0.02611593 -0.059798401 0.050936799
-0.065508865 -0.014150025 -0.031527877
-0.068511337 -0.010121848 -0.032399099
-0.071528584 -0.0050757527 -0.034251954
-0.070431232 -0.0041699563 -0.029254422
-0.02611593 -0.059798401 0.050936799
-0.02611593 -0.059798401 0.050936799
-0.02611593 -0.059798401 0.050936799
-0.02611593 -0.059798401 0.050936799
-0.069470689 -0.014171848 -0.029453397
-0.073506489 -0.0091040758 -0.032287128
-0.075490415 -0.005097575 -0.032177474
-0.075422458 -0.0021523503 -0.029124431
-0.02611593 -0.059798401 0.050936799
-0.02611593 -0.059798401 0.050936799
-0.02611593 -0.059798401 0.050936799
-0.02611593 -0.059798401 0.050936799
-0.074447125 -0.013172158 -0.028341759
-0.082597531 -0.0039640879 -0.038025882
-0.078448489 -0.004123156 -0.030103751
-0.082480356 0.0019444434 -0.032919466
-0.02611593 -0.059798401 0.050936799
-0.02611593 -0.059798401 0.050936799
-0.02611593 -0.059798401 0.050936799
-0.02611593 -0.059798401 0.050936799
-0.08147151 -0.010111369 -0.030155487
-0.085522093 -0.0040256772 -0.033970866
-0.085472867 -0.0010623671 -0.03191749
-0.085404918 0.0018828539 -0.028864451
-0.02611593 -0.059798401 0.050936799
-0.02611593 -0.059798401 0.050936799
-0.02611593 -0.059798401 0.050936799
-0.02611593 -0.059798401 0.050936799
-0.087466478 -0.0090900091 -0.030024726
-0.089465201 -0.004065589 -0.03089672
-0.090430588 -8.077384e-05 -0.029806189
-0.09141469 0.0039221374 -0.029715322
-0.02611593 -0.059798401 0.050936799
-0.02611593 -0.059798401 0.050936799
-0.02611593 -0.059798401 0.050936799
-0.02611593 -0.059798401 0.050936799
-0.092424192 -0.0081084082 -0.027913436
-0.099533416 0.0020597221 -0.035599016
-0.09846957 0.0040015271 -0.032582782
-0.095357791 0.0038822263 -0.026641183
-0.02611593 -0.059798401 0.050936799
-0.02611593 -0.059798401 0.050936799
-0.02611593 -0.059798401 0.050936799
-0.02611593 -0.059798401 0.050936799
-0.096363358 -0.0071484931 -0.024821278
-0.10345779 0.0020017216 -0.031525206
-0.10545651 0.0070261345 -0.032397192
-0.10339285 0.0089643579 -0.029399741
-0.02611593 -0.059798401 0.050936799
-0.02611593 -0.059798401 0.050936799
-0.02611593 -0.059798401 0.050936799
-0.02611593 -0.059798401 0.050936799
-0.10538345 -0.0030806954 -0.026579406
-0.11146326 0.0050480142 -0.032320488
-0.11549121 0.012115444 -0.035118181
-0.11139441 0.013010474 -0.030177012
-0.02611593 -0.059798401 0.050936799
-0.02611593 -0.059798401 0.050936799
-0.02611593 -0.059798401 0.050936799
-0.02611593 -0.059798401 0.050936799
-0.11438482 0.00096901634 -0.027337879
-0.11945002 0.008076217 -0.032116108
-0.11536802 0.0099891666 -0.02815659
-0.11736281 0.01601341 -0.029010549
-0.02611593 -0.059798401 0.050936799
-0.02611593 -0.059798401 0.050936799
-0.02611593 -0.059798401 0.050936799
-0.02611593 -0.059798401 0.050936799
-0.12438601 0.0050223134 -0.028077565
-0.12841395 0.012089743 -0.030875258
-0.13040873 0.018113988 -0.031729225
-0.12533082 0.019023525 -0.027806513
-0.02611593 -0.059798401 0.050936799
-0.02611593 -0.059798401 0.050936799
-0.02611593 -0.059798401 0.050936799
-0.02611593 -0.059798401 0.050936799
-0.13235402 0.0080324281 -0.026873518
-0.14244005 0.01919307 -0.03348504
-0.13737695 0.021120518 -0.030543979
-0.13331366 0.023051551 -0.027584117
-0.02611593 -0.059798401 0.050936799
-0.02611593 -0.059798401 0.050936799
-0.02611593 -0.059798401 0.050936799
-0.02611593 -0.059798401 0.050936799
-0.14736123 0.015121247 -0.02846485
-0.14937083 0.02216341 -0.030300472
-0.15036972 0.027184241 -0.031191248
-0.14026314 0.026039988 -0.025399204
-0.02611593 -0.059798401 0.050936799
-0.02611593 -0.059798401 0.050936799
-0.02611593 -0.059798401 0.050936799
-0.02611593 -0.059798401 0.050936799
-0.15427329 0.018073499 -0.024280623
-0.16335949 0.029230552 -0.030910932
-0.16132542 0.033204608 -0.029876783
-0.15829545 0.036175244 -0.028879434
-0.02611593 -0.059798401 0.050936799
-0.02611593 -0.059798401 0.050936799
-0.02611593 -0.059798401 0.050936799
-0.02611593 -0.059798401 0.050936799
-0.17528634 0.028201438 -0.026704822
-0.18034369 0.037308298 -0.031447008
-0.1752993 0.039253835 -0.029505603
-0.16925509 0.04119578 -0.027582977
-0.02611593 -0.059798401 0.050936799
-0.02611593 -0.059798401 0.050936799
-0.02611593 -0.059798401 0.050936799
-0.02611593 -0.059798401 0.050936799
-0.19827244 0.040318117 -0.028055739
-0.19930094 0.047374777 -0.030909803
-0.19225693 0.049313147 -0.029005978
-0.18421701 0.05024809 -0.027138952
-0.02611593 -0.059798401 0.050936799
-0.02611593 -0.059798401 0.050936799
-0.02611593 -0.059798401 0.050936799
-0.02611593 -0.059798401 0.050936799
-0.22124377 0.051416878 -0.028425019
-0.21923926 0.057426773 -0.029354148
-0.20718925 0.056329612 -0.026598658
-0.20217836 0.059311159 -0.026638556
-0.02611593 -0.059798401 0.050936799
-0.02611593 -0.059798401 0.050936799
-0.02611593 -0.059798401 0.050936799
-0.02611593 -0.059798401 0.050936799
-0.24515085 0.064464621 -0.025740467
-0.24117333 0.068485767 -0.027742893
-0.23617332 0.073485054 -0.028746411
-0.22111297 0.070359387 -0.025083683
-0.02611593 -0.059798401 0.050936799
-0.02611593 -0.059798401 0.050936799
-0.02611593 -0.059798401 0.050936799
-0.02611593 -0.059798401 0.050936799
-0.95359409 0.45989373 -0.22439094
-0.26606151 0.081519015 -0.024039906
-0.25806993 0.084507875 -0.025135823
-0.25309256 0.088525429 -0.027157035
-0.97521377 0.46964547 -0.20580345
-0.02611593 -0.059798401 0.050936799
-0.02611593 -0.059798401 0.050936799
-0.02611593 -0.059798401 0.050936799
-0.98179275 0.47127226 -0.18364336
-0.98000532 0.498568 -0.20018868
-0.97419304 0.52281362 -0.2148639
-0.95433587 0.53993803 -0.22592968
-1.0013793 0.47998071 -0.16311215
-0.98959857 0.50122344 -0.17895381
-0.98681527 0.52751577 -0.19553597
-0.96899128 0.54568326 -0.20854545
-1.0079355 0.48258933 -0.13993436
-0.99918789 0.50487882 -0.15770099
-0.99239838 0.52813911 -0.17341265
-0.98263597 0.54940724 -0.19021642
-1.0245039 0.49126893 -0.11845987
-1.0157788 0.51257664 -0.13724416
-1.0060204 0.53284484 -0.15406594
-0.98624206 0.54904175 -0.16914836
-1.0400578 0.49892697 -0.096022531
-1.0253494 0.51621395 -0.11499163
-1.0196198 0.53853238 -0.13370153
-1.0008827 0.55376911 -0.15078253
-1.0496057 0.50354594 -0.072752327
-1.040922 0.52389014 -0.093553953
-1.0282093 0.54218405 -0.11246745
-1.0255275 0.56656724 -0.13408393
-1.0631409 0.51117879 -0.049352899
-1.0564944 0.53156626 -0.072116271
-1.040809 0.54786795 -0.09212184
-1.1092074 0.61575174 -0.12562466
-1.0826637 0.52183264 -0.025786683
-1.0710443 0.54022062 -0.049679711
-1.0553856 0.55454069 -0.070720978
-1.171811 0.65173662 -0.11079659
-1.0991718 0.53145784 -0.0012951866
-1.0795777 0.54381812 -0.025446653
-1.1149414 0.58846086 -0.052986354
-1.1803523 0.65333444 -0.086599573
-1.1166573 0.54206836 0.024232764
-1.1031064 0.55750394 -0.002750881
-1.2184207 0.64957047 -0.035937734
-1.1798921 0.65088254 -0.061644085
-1.1361345 0.55468571 0.049834341
-1.2394568 0.63567483 0.018223107
-1.222929 0.65011787 -0.0098345801
-1.1824273 0.64944124 -0.036614195
-1.301252 0.64779526 0.080620483
-1.2598963 0.64825958 0.045842797
-1.2254378 0.65065825 0.016231
-1.1879691 0.65102834 -0.012473546
-1.2957101 0.64725274 0.1095167
-1.262341 0.65074527 0.074943401
-1.2229366 0.64916277 0.043166246
-1.1854944 0.64755136 0.013425998
-1.2971323 0.6507166 0.13961618
-1.2578402 0.6492427 0.10184108
-1.2184397 0.64666039 0.070045896
-1.192032 0.65014184 0.037603457
-1.2826076 0.64614242 0.16827121
-1.2513249 0.64671499 0.12968279
-1.2249546 0.65023261 0.095241033
-1.1915678 0.64868975 0.062576964
-1.2780428 0.64658517 0.19820391
-1.2477973 0.64719754 0.15763494
-1.2204537 0.64873004 0.12213871
-1.1930994 0.64824468 0.087606072
-1.261541 0.64102221 0.22580367
-1.2442697 0.6476801 0.18558712
-1.2149757 0.64624208 0.1479999
-1.1906356 0.6467855 0.112542
-1.2589827 0.64448977 0.25482833
-1.2407421 0.64816272 0.21353927
-1.2154809 0.64777499 0.17404592
-1.1941551 0.64934707 0.13766274
-1.2464685 0.64194047 0.28255731
-1.2262774 0.64264297 0.23917729
-1.2099802 0.64626878 0.2009248
-1.1847082 0.64386344 0.16239506
-1.2389228 0.64239067 0.31143397
-1.2227685 0.64314365 0.26612979
-1.2044984 0.64478076 0.22680402
-1.1842401 0.64341122 0.18738659
-1.2244505 0.63887066 0.33710805
-1.2142645 0.64262652 0.29297033
-1.202008 0.64530307 0.25277564
-1.1837683 0.64395887 0.21239614
-1.2099514 0.63733214 0.36381781
-1.2077563 0.64311641 0.31986645
-1.1965221 0.64481485 0.27867287
-1.1783087 0.64148891 0.23725767
-1.1994479 0.63680786 0.39062077
-1.1952833 0.63960356 0.34557807
-1.1870635 0.64233065 0.30345923
-1.1798139 0.64302552 0.26332247
-1.1899359 0.63828677 0.4174785
-1.1848211 0.63811558 0.37036368
-1.1795858 0.63983554 0.32928288
-1.1803191 0.64455837 0.28936848
-1.1734827 0.63477761 0.44211534
-1.1733589 0.6366241 0.39513052
-1.1750958 0.64035064 0.35521692
-1.1668917 0.6390785 0.31302598
-1.160017 0.63427877 0.46686262
-1.1658508 0.63711041 0.42200786
-1.1696209 0.64188015 0.3801505
-1.1614285 0.63760853 0.33790553
-1.1455554 0.63277644 0.49157307
-1.1563803 0.63762569 0.44684824
-1.1581666 0.63838899 0.4048813
-1.1599526 0.63915229 0.36291432
-1.1301087 0.6322884 0.51528305
-1.1399457 0.63413459 0.47048542
-1.1516956 0.63891506 0.4297781
-1.1524899 0.63767517 0.38775629
-1.1166431 0.63178957 0.5400303
-1.1324484 0.6366387 0.49639916
-1.1382605 0.63543481 0.45347163
-1.1470226 0.637205 0.41265386
-1.1002381 0.63033438 0.56170416
-1.1150553 0.63218033 0.51800019
-1.1307858 0.63695705 0.47836766
-1.1425328 0.63772017 0.4385879
-1.0867871 0.63085335 0.58546978
-1.1075581 0.63468444 0.5439139
-1.1213193 0.63647252 0.50319004
-1.1320891 0.63625032 0.46237385
-1.0654323 0.62641692 0.60499632
-1.0901611 0.63122594 0.56553292
-1.1088989 0.63401383 0.52592075
-1.1246263 0.63477314 0.48721582
-1.0539318 0.62990648 0.63085288
-1.0747558 0.62977433 0.58722562
-1.0974514 0.63354021 0.54970592
-1.1132057 0.6323179 0.5099653
-1.0325917 0.62648797 0.64939779
-1.0623049 0.63029689 0.61101002
-1.0879811 0.6340555 0.57454634
-1.1077118 0.63382936 0.53589857
-1.0181785 0.62703955 0.67114526
-1.0468997 0.62884533 0.63270271
-1.0735797 0.63160765 0.59623981
-1.0982641 0.63336295 0.55972135
-0.99781162 0.62560618 0.6907447
-1.0334861 0.62940049 0.65446901
-1.0572013 0.62817085 0.61687797
-1.0887977 0.63287842 0.5845437
-0.97748613 0.62320918 0.7083267
-1.018077 0.62894875 0.67617965
-1.051677 0.63266361 0.64386493
-1.0734229 0.62844533 0.60518271
-0.96504587 0.62574947 0.73114747
-1.0046448 0.62948591 0.69894558
-1.0303634 0.62726355 0.66137421
-1.0669068 0.63093483 0.63211483
-0.94274342 0.62236357 0.74767429
-0.98530042 0.6270743 0.71754611
-1.0189122 0.62778968 0.68517733
-1.0544823 0.62947589 0.6548636
-0.92634535 0.62392592 0.76840258
-0.96892887 0.6266551 0.73723871
-1.007457 0.62931579 0.70899856
-1.0400769 0.62802792 0.67657501
-0.90505743 0.62156147 0.78396654
-0.95353454 0.62722123 0.75796771
-0.99207056 0.62788218 0.72969157
-1.0325609 0.63051385 0.70348835
-0.88572395 0.62116772 0.80160344
-0.93321294 0.62382448 0.77553171
-0.97568417 0.62644511 0.75036579
-1.01127 0.62413198 0.71997988
-0.87522626 0.6286782 0.8265512
-0.9158417 0.62340164 0.79520553
-0.9583168 0.62502253 0.77002156
-1.0007772 0.62562549 0.74581915
-0.84315908 0.61845654 0.83176762
-0.89848506 0.62399673 0.81389767
-0.94488072 0.62655938 0.79280555
-0.99128026 0.62812233 0.77169538
-0.82384425 0.61808079 0.84840488
-0.88113242 0.62359208 0.83257174
-0.9275133 0.62513685 0.81246126
-0.96900833 0.62175494 0.78716844
-0.809434 0.62264985 0.86922479
-0.86277604 0.62418354 0.85124511
-0.91407716 0.62667382 0.83524525
-0.95948869 0.62523353 0.81406224
-0.78327119 0.61737645 0.8786428
-0.84148824 0.6218192 0.86680901
-0.89277059 0.62429118 0.85180885
-0.94505668 0.62576705 0.83680934
-0.76299399 0.61703336 0.89326179
-0.82217342 0.62144345 0.88344634
-0.87639904 0.62387204 0.87150145
-0.92962492 0.62629706 0.85953778
-0.74467111 0.61866093 0.90995395
-0.80188143 0.62008238 0.89904702
-0.85609233 0.6214931 0.88808382
-0.91223878 0.62485635 0.88019317
-0.72439003 0.61931765 0.924591
-0.78551686 0.62268072 0.91779399
-0.83480448 0.61912864 0.90364772
-0.89289439 0.62244487 0.8987937
-0.69924182 0.61506581 0.9330461
-0.76131231 0.61837828 0.92926693
-0.82133782 0.62364697 0.92748547
-0.87745863 0.6239745 0.92154008
-0.68093377 0.61771125 0.94875658
-0.74492502 0.62195832 0.94903153
-0.79907286 0.62029725 0.94201291
-0.85124362 0.61764711 0.93393898
-0.65773594 0.61642987 0.95930266
-0.72267091 0.62062633 0.96259534
-0.77971661 0.62088519 0.96066749
-0.83874333 0.62113309 0.95977676
-0.6394279 0.61907536 0.97501302
-0.69948095 0.61734533 0.97310543
-0.76040179 0.62050945 0.9773047
-0.81254697 0.61482376 0.97117603
-0.61529434 0.61584502 0.98250526
-0.6772455 0.61603135 0.98566961
-0.73717445 0.61719227 0.98981404
-0.79906154 0.61932403 0.99601334
-0.59502405 0.61851954 0.99617881
-0.65889603 0.61964047 1.0033973
-0.71490151 0.6158421 1.0043775
-0.77284265 0.61399639 1.0084304
-0.57186759 0.61627448 1.0047075
-0.63474375 0.61639202 1.0118892
-0.69751841 0.61841887 1.0241054
-0.75446761 0.61456984 1.0281034
-0.55068034 0.6170181 1.0143275
-0.61348546 0.61606348 1.0254899
-0.67330599 0.61611599 1.0356143
-0.73022157 0.61123097 1.0415936
-0.5284971 0.61675823 1.0239108
-0.592242 0.61675268 1.0381089
-0.65102923 0.61576569 1.0501958
-0.71275568 0.61573493 1.0653561
-0.50535154 0.61653095 1.0314758
-0.56810451 0.61452222 1.0456192
-0.62879372 0.61445171 1.06276
-0.68950963 0.6123997 1.0788651
-0.48127407 0.61335486 1.0359691
-0.54684228 0.61519349 1.059238
-0.60942972 0.61703938 1.0814506
-0.67106652 0.61591828 1.1015911
-0.46008286 0.6150983 1.0456072
-0.52268213 0.61394465 1.0677658
-0.58231932 0.61281651 1.0878688
-0.64583564 0.61359376 1.114081
-0.43793708 0.61487466 1.0531911
-0.50052154 0.61270308 1.0763314
-0.56101573 0.61445141 1.1035048
-0.62445712 0.61515629 1.1337156
-0.41481024 0.61466545 1.0597565
-0.4763574 0.61245418 1.0848774
-0.53777653 0.61413366 1.1160682
-0.59539241 0.60896283 1.1380609
-0.39270589 0.61347806 1.065323
-0.45319703 0.61120898 1.093424
-0.5126431 0.61089975 1.1235417
-0.57498717 0.61251044 1.1587501
-0.36866191 0.61133808 1.0678351
-0.43190435 0.61486161 1.1080965
-0.48748308 0.60964739 1.1320508
-0.54783928 0.60825145 1.1671675
-0.34653097 0.61213237 1.0744373
-0.404989 0.60882002 1.1044821
-0.46519843 0.61129677 1.1466686
-0.52549452 0.6108464 1.1848022
-0.32348293 0.61099571 1.0769861
-0.38465476 0.61343986 1.1211905
-0.44007981 0.60908073 1.1531603
-0.50119543 0.61147064 1.2003638
-0.3032462 0.6147061 1.0886782
-0.35959226 0.61127806 1.1246834
-0.41683275 0.61076272 1.1657598
-0.47214547 0.60629511 1.2037274
-0.27928111 0.61163861 1.0871737
-0.33457121 0.60815269 1.126159
-0.39073306 0.60856116 1.1712331
-0.44879696 0.60988623 1.2213612
-0.25625181 0.61052006 1.0887227
-0.31329331 0.61282331 1.1398497
-0.36461064 0.60734147 1.1777242
-0.41972047 0.60669225 1.2257605
-0.23419969 0.61038685 1.0913084
-0.28824559 0.61167938 1.1423609
-0.34046531 0.60711062 1.1852705
-0.39448166 0.60636735 1.2382863
-0.21121173 0.60830462 1.0908401
-0.26416031 0.61050302 1.1468902
-0.31527475 0.60883963 1.1948334
-0.36542383 0.60319144 1.241686
-0.18818241 0.60718608 1.0923892
-0.24007112 0.61032641 1.1514375
-0.29010689 0.60958695 1.2033786
-0.34013578 0.60582983 1.2562652
-0.16708086 0.6100198 1.097047
-0.2160193 0.61018604 1.1539856
-0.26404461 0.60742164 1.2068527
-0.31109673 0.60267204 1.2586653
-0.14411165 0.60795569 1.095579
-0.19199412 0.60806406 1.1554978
-0.23887286 0.60916871 1.2154158
-0.28485021 0.60434324 1.2712083
-0.12199157 0.61076766 1.1012177
-0.16789706 0.60988712 1.1600813
-0.21193093 0.60510874 1.2128371
-0.25678831 0.60217071 1.2746447
-0.10006353 0.60774344 1.0977513
-0.14299223 0.60587049 1.1555407
-0.18488364 0.60395777 1.2153107
-0.22863972 0.60292536 1.2821339
-0.077939518 0.61155528 1.103408
-0.11902712 0.60280293 1.154036
-0.15879479 0.60377395 1.2198205
-0.19963807 0.59980363 1.2825346
-0.055113144 0.60661834 1.0948884
-0.094990134 0.60368049 1.1556023
-0.13367917 0.60557538 1.2253846
-0.17234255 0.60443455 1.2971122
-0.034052961 0.60848832 1.0975288
-0.070746295 0.60937619 1.1672555
-0.10673334 0.60251516 1.222824
-0.14331435 0.60329449 1.2985487
-0.012053061 0.60940927 1.0971334
-0.047044225 0.60154468 1.1526651
-0.080681935 0.60236758 1.2253344
-0.11432749 0.60119075 1.2979678
0.0089243725 0.60935193 1.0957391
-0.02296979 0.602386 1.1562309
-0.053668153 0.6022526 1.2258266
-0.085468702 0.59519625 1.2913167
0.03077358 0.60540032 1.0882561
0.0011351388 0.6062088 1.1608502
-0.027631531 0.60312301 1.2273556
-0.057142839 0.60280496 1.3069292
0.052796129 0.6073029 1.0888783
0.025134675 0.60712248 1.1604172
-0.0016175676 0.60301155 1.2278665
-0.028110702 0.60266471 1.3083836
0.073694751 0.60631812 1.0834674
0.047923602 0.60222161 1.1498984
0.024437772 0.60386378 1.230395
-7.8381971e-05 0.60252804 1.3098569
0.094657391 0.60727876 1.0810915
0.07196451 0.60409904 1.1514827
0.050500967 0.60671568 1.2329595
0.028893661 0.60144228 1.3082943
0.11659327 0.60625428 1.0776612
0.095922679 0.60404909 1.1490325
0.076244041 0.59984058 1.220349
0.057828255 0.60039258 1.3047323
0.13753718 0.60723299 1.0742856
0.11988083 0.60399914 1.1465821
0.10080308 0.58913261 1.1986881
0.087822773 0.60028487 1.3041686
0.15839443 0.60528463 1.0668572
0.14273772 0.60204351 1.1391163
0.12918602 0.60170436 1.21639
0.10936266 0.56447488 1.2330934
0.17929697 0.60529971 1.0614643
0.16663972 0.6020478 1.1336671
0.15620768 0.60358906 1.2169185
0.14455323 0.59631622 1.2900299
0.19917704 0.60433662 1.0550725
0.18953797 0.60105592 1.1282185
0.18214673 0.60354996 1.2134309
0.17459697 0.59917182 1.2915194
0.22114342 0.6062935 1.052696
0.21356407 0.60395122 1.1288214
0.20800699 0.60258347 1.2059267
0.2023889 0.59525293 1.2809247
0.23996359 0.60438842 1.0433059
0.23530093 0.60010803 1.1153402
0.23286743 0.6016205 1.1984413
0.23241393 0.59812665 1.2814147
0.26191124 0.60636342 1.0399295
0.25824448 0.60107958 1.111927
0.25872767 0.60065401 1.1909372
0.2602551 0.59717107 1.2728733
0.28075409 0.60544014 1.0315572
0.2810905 0.60114181 1.1034975
0.28459188 0.60068727 1.1834509
0.28807363 0.59523368 1.263314
0.30059275 0.6035133 1.0231481
0.30401534 0.60213143 1.0990849
0.31051615 0.60166621 1.1789817
0.31691849 0.59527433 1.2547718
0.32150316 0.60552818 1.0177913
0.32686135 0.60219359 1.0906553
0.33640301 0.60268128 1.1725132
0.34582746 0.59726036 1.2492646
0.33928216 0.60266298 1.0064026
0.34762105 0.59933579 1.0782106
0.36124864 0.60273629 1.1640462
0.37156752 0.59440273 1.2357265
0.36017382 0.6046958 1.0000461
0.37157616 0.60330325 1.0748329
0.38503438 0.60184926 1.1525809
0.40047649 0.59638876 1.2302192
0.37691158 0.60087067 0.98665905
0.39339972 0.60238725 1.0654045
0.40879741 0.59998053 1.140098
0.42830679 0.59745091 1.2207142
0.39784464 0.60386705 0.98231983
0.40997201 0.59470749 1.0439481
0.43464684 0.60103172 1.1316302
0.45505449 0.59658933 1.2071933
0.41667268 0.60396171 0.97296584
0.43494964 0.59965312 1.041569
0.42695469 0.55752617 1.0499595
0.4083409 0.50098026 1.0282778
0.43547803 0.60307461 0.96259421
0.45678106 0.6007368 1.0321766
0.48222613 0.60125738 1.1087357
0.50965524 0.59777158 1.185185
0.45535117 0.60512912 0.95525688
0.4775486 0.59987867 1.0197681
0.50286967 0.59750837 1.090275
0.53536558 0.59694982 1.1696835
0.47316065 0.60524541 0.94492197
0.49940264 0.60194403 1.0113935
0.52874553 0.60054111 1.0828429
0.56109881 0.59710974 1.1551996
0.49092481 0.6033982 0.9325518
0.51917428 0.60208935 0.99902171
0.5494343 0.5987556 1.0664178
0.58685058 0.59725159 1.1417155
0.51080585 0.60745239 0.92525041
0.53994578 0.60223103 0.98663121
0.57425028 0.60084635 1.0559874
0.61152387 0.59646958 1.1242334
0.52755153 0.60562688 0.91189939
0.55662751 0.5984602 0.97024506
0.59700668 0.60199875 1.0425776
0.6372835 0.59861106 1.1107852
0.54638737 0.60772121 0.90258145
0.57740283 0.59960163 0.95787257
0.61767668 0.60023135 1.0251528
0.66196066 0.59882885 1.0933214
0.56209177 0.60493553 0.88723177
0.59713709 0.59978312 0.94350153
0.6404143 0.60140181 1.0107433
0.68459296 0.5970903 1.0738597
0.5798865 0.60606974 0.87591535
0.61795777 0.60288817 0.93316442
0.66317457 0.60355413 0.99735159
0.70725173 0.59733337 1.0554335
0.59563226 0.60424781 0.86258304
0.63668823 0.60207337 0.9187941
0.6838485 0.60278642 0.97994477
0.73299652 0.60049284 1.0410037
0.61136335 0.60344386 0.8482691
0.6544041 0.60228014 0.90346092
0.70456773 0.60398221 0.96457326
0.75461417 0.59977585 1.0205791
0.62811679 0.60361803 0.83495408
0.67516083 0.60343969 0.89008874
0.72215945 0.60129797 0.94318807
0.77419072 0.59810233 0.99817473
0.64591539 0.60575199 0.82365566
0.690813 0.60170829 0.87175822
0.7387554 0.59961718 0.92183971
0.79685736 0.60034508 0.97978473
0.65856034 0.60203165 0.80534536
0.70852888 0.601915 0.85642499
0.75639242 0.5988965 0.90248984
0.81948262 0.60162413 0.95937729
0.6773814 0.60514379 0.79504579
0.72214013 0.59922701 0.8361147
0.77300698 0.59719753 0.88214123
0.83601844 0.59899771 0.93501198
0.69107533 0.60438317 0.77877009
0.74497223 0.60532433 0.82579398
0.79369271 0.59942943 0.86478841
0.85562551 0.60030568 0.91366124
0.70578784 0.60360086 0.7634753
0.76165086 0.60557085 0.80848032
0.81235617 0.60068661 0.84645551
0.87727362 0.60257006 0.89429033
0.72050428 0.60381842 0.74819851
0.77630717 0.60484278 0.79018652
0.83101952 0.60194391 0.82812262
0.89481705 0.6019398 0.86994225
0.73626184 0.60499597 0.73492032
0.79096347 0.60411477 0.77189273
0.84457457 0.59931016 0.80481327
0.91136068 0.60131311 0.84561294
0.74791485 0.60327882 0.71666491
0.805601 0.60340482 0.7525993
0.86120099 0.60061079 0.7845186
0.9289307 0.60266435 0.82230049
0.7646575 0.60547066 0.7023862
0.82026124 0.60367656 0.73432356
0.87984961 0.60288596 0.76520407
0.94647801 0.6030339 0.79797041
0.77735156 0.60471368 0.68612939
0.83592528 0.60494453 0.71604705
0.89343125 0.60223383 0.74293047
0.96404803 0.6043852 0.77465802
0.79307568 0.60692716 0.67086989
0.84549981 0.60230714 0.69381255
0.90701288 0.60158169 0.72065687
0.97248775 0.60087818 0.7454266
0.80372488 0.60421383 0.65261525
0.86320871 0.60553145 0.67753375
0.92364317 0.60388219 0.70038021
0.99208391 0.60420376 0.72311234
0.82047534 0.60840535 0.63837266
0.88089889 0.60877389 0.66025543
0.93822849 0.60422635 0.67810583
1.0046135 0.60460937 0.69787651
0.83008724 0.60573184 0.61813736
0.88945484 0.60615814 0.63704002
0.94875455 0.60363919 0.65288955
1.0160832 0.60407299 0.66964251
0.8458153 0.60894519 0.60289592
0.90207803 0.60647327 0.61680245
0.96438891 0.60694301 0.63264978
1.0296166 0.60547477 0.64440596
0.85442734 0.60627526 0.58267951
0.91572368 0.60776651 0.59756386
0.97391111 0.60535979 0.60743433
1.0441724 0.60785472 0.62016827
0.86913294 0.60851043 0.56643909
0.92630577 0.60712516 0.57534659
0.98850435 0.60770351 0.5851959
1.0495976 0.60537642 0.5900116
0.87674916 0.60684389 0.54625952
0.93691057 0.60746557 0.55414706
0.99805319 0.60810173 0.56101614
1.0651573 0.60875255 0.56577313
0.89143604 0.60909718 0.52901947
0.94953775 0.6087805 0.53392756
1.0096204 0.60847473 0.5377984
1.0696015 0.60625976 0.53663498
0.90107846 0.60940498 0.50983799
0.95509428 0.60617548 0.51076859
1.0191693 0.60887301 0.51361865
1.0790982 0.60771209 0.50947428
0.91072088 0.60971284 0.4906565
0.96468055 0.60653758 0.48858812
1.0287032 0.61028916 0.48845723
1.0885947 0.60916442 0.48231348
0.92338938 0.61199141 0.47245437
0.97931898 0.61084485 0.4683851
1.03523 0.60971642 0.46331617
1.1011212 0.61358744 0.45615011
0.92998308 0.60934663 0.45127591
0.98285329 0.60726529 0.44424602
1.0377121 0.6071946 0.43621492
1.1055882 0.61207628 0.4280296
0.94365531 0.61262149 0.43307304
0.99649191 0.61157614 0.42406181
1.0432203 0.6066435 0.41009295
1.1080408 0.61159027 0.39896503
0.95328301 0.61394727 0.4129099
1.0060822 0.61293811 0.4018994
