# .PCD v0.7 - Point Cloud Data file format
VERSION 0.7
FIELDS x y z
SIZE 4 4 4
TYPE F F F
COUNT 1 1 1
WIDTH 1386
HEIGHT 1
VIEWPOINT 0 0 0 1 0 0 0
POINTS 1386
DATA ascii
-0.02611593 -0.059798401 0.050936799
-0.02611593 -0.059798401 0.050936799
-0.02611593 -0.059798401 0.050936799
-0.02611593 -0.059798401 0.050936799
-0.02611593 -0.059798401 0.050936799
-0.02611593 -0.059798401 0.050936799
-0.02611593 -0.059798401 0.050936799
-0.02611593 -0.059798401 0.050936799
-0.02611593 -0.059798401 0.050936799
-0.02611593 -0.059798401 0.050936799
-0.02611593 -0.059798401 0.050936799
-0.02611593 -0.059798401 0.050936799
-0.02611593 -0.059798401 0.050936799
-0.02611593 -0.059798401 0.050936799
-0.02611593 -0.059798401 0.050936799
-0.02611593 -0.059798401 0.050936799
-0.02611593 -0.059798401 0.050936799
-0.02611593 -0.059798401 0.050936799
-0.02611593 -0.059798401 0.050936799
-0.02611593 -0.059798401 0.050936799
-0.02611593 -0.059798401 0.050936799
-0.02611593 -0.059798401 0.050936799
-0.02611593 -0.059798401 0.050936799
-0.02611593 -0.059798401 0.050936799
-0.02611593 -0.059798401 0.050936799
-0.02611593 -0.059798401 0.050936799
-0.02611593 -0.059798401 0.050936799
-0.02611593 -0.059798401 0.050936799
-0.02611593 -0.059798401 0.050936799
-0.02611593 -0.059798401 0.050936799
-0.02611593 -0.059798401 0.050936799
-0.02611593 -0.059798401 0.050936799
-0.02611593 -0.059798401 0.050936799
-0.02611593 -0.059798401 0.050936799
-0.02611593 -0.059798401 0.050936799
-0.02611593 -0.059798401 0.050936799
-0.02611593 -0.059798401 0.050936799
-0.02611593 -0.059798401 0.050936799
-0.02611593 -0.059798401 0.050936799
-0.02611593 -0.059798401 0.050936799
-0.02611593 -0.059798401 0.050936799
-0.02611593 -0.059798401 0.050936799
-0.02611593 -0.059798401 0.050936799
-0.02611593 -0.059798401 0.050936799
-0.02611593 -0.059798401 0.050936799
-1.2765844 -0.10361011 0.31264511
-1.2740638 -0.10115092 0.28663361
-0.02611593 -0.059798401 0.050936799
-0.02611593 -0.059798401 0.050936799
-0.02611593 -0.059798401 0.050936799
-0.02611593 -0.059798401 0.050936799
-0.02611593 -0.059798401 0.050936799
-1.5167295 -0.11448602 0.46899754
-0.02611593 -0.059798401 0.050936799
-0.02611593 -0.059798401 0.050936799
-1.2764238 -0.10577257 0.32160601
-3.0994718 -0.1706271 0.98779106
-1.5216497 -0.11354059 0.47310817
-1.5112921 -0.11396489 0.43889499
-0.02611593 -0.059798401 0.050936799
-3.1009994 -0.16902778 1.0658751
-3.082423 -0.17174219 0.99045259
-3.1492996 -0.17767203 0.94558221
-0.02611593 -0.059798401 0.050936799
-3.1631303 -0.16958907 1.166062
-3.1118073 -0.1731866 1.077006
-3.0812073 -0.17897975 1.0033033
-3.1371884 -0.19187553 0.95410144
-3.2311101 -0.17027356 1.2743591
-3.1798739 -0.17679819 1.1812502
-3.1205266 -0.18346012 1.0939891
-3.0780463 -0.19520485 1.0149544
-3.2930725 -0.17099765 1.3835433
-3.2319622 -0.18044916 1.2841942
-3.1886051 -0.19007121 1.1981795
-3.139231 -0.20475012 1.1139609
-3.3846924 -0.17193967 1.5112849
-3.3068216 -0.18423462 1.3995667
-3.2496285 -0.1967617 1.3052372
-3.2082651 -0.21441141 1.2211151
-3.4702423 -0.17397542 1.6428944
-3.4024043 -0.19021571 1.5302923
-3.3165238 -0.20455711 1.4193875
-3.2782278 -0.22514127 1.3322685
-5.1316471 -0.2268462 2.5523522
-3.4869471 -0.19527264 1.6628286
-3.4200227 -0.21359943 1.5552076
-3.3490591 -0.23599416 1.4504384
-5.0051217 -0.2207614 2.6311202
-5.1056166 -0.26109654 2.5602479
-3.4926405 -0.22264445 1.6844474
-3.4267247 -0.24798456 1.5777186
-4.8885422 -0.2156948 2.7130566
-4.9830508 -0.25905097 2.6420178
-5.0715299 -0.30446446 2.5728295
-3.4983017 -0.26108679 1.7098666
-4.7680912 -0.20951608 2.7879388
-4.8634877 -0.25799444 2.7238262
-4.9578838 -0.30647635 2.6596949
-5.0394082 -0.36291316 2.5901766
-3.2987049 -0.16180304 2.0400376
-4.7430525 -0.25581506 2.798636
-4.8343706 -0.30839753 2.7393744
-4.9158497 -0.36788806 2.6728013
-3.2365019 -0.15918034 2.1029418
-4.6256194 -0.25462472 2.8734846
-4.7040243 -0.30918112 2.8099437
-4.8072233 -0.37488115 2.7596707
-3.2217512 -0.15790978 2.19572
-4.5043197 -0.25332215 2.9412599
-4.5905695 -0.31201199 2.8867946
-4.6887393 -0.37976575 2.8383906
-3.2138312 -0.15677692 2.2976267
-3.515842 -0.21375659 2.4172909
-3.5620563 -0.26159185 2.362272
-4.5663509 -0.38457429 2.9120369
-2.6198542 -0.1381624 1.9677306
-4.287549 -0.25178629 3.0862782
-3.4700058 -0.26294953 2.4175429
-3.5438457 -0.3220804 2.3848448
-2.5244815 -0.13486582 1.986011
-2.6028085 -0.1784156 1.9776868
-3.3335547 -0.2618902 2.4400151
-3.4379365 -0.32536137 2.4328189
-2.4626758 -0.13286307 2.0279043
-2.5932188 -0.17998187 2.0625079
-4.1481147 -0.32093436 3.1744466
-3.2709179 -0.32299739 2.4317338
-2.4314153 -0.13118322 2.0943718
-2.4791341 -0.17748198 2.065418
-2.7968743 -0.24164777 2.2542701
-2.8210447 -0.29663315 2.2027106
-1.9121522 -0.11561508 1.7278072
-2.4488099 -0.17887037 2.135849
-3.9365215 -0.32623467 3.3114357
-2.7658718 -0.30198398 2.2656024
-1.8576487 -0.11429761 1.7538193
-1.8971394 -0.15482506 1.7358196
-2.6403334 -0.24472338 2.3353112
-2.6989219 -0.30616096 2.3162904
-1.8326342 -0.1133609 1.8073863
-1.8445648 -0.15457262 1.7658499
-1.876132 -0.19505645 1.7437012
-1.9125909 -0.2416479 1.7285358
-1.9911335 -0.11809902 2.04935
-1.8951516 -0.15971538 1.895748
-1.8304139 -0.19692324 1.7818244
-1.8580095 -0.24442023 1.7594743
-2.1914454 -0.12382243 2.3551004
-2.0672827 -0.17178196 2.1588418
-1.9673764 -0.21334034 2.0011661
-1.8781272 -0.25418499 1.8617089
-3.3299744 -0.15809895 3.7282622
-2.2684054 -0.1867173 2.4764447
-2.161906 -0.23593765 2.2985001
-2.0551894 -0.28235748 2.1316059
-3.2367964 -0.15556942 3.7895839
-3.2879915 -0.25157756 3.7447908
-3.3430102 -0.34573448 3.7091055
-2.2691445 -0.31747794 2.4620883
-3.1367502 -0.1529384 3.8437769
-3.1967311 -0.25213081 3.8110948
-3.249743 -0.34931248 3.7763176
-3.2997873 -0.45450354 3.7413397
-3.0504806 -0.15147401 3.9102108
-3.0996215 -0.25256085 3.8692884
-3.1476834 -0.35272378 3.8323638
-3.1996043 -0.46003395 3.8043854
-2.9563584 -0.1488938 3.9685149
-3.0044737 -0.2530199 3.9295192
-3.0554161 -0.35629821 3.8995945
-3.1004245 -0.4665606 3.8674319
-2.8622968 -0.14725918 4.0238023
-2.9142356 -0.25455129 3.9948242
-2.958262 -0.35978198 3.9607332
-3.003226 -0.47309816 3.9315155
-2.7749901 -0.14583457 4.0922165
-2.8191297 -0.25597399 4.0530372
-2.8611493 -0.36422944 4.019855
-2.9099557 -0.48069358 3.999655
-2.6819279 -0.14419632 4.1475229
-2.7239861 -0.25743288 4.1132498
-2.769882 -0.36780024 4.0871043
-2.8107762 -0.48722023 4.0627012
-2.5907717 -0.14264137 4.2078648
-2.6328044 -0.25891358 4.1755376
-2.6727314 -0.37228388 4.1482248
-2.7106721 -0.49367809 4.1217303
-2.4976535 -0.1410574 4.2661695
-2.5376606 -0.26037246 4.2357497
-2.5766001 -0.37674582 4.2083645
-2.6163647 -0.50131327 4.1918502
-2.4074821 -0.14051676 4.3275118
-2.441592 -0.26176256 4.291945
-2.4833741 -0.38128746 4.2735591
-2.5191886 -0.50883257 4.2549162
-2.3124206 -0.13888569 4.3827806
-2.3503728 -0.26327944 4.3562312
-2.3862052 -0.38578919 4.3356795
-2.4161787 -0.51521081 4.3088903
-2.2231557 -0.13843192 4.4491396
-2.2610073 -0.26593369 4.428535
-2.2890925 -0.39023668 4.3948011
-2.3218188 -0.52390003 4.3819914
-2.1319847 -0.13789487 4.5104632
-2.1648827 -0.26737806 4.4877291
-2.1977019 -0.39593375 4.4690118
-2.2207189 -0.53136134 4.4409838
-2.035886 -0.13630359 4.5677123
-2.068743 -0.26984036 4.547905
-2.0975897 -0.400392 4.5280766
-2.1244156 -0.54000354 4.5110478
-1.9436591 -0.1358244 4.6320162
-1.9715663 -0.27234241 4.6100616
-1.9974815 -0.40585005 4.5871243
-2.0241694 -0.5486058 4.5780387
-1.8494736 -0.13631603 4.6942649
-1.8754082 -0.2748228 4.671237
-1.9012039 -0.41145653 4.6552429
-1.9210507 -0.55609238 4.6379924
-1.7504166 -0.13569915 4.7494402
-1.7772318 -0.27732843 4.7333746
-1.8000022 -0.41700858 4.7192693
-1.8178986 -0.56461495 4.6999278
-1.6522696 -0.13616899 4.8096147
-1.6761118 -0.27979061 4.7924566
-1.6959133 -0.42246294 4.7772412
-1.7136719 -0.57321346 4.7658434
-1.5560248 -0.13572223 4.8748426
-1.5739547 -0.28229254 4.8535194
-1.5946181 -0.42810544 4.8462663
-1.6112239 -0.5830217 4.8437743
-1.4568405 -0.13623182 4.9369974
-1.4765573 -0.28601152 4.9276538
-1.4933081 -0.43476593 4.9162731
-1.5040952 -0.59254044 4.9046168
-1.3565776 -0.13581751 5.00315
-1.3733668 -0.28955302 4.9906788
-1.3861488 -0.44130322 4.9781694
-1.3986853 -0.60232317 4.9804926
-1.2562438 -0.1364754 5.0732837
-1.2700601 -0.29220322 5.0597205
-1.2807645 -0.44805038 5.0520988
-1.28561 -0.61080933 5.0382414
-1.1530415 -0.13701743 5.136363
-1.163743 -0.29688197 5.1296692
-1.1743805 -0.45480111 5.1260104
-1.1752797 -0.62153757 5.1100059
-1.0486482 -0.1367441 5.2094378
-1.0555869 -0.29940543 5.1906195
-1.0611849 -0.4613961 5.1897931
-1.0657287 -0.63347918 5.1937666
-0.94139063 -0.13735476 5.2754407
-0.94612068 -0.30423966 5.2685084
-0.95071191 -0.46925148 5.2686095
-0.94836223 -0.64426869 5.2673993
-1.4120576 -0.19515908 9.1405172
-1.4142978 -0.48701537 9.1302767
-1.410898 -0.77453214 9.1000023
-1.3967757 -1.074869 9.057291
-1.1532356 -0.18822198 8.7546673
-1.151718 -0.46982294 8.7295361
-1.1414783 -0.74516791 8.6883507
-1.1242535 -1.033572 8.648797
-0.91891146 -0.1836832 8.3962393
-0.90950203 -0.45417011 8.3631592
-0.89722335 -0.71952397 8.3221159
-0.87245435 -0.99447048 8.2556562
-0.70331776 -0.17832966 8.0521841
-0.6889261 -0.43878192 8.0161905
-0.6728375 -0.69493461 7.9632382
-0.64495105 -0.95896614 7.900919
-0.50403208 -0.17458424 7.7454162
-0.48851573 -0.42713189 7.7145467
-0.46651989 -0.67318112 7.654664
-0.43852711 -0.92928642 7.5964875
-0.32118171 -0.17132047 7.4689584
-0.30204257 -0.41448605 7.4161835
-0.27785122 -0.65370649 7.365386
-0.24510089 -0.89955997 7.2923007
-0.15132506 -0.16701022 7.1927624
-0.12790093 -0.40444446 7.1540155
-0.10282812 -0.63552511 7.0953469
-0.068971649 -0.873456 7.0263853
0.0071665049 -0.16427176 6.9507627
0.032524109 -0.39462388 6.9071064
0.06044057 -0.61753577 6.8385282
0.095616072 -0.85076058 6.7856326
0.15414701 -0.16196054 6.7349792
0.18012002 -0.38491949 6.6694379
0.21143004 -0.60320479 6.6208863
0.24813502 -0.82694978 6.5411248
0.29205036 -0.16054448 6.5153484
0.32229352 -0.37675416 6.4628539
0.3523652 -0.58878362 6.400434
0.39124313 -0.80668163 6.3287401
0.42246461 -0.15858833 6.3228769
0.45465216 -0.36973366 6.2664356
0.48561612 -0.5756411 6.1971083
0.52560711 -0.78863394 6.1304836
0.54589885 -0.15662512 6.131537
0.57682538 -0.36249638 6.0602093
0.61201417 -0.563618 6.0018926
0.65101022 -0.77059019 5.9343963
0.66152185 -0.15481409 5.9503436
0.69563586 -0.35585979 5.8880467
0.72950757 -0.55165303 5.8118448
0.76936245 -0.75146723 5.7354589
0.77142274 -0.15425269 5.7842398
-0.02611593 -0.059798401 0.050936799
-0.02611593 -0.059798401 0.050936799
0.88337374 -0.7369768 5.5725307
0.87532872 -0.15266994 5.6182666
0.16697621 -0.11795858 1.1826532
0.17457819 -0.15674549 1.1688045
0.99158442 -0.72466356 5.4206762
-0.02611593 -0.059798401 0.050936799
0.1884854 -0.11756721 1.1562486
0.19714727 -0.15541217 1.1453981
1.0915459 -0.70906883 5.2550306
1.0718504 -0.15114856 5.3245149
0.20901743 -0.11619052 1.1308805
0.21873528 -0.15409333 1.1230102
1.1887625 -0.6957162 5.1034007
-0.02611593 -0.059798401 0.050936799
0.22848952 -0.11575581 1.1025141
0.24148768 -0.15394071 1.1095824
1.2779619 -0.68231678 4.9509211
0.29776067 -0.08299306 1.3228846
0.25022337 -0.11558151 1.0881054
0.26416516 -0.15371574 1.0921561
1.3686398 -0.67139089 4.824378
0.31161189 -0.08294329 1.2616053
0.2752001 -0.11565315 1.0866362
0.28804845 -0.15369333 1.0857072
1.4574976 -0.66263849 4.7078333
0.33523306 -0.082667641 1.2411611
0.29478452 -0.11532697 1.0642676
0.31396881 -0.1537143 1.0812199
1.535957 -0.65045279 4.5695381
0.37486249 -0.083422638 1.2744167
0.32079458 -0.1164382 1.0647608
0.34308669 -0.15594466 1.0876365
1.6179097 -0.64176553 4.4581227
0.40274501 -0.083414592 1.2678926
0.35523373 -0.11799419 1.0880957
0.37107763 -0.15704499 1.0870923
0.50212258 -0.23565824 1.3693125
0.36638099 -0.080040127 1.0885737
0.38637394 -0.11924999 1.0954925
0.4021804 -0.15826461 1.0924898
1.7655783 -0.62309891 4.2226162
0.45109558 -0.083975255 1.2329655
0.41962215 -0.12162133 1.1088318
0.44475612 -0.16299351 1.1236176
1.8365891 -0.61442655 4.1144066
1.7744722 -0.15024063 4.2330065
0.46846679 -0.12462536 1.1538781
1.8596742 -0.45301187 4.0878854
1.9066898 -0.60684085 4.0111961
1.8416357 -0.15073326 4.1347065
1.8836452 -0.30152673 4.0571661
1.9226186 -0.447256 3.976773
1.9706832 -0.59812528 3.9021189
1.9057622 -0.15117899 4.0344644
1.9467462 -0.29893321 3.9549973
1.9877646 -0.44270617 3.8766017
2.0317333 -0.58945322 3.796097
1.9659082 -0.15162843 3.9352963
2.0079226 -0.29640484 3.856864
2.0520232 -0.43826127 3.7824471
2.0980177 -0.58303398 3.7029402
2.0282223 -0.15224785 3.8450878
2.0691323 -0.29491246 3.7607129
2.1184456 -0.43498617 3.6972339
2.1675043 -0.57782423 3.6207058
2.0864434 -0.15276247 3.7499564
2.1356597 -0.29374558 3.6814611
2.178705 -0.43052694 3.6031547
2.2257156 -0.57130384 3.523701
2.1509631 -0.15358806 3.6707065
2.194005 -0.29136923 3.5923817
2.2349463 -0.42603523 3.5081508
2.2819872 -0.56383073 3.4297507
2.2062972 -0.15420043 3.581629
2.2451792 -0.28980482 3.4944186
2.2954075 -0.42277479 3.4250495
2.3434 -0.55851996 3.3436677
2.2575722 -0.15574405 3.48961
2.3077257 -0.28864163 3.4162421
2.3517947 -0.4194276 3.3380246
2.3967247 -0.55209017 3.2527552
2.315037 -0.15649024 3.4074926
2.3641798 -0.28736648 3.33318
2.4041114 -0.41499388 3.2470946
2.4592831 -0.5479275 3.1746323
2.365428 -0.15713896 3.3215084
2.4114673 -0.28589624 3.2412903
2.4595923 -0.4117336 3.165087
2.509608 -0.54148704 3.083776
2.4189086 -0.1588887 3.240448
2.470052 -0.2847549 3.1651881
2.5191438 -0.40955982 3.0869849
2.5640969 -0.53622341 3.0018234
2.4744861 -0.15973626 3.1643665
2.5225403 -0.2845014 3.0841827
2.5655138 -0.40615869 2.9991488
2.6175673 -0.53093821 2.9188895
2.5260038 -0.161515 3.0853429
2.5699587 -0.2831578 2.9992905
2.6241772 -0.40408987 2.9270632
2.6710899 -0.52670705 2.8389368
2.5775824 -0.1623482 3.0093362
2.6245627 -0.28202018 2.9242632
2.6665149 -0.39963838 2.8373206
2.713454 -0.52027398 2.7502301
2.6281195 -0.16414148 2.9313314
2.6740894 -0.2817921 2.8453133
2.7180672 -0.3974359 2.7593691
2.7710881 -0.51616573 2.6762002
2.6766982 -0.16496389 2.855381
2.7277086 -0.28166881 2.7712865
2.7737317 -0.3953563 2.6873398
2.8267 -0.51303208 2.6011903
2.7160501 -0.16653678 2.7675862
2.777276 -0.28047708 2.6943538
2.8201954 -0.39204562 2.6045017
2.8701351 -0.50767475 2.5164452
2.7717733 -0.16852887 2.6994836
2.818733 -0.2791481 2.6115739
2.871804 -0.38989741 2.5295489
3.4130466 -0.5776332 2.8391244
2.8173342 -0.16932243 2.6225901
2.8642604 -0.27890569 2.5326991
2.9579525 -0.3924132 2.483875
4.2636142 -0.68940276 3.3613546
2.8608911 -0.17110866 2.5457163
2.9687386 -0.28281152 2.5046628
2.9994175 -0.38908458 2.4011307
4.3315048 -0.68261075 3.2471678
2.9572773 -0.17489535 2.5128322
3.0183399 -0.28265578 2.4297113
3.0419154 -0.38679552 2.3203492
4.4298396 -0.68137789 3.1573186
3.0038524 -0.17671043 2.4369016
3.0537415 -0.28125101 2.3440452
3.1056867 -0.38585302 2.2541497
4.4988012 -0.67566168 3.0470934
3.0545018 -0.1786122 2.3648944
3.1175423 -0.28234434 2.2798088
3.155273 -0.38467938 2.1782169
4.5596371 -0.66879022 2.9300389
3.1061511 -0.1805176 2.2928686
3.1640694 -0.28210551 2.2009153
3.1987748 -0.38139409 2.0974345
4.6477904 -0.66634071 2.830399
3.1507077 -0.18230739 2.215976
3.2126856 -0.28296411 2.1269648
3.2483988 -0.38025665 2.0235012
4.7086639 -0.65950543 2.715344
3.1972978 -0.1851404 2.141027
3.25825 -0.28275782 2.0500891
4.6998196 -0.51405519 2.7491519
4.782692 -0.65587926 2.6089876
3.2429483 -0.18702425 2.069114
4.6897979 -0.37545538 2.7748556
4.7657328 -0.5112915 2.63693
4.7466679 -0.6377787 2.4449339
4.6778617 -0.24395576 2.8064682
4.7547746 -0.37575996 2.6665969
4.8407717 -0.50968659 2.5315185
4.9225702 -0.64641744 2.3864644
4.7418451 -0.24727434 2.6991742
4.6813622 -0.36718121 2.4840646
4.7240877 -0.49064767 2.3329802
5.0025597 -0.64277655 2.2779958
4.805829 -0.25059292 2.5918798
4.5939746 -0.35757047 2.3028131
4.9816637 -0.50626355 2.3108678
5.064373 -0.63689053 2.159905
4.6406312 -0.24492714 2.3689997
4.6903501 -0.36038396 2.2159283
5.0616641 -0.5046404 2.2033629
5.1483579 -0.63426381 2.0513434
4.7329469 -0.2486718 2.2791731
5.0366874 -0.37907499 2.2341123
5.1214848 -0.50176477 2.0862548
13.553823 -1.5353652 4.9336476
5.0208468 -0.26170337 2.273545
5.1056223 -0.38035762 2.1237609
13.517118 -1.2051957 5.0463457
13.74832 -1.5257838 4.6370783
5.0928669 -0.26508686 2.1680999
13.464946 -0.89458889 5.1379719
13.705561 -1.2005556 4.7477999
13.937691 -1.5150579 4.3336244
5.1486797 -0.26921374 2.0519409
13.650505 -0.89808148 4.8473358
13.901029 -1.1979766 4.451086
14.140056 -1.5053786 4.0299077
13.599657 -0.61488968 4.9614491
13.845004 -0.90255195 4.5535135
14.098423 -1.1953323 4.1503363
14.34627 -1.4955688 3.7181184
13.778078 -0.62524742 4.6648207
14.038431 -0.90594649 4.2557297
14.312755 -1.1936947 3.8462503
14.557405 -1.4867046 3.4022188
13.97762 -0.63780677 4.3747592
14.238761 -0.9102757 3.9527984
14.509943 -1.1908514 3.5345042
14.767484 -1.4777822 3.0833392
14.17105 -0.65023619 4.0788126
14.443048 -0.9155829 3.6477742
14.722012 -1.1889534 3.21646
14.970469 -1.4687445 2.7595923
14.374398 -0.66362876 3.7786615
14.646293 -0.92185014 3.3407514
14.926079 -1.1880263 2.8985486
15.185322 -1.4596235 2.4286222
14.571599 -0.67685515 3.4706256
13.430075 -0.84424841 2.7407224
15.116914 -1.1848178 2.5679212
15.427012 -1.4524539 2.089112
14.719499 -0.68759865 3.1465523
13.033622 -0.81551158 2.3425303
12.087271 -0.94654924 1.7726848
15.652597 -1.4441187 1.743922
13.253638 -0.63052064 2.5188169
12.228481 -0.7644999 1.9073799
11.529639 -0.89290452 1.4149743
6.1919045 -0.59671819 0.57298338
12.588502 -0.60613358 2.0875649
11.736793 -0.73212463 1.55005
11.528466 -0.8798914 1.1371377
5.9899654 -0.56904143 0.41321075
12.030399 -0.5861575 1.711248
11.45302 -0.71144933 1.2416325
6.0695391 -0.48554775 0.48025393
6.0593419 -0.56376791 0.27195936
11.503886 -0.56787133 1.3663195
6.1390162 -0.40794486 0.54337835
6.005825 -0.47567093 0.33457613
6.0537343 -0.55320793 0.13120763
10.986917 -0.55014211 1.0502123
5.9661765 -0.3965323 0.39176935
6.0111952 -0.47014964 0.19352765
3.8617291 -0.36839306 0.010550067
6.0386777 -0.3320103 0.45860177
6.0325642 -0.39828295 0.25244755
3.8826628 -0.32119659 0.051025584
-0.02611593 -0.059798401 0.050936799
6.0500112 -0.33550897 0.31727836
6.0649109 -0.39785767 0.11080161
-0.02611593 -0.059798401 0.050936799
3.6126451 -0.33638555 -0.15726432
6.0352979 -0.33786023 0.17346257
3.8838055 -0.27621633 -0.0032005459
3.6154945 -0.2970688 -0.11959369
4.0632992 -0.36392632 -0.28124198
3.882715 -0.24095695 0.038471811
-0.02611593 -0.059798401 0.050936799
-0.02611593 -0.059798401 0.050936799
-0.02611593 -0.059798401 0.050936799
-0.02611593 -0.059798401 0.050936799
3.6306782 -0.26020986 -0.17022839
-0.02611593 -0.059798401 0.050936799
3.8273172 -0.33407366 -0.44333869
3.6175063 -0.23185192 -0.13145567
-0.02611593 -0.059798401 0.050936799
3.7962735 -0.29774293 -0.39908531
1.9231735 -0.19512515 -0.24610771
-0.02611593 -0.059798401 0.050936799
-0.02611593 -0.059798401 0.050936799
4.3899603 -0.3309131 -0.57486027
4.2544231 -0.35104412 -0.70473081
-0.02611593 -0.059798401 0.050936799
3.8412664 -0.26984537 -0.45844316
4.305243 -0.32191604 -0.66714269
3.4505842 -0.29092467 -0.6465736
3.801188 -0.24749805 -0.41327322
1.9371351 -0.16603561 -0.25384554
4.0033803 -0.30088034 -0.71412641
3.9179885 -0.31531841 -0.83783072
1.9325684 -0.15639922 -0.23257855
4.2055254 -0.28873411 -0.7106902
3.3800783 -0.26006353 -0.67870623
3.4096012 -0.27685973 -0.80760646
4.2672434 -0.27560663 -0.67559648
3.5361786 -0.25171536 -0.67647702
3.4362812 -0.26055288 -0.77479994
3.4926119 -0.27726513 -0.91420412
3.4562261 -0.23736785 -0.62270236
3.8661373 -0.27010325 -0.83804214
3.4784679 -0.26097387 -0.87163019
3.6938283 -0.28337297 -1.0631323
3.974489 -0.26683524 -0.82100588
3.4512956 -0.24761745 -0.82986563
3.737407 -0.27305371 -1.0347521
3.5926881 -0.27185807 -1.1250514
3.3584232 -0.23731303 -0.77092046
3.6108115 -0.25586367 -0.96204615
3.6332214 -0.26349154 -1.0986501
3.4985836 -0.26040447 -1.1851027
3.4762087 -0.24566177 -0.88831651
3.6747015 -0.25909179 -1.0743389
2.0327072 -0.17229405 -0.64888203
-0.02611593 -0.059798401 0.050936799
3.7181914 -0.26173419 -1.048192
2.0450313 -0.17064497 -0.63207728
3.4568663 -0.24851756 -1.2251202
0.18628125 -0.07109917 -0.034273144
3.6050029 -0.25815678 -1.1110295
3.4803531 -0.2480706 -1.1995431
-0.02611593 -0.059798401 0.050936799
-0.02611593 -0.059798401 0.050936799
3.5058453 -0.2556656 -1.1721486
-0.02611593 -0.059798401 0.050936799
0.18422937 -0.070037901 -0.037216529
0.16721767 -0.068958968 -0.037878737
-0.02611593 -0.059798401 0.050936799
0.18724363 -0.071066588 -0.036291253
-0.02611593 -0.059798401 0.050936799
-0.02611593 -0.059798401 0.050936799
0.19223876 -0.07208436 -0.036403224
-0.02611593 -0.059798401 0.050936799
0.15923789 -0.068948343 -0.036728747
0.14422582 -0.0678766 -0.037428536
-0.02611593 -0.059798401 0.050936799
0.16123357 -0.069955356 -0.036784347
-0.02611593 -0.059798401 0.050936799
-0.02611593 -0.059798401 0.050936799
0.16424783 -0.070984043 -0.035859071
-0.02611593 -0.059798401 0.050936799
0.13526884 -0.066880643 -0.03524207
0.12525588 -0.065826833 -0.036035813
-0.02611593 -0.059798401 0.050936799
0.13924545 -0.067876741 -0.036334917
-0.02611593 -0.059798401 0.050936799
-0.02611593 -0.059798401 0.050936799
0.13829395 -0.069927074 -0.03335318
-0.02611593 -0.059798401 0.050936799
0.11529516 -0.065827124 -0.033848591
0.11124364 -0.064758673 -0.036754396
-0.02611593 -0.059798401 0.050936799
0.12422948 -0.067804821 -0.037052725
-0.02611593 -0.059798401 0.050936799
-0.02611593 -0.059798401 0.050936799
0.11830154 -0.068855464 -0.032959349
-0.02611593 -0.059798401 0.050936799
0.10229753 -0.065780461 -0.033604313
0.096269034 -0.063723095 -0.035454851
-0.02611593 -0.059798401 0.050936799
0.10429323 -0.066787474 -0.033659909
-0.02611593 -0.059798401 0.050936799
-0.02611593 -0.059798401 0.050936799
0.10430803 -0.067805395 -0.032678261
-0.02611593 -0.059798401 0.050936799
0.090284929 -0.064719483 -0.034360461
0.086256072 -0.062669285 -0.036248595
-0.02611593 -0.059798401 0.050936799
0.091299541 -0.065740988 -0.033397619
-0.02611593 -0.059798401 0.050936799
-0.02611593 -0.059798401 0.050936799
0.092291504 -0.06774424 -0.033452444
-0.02611593 -0.059798401 0.050936799
0.08029069 -0.063683763 -0.034154534
0.073295899 -0.062658809 -0.034004983
-0.02611593 -0.059798401 0.050936799
0.082263738 -0.065672517 -0.03522782
-0.02611593 -0.059798401 0.050936799
-0.02611593 -0.059798401 0.050936799
0.080316357 -0.066719428 -0.03220927
-0.02611593 -0.059798401 0.050936799
0.070273794 -0.063629784 -0.034966297
0.067244761 -0.061583176 -0.036873214
-0.02611593 -0.059798401 0.050936799
0.071288407 -0.064651296 -0.03400344
-0.02611593 -0.059798401 0.050936799
-0.02611593 -0.059798401 0.050936799
0.066356353 -0.066705361 -0.029946886
-0.02611593 -0.059798401 0.050936799
0.059335902 -0.062644742 -0.031742595
0.057287958 -0.060583636 -0.034667965
-0.02611593 -0.059798401 0.050936799
0.060309142 -0.064629897 -0.032797091
-0.02611593 -0.059798401 0.050936799
-0.02611593 -0.059798401 0.050936799
0.059342839 -0.065662324 -0.030796994
-0.02611593 -0.059798401 0.050936799
0.054280657 -0.062572531 -0.034647629
0.05028924 -0.06055852 -0.034536432
-0.02611593 -0.059798401 0.050936799
0.056234982 -0.064543188 -0.036720574
-0.02611593 -0.059798401 0.050936799
-0.02611593 -0.059798401 0.050936799
0.052325398 -0.065619111 -0.03166512
-0.02611593 -0.059798401 0.050936799
0.04532367 -0.061576579 -0.032461174
0.042290706 -0.060529806 -0.034386106
-0.02611593 -0.059798401 0.050936799
0.050221287 -0.063503735 -0.037589472
-0.02611593 -0.059798401 0.050936799
-0.02611593 -0.059798401 0.050936799
0.04532668 -0.065593988 -0.031533584
-0.02611593 -0.059798401 0.050936799
0.040287148 -0.061522454 -0.034366541
0.038257916 -0.059479441 -0.036292251
-0.02611593 -0.059798401 0.050936799
0.037354726 -0.063583702 -0.030347563
-0.02611593 -0.059798401 0.050936799
-0.02611593 -0.059798401 0.050936799
0.036365777 -0.065597869 -0.029365152
-0.02611593 -0.059798401 0.050936799
0.034269515 -0.061482832 -0.035253465
-0.02611593 -0.059798401 0.050936799
-0.02611593 -0.059798401 0.050936799
0.033299293 -0.063515082 -0.03327138
-0.02611593 -0.059798401 0.050936799
-0.02611593 -0.059798401 0.050936799
0.032310337 -0.065529242 -0.032288976
-0.02611593 -0.059798401 0.050936799
0.028289339 -0.06147939 -0.034141056
-0.02611593 -0.059798401 0.050936799
-0.02611593 -0.059798401 0.050936799
0.027304314 -0.062493715 -0.033140618
-0.02611593 -0.059798401 0.050936799
-0.02611593 -0.059798401 0.050936799
-0.02611593 -0.059798401 0.050936799
-0.02611593 -0.059798401 0.050936799
-0.02611593 -0.059798401 0.050936799
-0.02611593 -0.059798401 0.050936799
-0.02611593 -0.059798401 0.050936799
-0.02611593 -0.059798401 0.050936799
-0.02611593 -0.059798401 0.050936799
-0.02611593 -0.059798401 0.050936799
-0.02611593 -0.059798401 0.050936799
-0.02611593 -0.059798401 0.050936799
-0.02611593 -0.059798401 0.050936799
-0.02611593 -0.059798401 0.050936799
-0.02611593 -0.059798401 0.050936799
-0.02611593 -0.059798401 0.050936799
-0.02611593 -0.059798401 0.050936799
-0.02611593 -0.059798401 0.050936799
-0.02611593 -0.059798401 0.050936799
-0.02611593 -0.059798401 0.050936799
-0.02611593 -0.059798401 0.050936799
-0.02611593 -0.059798401 0.050936799
-0.02611593 -0.059798401 0.050936799
-0.02611593 -0.059798401 0.050936799
-0.02611593 -0.059798401 0.050936799
-0.02611593 -0.059798401 0.050936799
-0.02611593 -0.059798401 0.050936799
-0.02611593 -0.059798401 0.050936799
-0.02611593 -0.059798401 0.050936799
-0.02611593 -0.059798401 0.050936799
-0.02611593 -0.059798401 0.050936799
-0.02611593 -0.059798401 0.050936799
-0.02611593 -0.059798401 0.050936799
-0.02611593 -0.059798401 0.050936799
-0.02611593 -0.059798401 0.050936799
-0.02611593 -0.059798401 0.050936799
-0.02611593 -0.059798401 0.050936799
-0.02611593 -0.059798401 0.050936799
-0.02611593 -0.059798401 0.050936799
-0.02611593 -0.059798401 0.050936799
-0.02611593 -0.059798401 0.050936799
-0.02611593 -0.059798401 0.050936799
-0.02611593 -0.059798401 0.050936799
-0.02611593 -0.059798401 0.050936799
-0.02611593 -0.059798401 0.050936799
-0.02611593 -0.059798401 0.050936799
-0.02611593 -0.059798401 0.050936799
-0.02611593 -0.059798401 0.050936799
-0.02611593 -0.059798401 0.050936799
-0.02611593 -0.059798401 0.050936799
-0.02611593 -0.059798401 0.050936799
-0.02611593 -0.059798401 0.050936799
-0.02611593 -0.059798401 0.050936799
-0.02611593 -0.059798401 0.050936799
-0.02611593 -0.059798401 0.050936799
-0.02611593 -0.059798401 0.050936799
-0.02611593 -0.059798401 0.050936799
-0.02611593 -0.059798401 0.050936799
-0.02611593 -0.059798401 0.050936799
-0.02611593 -0.059798401 0.050936799
-0.02611593 -0.059798401 0.050936799
-0.02611593 -0.059798401 0.050936799
-0.02611593 -0.059798401 0.050936799
-0.02611593 -0.059798401 0.050936799
-0.02611593 -0.059798401 0.050936799
-0.02611593 -0.059798401 0.050936799
-0.02611593 -0.059798401 0.050936799
-0.02611593 -0.059798401 0.050936799
-0.02611593 -0.059798401 0.050936799
-0.02611593 -0.059798401 0.050936799
-0.02611593 -0.059798401 0.050936799
-0.02611593 -0.059798401 0.050936799
-0.02611593 -0.059798401 0.050936799
-0.02611593 -0.059798401 0.050936799
-0.02611593 -0.059798401 0.050936799
-0.02611593 -0.059798401 0.050936799
-0.02611593 -0.059798401 0.050936799
-0.02611593 -0.059798401 0.050936799
-0.02611593 -0.059798401 0.050936799
-0.02611593 -0.059798401 0.050936799
-0.02611593 -0.059798401 0.050936799
-0.02611593 -0.059798401 0.050936799
-0.02611593 -0.059798401 0.050936799
-0.02611593 -0.059798401 0.050936799
-0.02611593 -0.059798401 0.050936799
-0.02611593 -0.059798401 0.050936799
-0.02611593 -0.059798401 0.050936799
-0.02611593 -0.059798401 0.050936799
-0.02611593 -0.059798401 0.050936799
-0.02611593 -0.059798401 0.050936799
-0.02611593 -0.059798401 0.050936799
-0.02611593 -0.059798401 0.050936799
-0.02611593 -0.059798401 0.050936799
-0.02611593 -0.059798401 0.050936799
-0.02611593 -0.059798401 0.050936799
-0.02611593 -0.059798401 0.050936799
-0.02611593 -0.059798401 0.050936799
-0.02611593 -0.059798401 0.050936799
-0.02611593 -0.059798401 0.050936799
-0.02611593 -0.059798401 0.050936799
-0.02611593 -0.059798401 0.050936799
-0.02611593 -0.059798401 0.050936799
-0.02611593 -0.059798401 0.050936799
-0.02611593 -0.059798401 0.050936799
-0.02611593 -0.059798401 0.050936799
-0.02611593 -0.059798401 0.050936799
-0.02611593 -0.059798401 0.050936799
-0.02611593 -0.059798401 0.050936799
-0.02611593 -0.059798401 0.050936799
-0.02611593 -0.059798401 0.050936799
-0.02611593 -0.059798401 0.050936799
-0.02611593 -0.059798401 0.050936799
-0.02611593 -0.059798401 0.050936799
-0.02611593 -0.059798401 0.050936799
-0.02611593 -0.059798401 0.050936799
-0.02611593 -0.059798401 0.050936799
-0.02611593 -0.059798401 0.050936799
-0.02611593 -0.059798401 0.050936799
-0.02611593 -0.059798401 0.050936799
-0.02611593 -0.059798401 0.050936799
-0.02611593 -0.059798401 0.050936799
-0.02611593 -0.059798401 0.050936799
-0.02611593 -0.059798401 0.050936799
-0.02611593 -0.059798401 0.050936799
-0.02611593 -0.059798401 0.050936799
-0.02611593 -0.059798401 0.050936799
-0.02611593 -0.059798401 0.050936799
-0.02611593 -0.059798401 0.050936799
-0.02611593 -0.059798401 0.050936799
-0.02611593 -0.059798401 0.050936799
-0.02611593 -0.059798401 0.050936799
-0.02611593 -0.059798401 0.050936799
-0.02611593 -0.059798401 0.050936799
-0.02611593 -0.059798401 0.050936799
-0.02611593 -0.059798401 0.050936799
-0.02611593 -0.059798401 0.050936799
-0.02611593 -0.059798401 0.050936799
-0.02611593 -0.059798401 0.050936799
-0.02611593 -0.059798401 0.050936799
-0.02611593 -0.059798401 0.050936799
-0.02611593 -0.059798401 0.050936799
-0.02611593 -0.059798401 0.050936799
-0.02611593 -0.059798401 0.050936799
-0.02611593 -0.059798401 0.050936799
-0.02611593 -0.059798401 0.050936799
-0.02611593 -0.059798401 0.050936799
-0.02611593 -0.059798401 0.050936799
-0.02611593 -0.059798401 0.050936799
-0.02611593 -0.059798401 0.050936799
-0.02611593 -0.059798401 0.050936799
-0.02611593 -0.059798401 0.050936799
-0.02611593 -0.059798401 0.050936799
-0.02611593 -0.059798401 0.050936799
-0.02611593 -0.059798401 0.050936799
-0.02611593 -0.059798401 0.050936799
-0.02611593 -0.059798401 0.050936799
-0.02611593 -0.059798401 0.050936799
-0.02611593 -0.059798401 0.050936799
-0.02611593 -0.059798401 0.050936799
-0.02611593 -0.059798401 0.050936799
-0.02611593 -0.059798401 0.050936799
-0.02611593 -0.059798401 0.050936799
-0.02611593 -0.059798401 0.050936799
-0.02611593 -0.059798401 0.050936799
-0.02611593 -0.059798401 0.050936799
-0.02611593 -0.059798401 0.050936799
-0.02611593 -0.059798401 0.050936799
-0.02611593 -0.059798401 0.050936799
-0.02611593 -0.059798401 0.050936799
-0.02611593 -0.059798401 0.050936799
-0.02611593 -0.059798401 0.050936799
-0.02611593 -0.059798401 0.050936799
-0.02611593 -0.059798401 0.050936799
-0.02611593 -0.059798401 0.050936799
-0.02611593 -0.059798401 0.050936799
-0.02611593 -0.059798401 0.050936799
-0.02611593 -0.059798401 0.050936799
-0.02611593 -0.059798401 0.050936799
-0.02611593 -0.059798401 0.050936799
-0.02611593 -0.059798401 0.050936799
-0.02611593 -0.059798401 0.050936799
-0.02611593 -0.059798401 0.050936799
-0.02611593 -0.059798401 0.050936799
-0.02611593 -0.059798401 0.050936799
-0.02611593 -0.059798401 0.050936799
-0.02611593 -0.059798401 0.050936799
-0.02611593 -0.059798401 0.050936799
-0.02611593 -0.059798401 0.050936799
-0.02611593 -0.059798401 0.050936799
-0.075720303 -0.054053064 -0.035059698
-0.02611593 -0.059798401 0.050936799
-0.078705877 -0.060077459 -0.03311212
-0.02611593 -0.059798401 0.050936799
-0.02611593 -0.059798401 0.050936799
-0.02611593 -0.059798401 0.050936799
-0.02611593 -0.059798401 0.050936799
-0.02611593 -0.059798401 0.050936799
-0.080700666 -0.05405321 -0.033966083
-0.02611593 -0.059798401 0.050936799
-0.082667701 -0.060099278 -0.031037621
-0.02611593 -0.059798401 0.050936799
-0.02611593 -0.059798401 0.050936799
-0.088715836 -0.063041061 -0.032978266
-0.02611593 -0.059798401 0.050936799
-0.02611593 -0.059798401 0.050936799
-0.084662497 -0.054075032 -0.031891596
-0.02611593 -0.059798401 0.050936799
-0.089703873 -0.060037982 -0.032905422
-0.02611593 -0.059798401 0.050936799
-0.02611593 -0.059798401 0.050936799
-0.091640398 -0.06310264 -0.028923243
-0.02611593 -0.059798401 0.050936799
-0.092691541 -0.057027724 -0.032794993
-0.091698654 -0.054013733 -0.033759389
-0.02611593 -0.059798401 0.050936799
-0.093643039 -0.05907806 -0.029813256
-0.02611593 -0.059798401 0.050936799
-0.02611593 -0.059798401 0.050936799
-0.10069492 -0.063016079 -0.031753115
-0.02611593 -0.059798401 0.050936799
-0.096634634 -0.057067633 -0.029720847
-0.097674914 -0.05301046 -0.032628968
-0.02611593 -0.059798401 0.050936799
-0.10064176 -0.059052937 -0.02968172
-0.02611593 -0.059798401 0.050936799
-0.02611593 -0.059798401 0.050936799
-0.10054513 -0.063160792 -0.023755826
-0.02611593 -0.059798401 0.050936799
-0.1036708 -0.057006329 -0.031588629
-0.098566316 -0.054115232 -0.026630227
-0.02611593 -0.059798401 0.050936799
-0.1086403 -0.059024226 -0.029531397
-0.02611593 -0.059798401 0.050936799
-0.02611593 -0.059798401 0.050936799
-0.111618 -0.063048959 -0.027547773
-0.02611593 -0.059798401 0.050936799
-0.11166541 -0.055977792 -0.031420287
-0.10965399 -0.052985482 -0.031403814
-0.02611593 -0.059798401 0.050936799
-0.11156485 -0.059085816 -0.025476381
-0.02611593 -0.059798401 0.050936799
-0.02611593 -0.059798401 0.050936799
-0.12061637 -0.063016653 -0.02737866
-0.02611593 -0.059798401 0.050936799
-0.11458997 -0.056039378 -0.027365271
-0.11663399 -0.052978445 -0.030272614
-0.02611593 -0.059798401 0.050936799
-0.12361883 -0.058988482 -0.028249871
-0.02611593 -0.059798401 0.050936799
-0.02611593 -0.059798401 0.050936799
-0.13367015 -0.062915735 -0.030133359
-0.02611593 -0.059798401 0.050936799
-0.12560667 -0.055981815 -0.028158233
-0.12564713 -0.05192823 -0.031085145
-0.02611593 -0.059798401 0.050936799
-0.13565409 -0.058909237 -0.030023705
-0.02611593 -0.059798401 0.050936799
-0.02611593 -0.059798401 0.050936799
-0.14364959 -0.062897928 -0.0289458
-0.02611593 -0.059798401 0.050936799
-0.13662338 -0.055924244 -0.028951205
-0.13666384 -0.051870659 -0.031878117
-0.02611593 -0.059798401 0.050936799
-0.14361517 -0.058916707 -0.02787406
-0.02611593 -0.059798401 0.050936799
-0.02611593 -0.059798401 0.050936799
-0.15766576 -0.062829606 -0.029682387
-0.02611593 -0.059798401 0.050936799
-0.14762136 -0.055884767 -0.028744508
-0.14462493 -0.051878124 -0.029728457
-0.02611593 -0.059798401 0.050936799
-0.15763132 -0.05884837 -0.028610662
-0.02611593 -0.059798401 0.050936799
-0.02611593 -0.059798401 0.050936799
-0.16458958 -0.062876835 -0.025552213
-0.02611593 -0.059798401 0.050936799
-0.1575969 -0.054867141 -0.027538922
-0.1566188 -0.050835226 -0.029484954
-0.02611593 -0.059798401 0.050936799
-0.17162482 -0.057798296 -0.028329574
-0.02611593 -0.059798401 0.050936799
-0.02611593 -0.059798401 0.050936799
-0.1825863 -0.062812231 -0.025213987
-0.02611593 -0.059798401 0.050936799
-0.16955726 -0.054860249 -0.025314115
-0.16657953 -0.05083552 -0.027297728
-0.02611593 -0.059798401 0.050936799
-0.18660335 -0.057762552 -0.027048048
-0.02611593 -0.059798401 0.050936799
-0.02611593 -0.059798401 0.050936799
-0.20661935 -0.062689915 -0.026762329
-0.02611593 -0.059798401 0.050936799
-0.19362383 -0.05370193 -0.02884376
-0.18157287 -0.049781855 -0.026997857
-0.02611593 -0.059798401 0.050936799
-0.21465442 -0.057607792 -0.029520899
-0.02611593 -0.059798401 0.050936799
-0.02611593 -0.059798401 0.050936799
-0.02611593 -0.059798401 0.050936799
-0.02611593 -0.059798401 0.050936799
-0.2075651 -0.053705953 -0.025581714
-0.20358756 -0.049684808 -0.027584132
-0.02611593 -0.059798401 0.050936799
-0.24166819 -0.057492804 -0.030013222
-0.02611593 -0.059798401 0.050936799
-0.02611593 -0.059798401 0.050936799
-0.22939046 -0.062824443 -0.014334213
-0.02611593 -0.059798401 0.050936799
-0.24162984 -0.052511744 -0.028923463
-0.23061612 -0.048551902 -0.029058084
-0.02611593 -0.059798401 0.050936799
-1.0072097 -0.050239377 -0.26562887
-0.02611593 -0.059798401 0.050936799
-0.02611593 -0.059798401 0.050936799
-1.0456002 -0.073764786 -0.22832301
-1.0399188 -0.049392447 -0.24999586
-1.0000269 -0.027358858 -0.26034769
-0.25658873 -0.047476847 -0.027551845
-1.0632184 -0.073062144 -0.20797357
-1.0515194 -0.04872942 -0.22875947
-1.0277183 -0.026547963 -0.24380895
-0.02611593 -0.059798401 0.050936799
-1.0677414 -0.071496762 -0.18285203
-1.0570691 -0.049142022 -0.20465487
-1.043341 -0.026852317 -0.22351509
-1.0245802 -0.005616562 -0.24048793
-1.0803045 -0.070866317 -0.15959755
-1.0606149 -0.048561975 -0.18056983
-1.0478907 -0.02726851 -0.1994293
-1.0422213 -0.0058956528 -0.22115615
-1.081851 -0.070293456 -0.13555007
-1.0671605 -0.047971163 -0.1564284
-1.0554734 -0.026637929 -0.17726837
-1.056848 -0.0072034346 -0.20089912
-1.1004128 -0.069641486 -0.11218283
-1.0777427 -0.047329813 -0.13421114
-1.0630413 -0.027025266 -0.15412585
-1.0573797 -0.0076520732 -0.17588878
-1.1199894 -0.067968011 -0.089778423
-1.1033407 -0.046616539 -0.11271168
-1.0655915 -0.027448637 -0.13007762
-1.0669512 -0.0090320585 -0.15272671
-1.1375331 -0.067337714 -0.065430313
-1.1058723 -0.047058001 -0.087663785
-1.0631238 -0.02790804 -0.10512367
-1.0665017 -0.0094661964 -0.12873483
-1.1250218 -0.065869525 -0.038628913
-1.1194351 -0.046423972 -0.06439051
-1.0957394 -0.027151557 -0.084492341
-1.0520067 -0.012004507 -0.10204308
-1.1305488 -0.065300383 -0.013506629
-1.120944 -0.045887277 -0.038343705
-1.0852771 -0.028639503 -0.05970674
-1.074628 -0.012283743 -0.081617676
-1.1520687 -0.063674003 0.011934333
-1.1124549 -0.045386478 -0.012484826
-1.1048388 -0.027983943 -0.036320701
-1.0882134 -0.012631457 -0.059362076
-1.161595 -0.063090503 0.037131783
-1.1390152 -0.044705797 0.011032742
-1.1194055 -0.028346159 -0.013046645
-1.1007805 -0.01300085 -0.036125585
-0.02611593 -0.059798401 0.050936799
-1.1455458 -0.045132898 0.036155801
-1.1419479 -0.027697919 0.011395428
-0.02611593 -0.059798401 0.050936799
-1.1976029 -0.060898855 0.089863464
-1.1650517 -0.04453161 0.062540829
-1.1544776 -0.028103489 0.036631238
-1.136875 -0.013736336 0.012553401
-1.2000927 -0.060376663 0.1169287
-1.1865755 -0.043905046 0.08796376
-1.1469921 -0.028598927 0.062490892
-1.1394105 -0.015177624 0.037583273
-1.2085592 -0.058851201 0.14512436
-0.02611593 -0.059798401 0.050936799
-1.1585218 -0.029008087 0.087707907
-1.1539397 -0.015576018 0.062856659
-1.2220056 -0.057325874 0.17441365
-1.2255118 -0.042774819 0.14473245
-1.1940058 -0.02836746 0.11539323
-1.1744677 -0.015952876 0.088242784
-1.2165011 -0.057832222 0.20131055
-0.02611593 -0.059798401 0.050936799
-0.02611593 -0.059798401 0.050936799
-0.02611593 -0.059798401 0.050936799
-1.2249486 -0.056324847 0.23050587
-1.2254554 -0.041784555 0.20076829
-1.228928 -0.028269507 0.17306839
-0.02611593 -0.059798401 0.050936799
-1.236377 -0.054824792 0.26075721
-1.2289264 -0.041276861 0.22885197
-0.02611593 -0.059798401 0.050936799
-0.02611593 -0.059798401 0.050936799
-1.2727071 -0.053325459 0.29647666
-1.2303792 -0.040794436 0.25789773
-1.2348596 -0.029275462 0.23018061
-0.02611593 -0.059798401 0.050936799
-0.02611593 -0.059798401 0.050936799
-1.2736931 -0.040287904 0.29473034
-1.2333355 -0.029785546 0.25815231
-1.2348281 -0.02127682 0.23032476
-0.02611593 -0.059798401 0.050936799
-1.2741275 -0.039827157 0.32475698
-1.2636933 -0.030289315 0.2927233
-0.02611593 -0.059798401 0.050936799
-1.5396906 -0.048197627 0.45862302
-0.02611593 -0.059798401 0.050936799
-1.2730883 -0.029832445 0.32491839
-0.02611593 -0.059798401 0.050936799
-3.1334107 -0.032058213 0.96492529
-1.5158125 -0.035123166 0.44940931
-0.02611593 -0.059798401 0.050936799
-0.02611593 -0.059798401 0.050936799
-3.0782814 -0.029338041 1.0239624
-3.1324289 -0.0079573477 0.95934093
-0.02611593 -0.059798401 0.050936799
-1.2914287 -0.025380136 0.35935396
-3.1413965 -0.025896428 1.1242403
-3.080251 -0.0072803395 1.0213974
-3.1283777 0.010043322 0.95859045
-0.02611593 -0.059798401 0.050936799
-3.208432 -0.021512985 1.2286099
-3.1424112 -0.0058057951 1.119621
-3.0791924 0.0077135246 1.0216488
-3.1263242 0.019016525 0.95971471
-3.2763546 -0.017234489 1.3389964
-3.2044742 -0.0034218729 1.2228611
-3.1393607 0.0071812291 1.1197989
-3.0811307 0.013683507 1.0237938
-3.3471832 -0.01303567 1.4544377
-3.2743859 -0.0011539422 1.3342489
-3.2073932 0.0075508468 1.2251152
-3.1402888 0.011129873 1.1228888
-3.4367425 -0.0080220792 1.5842491
-3.346226 4.8972666e-05 1.4496549
-3.281297 0.0068155564 1.3375236
-3.2172751 0.008478038 1.231319
-3.4964383 -0.0029895343 1.7064992
-3.4347935 0.0030593164 1.5794116
-3.354085 0.0069679674 1.4559293
-3.2812259 0.0057433601 1.3415043
-4.7221217 0.022933722 2.422159
-3.5043869 0.0050197281 1.7077935
-3.4387021 0.0070006344 1.5835574
-3.3599684 0.0028635524 1.4629676
-4.5967774 0.026185442 2.4918945
-4.7290559 0.029921472 2.4244161
-3.5033042 0.0069434419 1.7118093
-3.4494989 0.00082406774 1.5956519
-4.6476798 0.032429188 2.6560163
-4.5997829 0.029213779 2.4910054
-4.7299142 0.0277807 2.4323957
-4.8433032 0.018505029 2.3613269
-3.4196246 0.012243442 2.0654583
-4.6566072 0.0313893 2.660166
-4.5907378 0.022110317 2.4947088
-4.7020454 0.0097375289 2.4285467
-4.5900249 0.04278652 2.9012072
-3.4226022 0.0082187094 2.0674419
-4.6634207 0.021199055 2.6721134
-4.5905728 0.0018785559 2.5073438
-3.2180648 0.016005158 2.1457798
-4.5801406 0.032824691 2.8968406
-3.4185524 -0.0028842203 2.0721669
-4.6681809 -0.004104346 2.6897504
-4.3663301 0.049386844 3.0411856
-3.2131052 0.0059889108 2.1455057
-4.5720448 0.014636237 2.9053628
-3.4154296 -0.024090393 2.0827284
-4.2639246 0.052666824 3.1143527
-4.360383 0.031350285 3.0417485
-3.1971521 -0.010083877 2.1459165
-4.5609512 -0.018614698 2.9165576
-4.1605754 0.055997506 3.1845016
-4.2520323 0.03064559 3.1127312
-3.2978635 -0.0098586306 2.3218656
-4.4445543 -0.026419265 2.9912622
-4.0464568 0.058505926 3.2424302
-4.1496572 0.030944183 3.1848443
-2.6446002 -0.021893432 1.9592944
-3.2798762 -0.041026499 2.326967
-3.9560311 0.061810907 3.3168221
-4.037498 0.029406194 3.2457371
-2.7473674 -0.021606751 2.1322823
-2.6295967 -0.04905121 1.9645239
-2.417192 0.018129587 2.1308188
-3.9362204 0.028799001 3.3128529
-4.0283413 -0.0069093928 3.2609136
-2.7333417 -0.052796423 2.1394577
-1.882499 0.0040795505 1.739421
-2.5597832 -0.0017166287 2.2641747
-2.4393165 -0.029882263 2.0803475
-2.6910543 -0.058209132 2.2085919
-1.8358443 0.0052810106 1.7735809
-1.8833714 -0.01611243 1.7500757
-1.9180694 -0.037389729 1.7173294
-2.4390717 -0.063238427 2.0997462
-1.9099715 0.010824546 1.9261209
-1.8288571 -0.016812725 1.7770514
-1.8713516 -0.039260127 1.7554338
-1.9109372 -0.065645248 1.729689
-2.0731261 0.02183032 2.1834617
-1.93927 -0.012823615 1.9682558
-1.8296142 -0.041130662 1.7946317
-1.8544164 -0.0693703 1.7575729
-2.2594867 0.0331623 2.4832573
-2.1229725 -0.0071938559 2.2508926
-1.9978861 -0.04103272 2.0478699
-1.8774351 -0.073197678 1.8639706
-3.2825081 0.083188295 3.7597489
-3.3547342 0.026429795 3.7060561
-2.1844206 -0.040572237 2.3404696
-2.044637 -0.079192758 2.1220801
-3.1883862 0.085768521 3.818053
-3.2654543 0.025865652 3.7733972
-3.3345389 -0.033047996 3.7276094
-2.258497 -0.085300058 2.4520855
-3.1020529 0.089178286 3.887522
-3.1703064 0.025406606 3.8336279
-3.2324793 -0.036459301 3.7836559
-3.3014905 -0.10547979 3.7436862
-3.0040438 0.09185265 3.9397528
-3.070235 0.025001965 3.889766
-3.1391933 -0.040055383 3.8518672
-3.2012739 -0.11204621 3.8087127
-2.9119215 0.094440058 3.9980948
-2.9819365 0.024423331 3.9581256
-3.0440199 -0.043550096 3.9140434
-3.1001472 -0.11752595 3.8687406
-2.823663 0.097914994 4.0635276
-2.8848832 0.024047539 4.0133204
-2.9459038 -0.047001313 3.9731638
-3.0098164 -0.12416501 3.9399533
-2.732518 0.10148773 4.1229057
-2.7907724 0.02362825 4.0715704
-2.8526926 -0.050525036 4.0373769
-2.9106369 -0.13069165 4.0029998
-2.6404328 0.10411128 4.1792479
-2.6995082 0.02407486 4.1378922
-2.7604628 -0.054063246 4.1026082
-2.8095703 -0.13711697 4.0600109
-2.5512352 0.10663706 4.2416449
-2.6073787 0.023644678 4.1971793
-2.6614213 -0.057445697 4.1577115
-2.7162962 -0.14371252 4.1281681
-2.45909 0.1102062 4.3010044
-2.5113063 0.023254395 4.2533927
-2.569154 -0.061020091 4.2249417
-2.6181538 -0.15019941 4.1892343
-2.3660429 0.11286236 4.3553286
-2.4210415 0.023704574 4.3197341
-2.4719772 -0.06352216 4.2870989
-2.5190082 -0.15569004 4.250299
-2.2767661 0.11631563 4.4217424
-2.3288374 0.023202017 4.3830194
-2.3738983 -0.066937208 4.3442202
-2.4256406 -0.16237606 4.3234553
-2.1827004 0.11895011 4.4770474
-2.2327089 0.022757471 4.4422317
-2.2825933 -0.070544183 4.4134679
-2.3235738 -0.16880494 4.3804474
-2.090555 0.12251922 4.536407
-2.1414254 0.023185998 4.509553
-2.1834769 -0.073998995 4.4725704
-2.2273376 -0.1753751 4.4465489
-2.0011849 0.12588203 4.6078186
-2.0434096 0.022842802 4.5627303
-2.0872626 -0.076533645 4.5367451
-2.130079 -0.18096709 4.5136495
-1.0334613 0.040605977 2.5244515
-1.9510931 0.02223172 4.6320143
-1.9919586 -0.080154985 4.6059189
-2.0278816 -0.18752259 4.5776391
-0.94949573 0.03927806 2.4688365
-1.8529234 0.02274362 4.6932063
-1.8947294 -0.083711155 4.6710558
-1.9276649 -0.19408903 4.6426663
-0.86662751 0.037044365 2.4082241
-0.910914 -0.017671322 2.4570801
-1.7916099 -0.086180478 4.7301006
-1.8273734 -0.20072779 4.7116919
-0.79632241 0.035441101 2.3708661
-0.82329011 -0.019687807 2.3833783
-1.6914189 -0.089711234 4.7931819
-1.7202704 -0.20721081 4.7705889
-0.71858436 0.033351954 2.30335
-0.7888279 -0.019217532 2.4607677
-1.5901532 -0.093317926 4.8602433
-1.6151254 -0.21272299 4.8315415
-0.65335321 0.031838983 2.2620876
-0.70816135 -0.020245241 2.3892143
-1.4830718 -0.095765434 4.9172134
-1.5126659 -0.21953174 4.9095263
-0.58917797 0.030383881 2.2178447
-0.6484009 -0.021243341 2.3760731
-1.369445 -0.098803766 4.9500427
-1.405413 -0.22615945 4.9764214
-0.52521271 0.028127916 2.1625874
-0.54681379 -0.02436313 2.1940529
-1.2762939 -0.10222851 5.0642753
-1.2960483 -0.23290288 5.0492759
-0.47065336 0.028346576 2.1385617
-0.48658171 -0.025858153 2.1528842
-1.1670669 -0.10582774 5.1291871
-1.186646 -0.2396825 5.1241307
-0.42087239 0.027366284 2.1266079
-0.4274618 -0.027241046 2.1057365
-1.0585965 -0.10965854 5.2071137
-1.0733942 -0.24633175 5.1909132
-0.36746663 0.02673341 2.0945859
-0.37492475 -0.027996954 2.0807309
-0.94621658 -0.11241342 5.279984
-0.95897812 -0.25414723 5.2666545
-0.3180227 0.026078712 2.0646379
-0.32074383 -0.028416343 2.0366938
-1.4025989 -0.1555323 9.1040449
-1.4240675 -0.40490299 9.1269445
-0.2755357 0.027457327 2.0898762
-0.275621 -0.028704466 2.0428457
-1.134158 -0.15428637 8.698905
-1.1478403 -0.39545196 8.7088022
-0.23199275 0.028778087 2.1180944
-0.87339437 0.06851998 8.3219242
-0.89011753 -0.15452941 8.3262043
-0.89406556 -0.38644296 8.3200808
-0.19006714 0.031743888 2.1663795
-0.6569041 0.061926216 7.9746346
-0.66590083 -0.15386362 7.9628959
-0.66472876 -0.37888679 7.961803
-0.14599212 0.034557804 2.2226243
-0.4586724 0.05669485 7.6667242
-0.46153829 -0.15422589 7.6609607
-0.45373312 -0.37189552 7.6388693
-0.27204794 0.2619316 7.3928499
-0.27472261 0.051829785 7.3971004
-0.27392522 -0.15376249 7.3723583
-0.26139307 -0.36416182 7.3343048
-0.1067359 0.25277358 7.1435046
-0.10488254 0.047123477 7.1217427
-0.098025247 -0.15252753 7.0989947
-0.083511248 -0.35789874 7.0589948
0.047788061 0.24445596 6.9053802
0.052521586 0.041921131 6.8766184
0.06339778 -0.15274507 6.8538852
0.083024085 -0.3532255 6.8188791
0.19153869 0.23596069 6.6794581
0.20148212 0.03922604 6.6607075
0.2150138 -0.15210776 6.6189785
0.23547235 -0.34741175 6.5740476
0.32676297 0.22804534 6.4787154
0.33951166 0.034498371 6.4489655
0.35606638 -0.1508472 6.4072886
0.38157713 -0.34220597 6.3643351
0.45399261 0.22115853 6.278141
0.47190985 0.032448061 6.2563848
0.48834133 -0.15077123 6.207746
0.516886 -0.33815956 6.1658077
0.57452315 0.21400739 6.0936923
0.59432077 0.028415881 6.0649548
