# .PCD v0.7 - Point Cloud Data file format
VERSION 0.7
FIELDS x y z
SIZE 4 4 4
TYPE F F F
COUNT 1 1 1
WIDTH 1389
HEIGHT 1
VIEWPOINT 0 0 0 1 0 0 0
POINTS 1389
DATA ascii
0.00040231645 0.61867172 0.74694908
0.035492878 0.61548269 0.8052541
0.070546001 0.61232996 0.86155993
0.10755344 0.60720658 0.9157927
0.015459668 0.61956334 0.74968421
0.052553792 0.61736715 0.80796969
0.089542516 0.61226177 0.8612029
0.1275084 0.60617107 0.91339958
0.030449066 0.61750984 0.74936628
0.069550678 0.61730611 0.80765027
0.1075205 0.61221522 0.85986501
0.1474939 0.60811716 0.9120602
0.04553692 0.62138307 0.75315517
0.085525095 0.61626691 0.80633199
0.12543839 0.61122322 0.85551018
0.16734737 0.60517246 0.90463269
0.059439834 0.61640596 0.74880338
0.10248062 0.61524224 0.80399513
0.14337498 0.6102131 0.85215491
0.18735549 0.60810024 0.90431094
0.074414439 0.61537045 0.74750382
0.11843632 0.61422122 0.80167723
0.16235673 0.61116278 0.85081619
0.20725431 0.60711896 0.89891875
0.090502106 0.61923999 0.75127393
0.1353731 0.61321461 0.79834074
0.18029726 0.61115247 0.84747899
0.22722104 0.60908306 0.89657968
0.10545406 0.61722261 0.74895668
0.15133274 0.61319339 0.79604077
0.1971513 0.60821855 0.84010792
0.24710503 0.60911983 0.89020592
0.11933825 0.61226368 0.7436052
0.16933338 0.61412865 0.79572058
0.2160956 0.60920447 0.83676988
0.26492149 0.60621852 0.88081664
0.13645232 0.61811125 0.74839222
0.18523288 0.6131618 0.7904036
0.23406272 0.61117566 0.83446842
0.28485081 0.60821885 0.87647825
0.15034044 0.61415207 0.74305874
0.20110193 0.60921359 0.78403294
0.25196186 0.61020178 0.82911384
0.30475745 0.60923731 0.87112218
0.1652776 0.61315274 0.73975992
0.21915966 0.61511177 0.78580207
0.26884249 0.60924947 0.8227784
0.32255906 0.60735393 0.86075127
0.18341807 0.62097824 0.74556375
0.23610038 0.61510509 0.78248364
0.28779462 0.61223495 0.81947649
0.34142452 0.60741234 0.85339659
0.19724216 0.61507374 0.73719525
0.24990967 0.61021852 0.77313358
0.30357003 0.60837728 0.80810744
0.35923004 0.60652876 0.84304374
0.21327366 0.61899751 0.73796642
0.26789942 0.6131714 0.77184969
0.32252219 0.61136281 0.80480552
0.37809947 0.60758704 0.83570713
0.22814286 0.61505288 0.73161447
0.28478396 0.6132189 0.76553231
0.33836162 0.60945046 0.79647154
0.39592767 0.60768527 0.82637197
0.24410641 0.61603147 0.72933257
0.30071008 0.61423373 0.76125103
0.35416359 0.60757422 0.78613824
0.41378248 0.60976505 0.8180725
0.26004732 0.61602837 0.72603291
0.31656823 0.61230332 0.7539168
0.37205192 0.60861802 0.77982002
0.42950171 0.6059615 0.8037045
0.27495098 0.61606491 0.72075272
0.33141181 0.61139435 0.7456196
0.38890293 0.60970151 0.77152139
0.44631135 0.60608137 0.79338849
0.28982803 0.61411995 0.71443689
0.34933755 0.6124019 0.7413007
0.405754 0.61078507 0.76322263
0.46210247 0.60622299 0.78209156
0.30472776 0.61315674 0.70913875
0.36522618 0.61345279 0.73502016
0.42157865 0.60989064 0.75390702
0.4788934 0.60636091 0.77077579
0.32067651 0.61515331 0.7058751
0.38006973 0.61254388 0.72672302
0.43843359 0.611974 0.74562633
0.49671081 0.60847694 0.76047701
0.33760634 0.61716425 0.70159304
0.39693949 0.61360937 0.71942389
0.45217586 0.60915941 0.73231363
0.51146066 0.60765833 0.74718153
0.35248736 0.61621916 0.69529521
0.41176432 0.61271846 0.71012712
0.47107181 0.61219925 0.72601271
0.52723306 0.60781801 0.73488492
0.36734962 0.61529213 0.6879977
0.4276343 0.61378747 0.70284683
0.48277307 0.60842812 0.71072018
0.54200953 0.60898113 0.7226252
0.38221186 0.61436498 0.68070018
0.44037279 0.60997671 0.68953484
0.49860948 0.61053324 0.70145863
0.5567221 0.60819876 0.70733041
0.39705545 0.61345607 0.67240304
0.45829159 0.61400181 0.68427044
0.51440066 0.6106748 0.69016176
0.57047611 0.60838366 0.69407177
0.41294408 0.61450702 0.66612244
0.47002637 0.60919476 0.67095923
0.52919585 0.61181974 0.67890161
0.58523393 0.60956484 0.68081236
0.4267652 0.61262 0.65682638
0.486904 0.61225992 0.66369629
0.5429647 0.61098677 0.66662461
0.5969243 0.60781151 0.66455615
0.4405902 0.61173272 0.64754832
0.50173664 0.61336869 0.65443546
0.55671877 0.61117166 0.65336597
0.60961837 0.60705447 0.64829928
0.45643747 0.61182004 0.6392504
0.51448303 0.61155754 0.64115959
0.57354021 0.61429101 0.64310396
0.62542528 0.61119539 0.63707447
0.47233006 0.61387074 0.63298786
0.52827454 0.61170632 0.62990022
0.58527195 0.61350137 0.62886518
0.63407093 0.60748935 0.61883938
0.48716274 0.61497951 0.62372702
0.54206604 0.61185503 0.61864084
0.59597731 0.61073375 0.61360949
0.64579177 0.60871738 0.60363698
0.49994656 0.61313218 0.61245048
0.55583876 0.61202186 0.60638189
0.60975796 0.61290026 0.60138661
0.66257977 0.61287284 0.59139371
0.51682413 0.61619735 0.60518742
0.56861174 0.61219233 0.59414166
0.62044853 0.61115056 0.58514923
0.67021078 0.61018825 0.57219577
0.5295893 0.61436808 0.59291124
0.58138072 0.61136281 0.58188337
0.63218421 0.61136067 0.57092845
0.67379332 0.60455483 0.55101955
0.54339945 0.61449867 0.5826515
0.59513479 0.61154777 0.56862479
0.64389724 0.61058915 0.55569011
0.69465625 0.61364079 0.54179025
0.55207074 0.60775703 0.56636167
0.60791165 0.61271805 0.55640256
0.65664059 0.61279541 0.54148656
0.70128751 0.61095977 0.52261108
0.55669361 0.59806639 0.54809362
0.62271082 0.6148628 0.54516047
0.6683802 0.61400539 0.52728385
0.71099001 0.61221319 0.5064466
0.58475131 0.61396319 0.54785579
0.63139784 0.61212045 0.5289427
0.67604864 0.61128467 0.51008523
0.72069252 0.61346662 0.49028215
0.59955436 0.61710781 0.53663176
0.64415991 0.6143086 0.5157389
0.68981844 0.61546898 0.49689865
0.72735029 0.61276716 0.4721387
0.6143496 0.61825281 0.52537167
0.6568954 0.61451524 0.50149935
0.69951701 0.61572242 0.48071617
0.73500788 0.61206424 0.45397645
0.62303269 0.6145106 0.5091359
0.66558635 0.61277264 0.48529965
0.70717067 0.61401975 0.46253589
0.74268818 0.61234301 0.43683189
0.63478321 0.61370289 0.49589676
0.67427731 0.6110301 0.46909991
0.71384329 0.61230236 0.4453741
0.7503497 0.6126399 0.41868764
0.6444661 0.60995704 0.47964221
0.68501312 0.61124384 0.45489794
0.72456825 0.61453402 0.43020853
0.7529816 0.60997343 0.39958367
0.65722811 0.61214519 0.46643838
0.6957342 0.61247551 0.43971434
0.73021835 0.61183852 0.41204783
0.76167345 0.61324805 0.38247436
0.67201257 0.61530793 0.45421466
0.70340669 0.61075467 0.42253375
0.74094737 0.61506993 0.39690027
0.76835394 0.61353046 0.36534861
0.67865455 0.61060929 0.43599913
0.71615392 0.6139608 0.40834826
0.74660534 0.6143741 0.37877563
0.77502346 0.61583066 0.34725922
0.69039422 0.61181927 0.42179641
0.72687894 0.61619234 0.39318272
0.75225931 0.61267853 0.36063293
0.77765936 0.61416382 0.32817325
0.70516378 0.61599994 0.408591
0.7315253 0.61250061 0.3750228
0.75994354 0.61395711 0.34350637
0.77829164 0.61150455 0.30910683
0.71485454 0.61425382 0.39237249
0.74223155 0.61475027 0.35885757
0.76562411 0.61424309 0.32639942
0.79101723 0.61874604 0.29299411
0.72354937 0.61351109 0.37619078
0.74991179 0.61502904 0.34171301
0.77431202 0.61651808 0.30927211
0.79267591 0.6180647 0.2749446
0.73828155 0.61772794 0.36098611
0.75961441 0.61628246 0.32554853
0.78098166 0.6188181 0.2911827
0.794312 0.61640149 0.25587744
0.74393171 0.61503249 0.34282541
0.76729858 0.61756104 0.30842197
0.78866971 0.62109667 0.27407417
0.79294467 0.61374938 0.23684859
0.75463402 0.61628228 0.32664216
0.77496403 0.6188578 0.29029578
0.79232806 0.620408 0.25598708
0.59117538 0.44659927 0.17658228
0.76431781 0.61755377 0.30947801
0.78264821 0.62013638 0.27316922
0.79396808 0.61974472 0.23693791
-0.02611593 -0.059798401 0.050936799
0.77097172 0.61585456 0.29131654
0.78831011 0.62044048 0.25506258
0.59924674 0.45553285 0.17859341
0.5644868 0.42327553 0.14464921
0.78266299 0.61911851 0.27415088
0.78993821 0.61677766 0.23595937
0.55467099 0.41711345 0.15572529
0.53405315 0.39771324 0.12675056
0.78832096 0.61842275 0.25602621
0.59016466 0.44862065 0.17563744
0.54738265 0.41039303 0.14173543
0.52881366 0.39394891 0.1147765
0.78993034 0.61477798 0.23592332
0.56471932 0.42505813 0.15668118
0.54009044 0.40267277 0.12772757
0.55570787 0.41602921 0.10466895
0.56801134 0.42777556 0.17167379
0.56444544 0.4223119 0.14263187
0.53280205 0.39595231 0.1137377
0.59363937 0.4480682 0.094534889
-0.02611593 -0.059798401 0.050936799
0.54608238 0.40566882 0.12666921
0.55668896 0.4160437 0.1036505
0.60946685 0.4622255 0.082490563
-0.02611593 -0.059798401 0.050936799
0.54282373 0.40191543 0.11365791
0.58857143 0.44012377 0.092485376
0.62324536 0.4734267 0.068430446
0.56413317 0.41458461 0.12749282
0.56768399 0.42002162 0.10251622
0.60941368 0.45826244 0.080419175
0.62399089 0.47567594 0.054452438
0.56989652 0.41679788 0.11442051
0.59854788 0.44412339 0.090370223
0.63422155 0.47742268 0.066296503
0.61673301 0.47193688 0.041516304
0.56458908 0.41008836 0.099393412
0.61434478 0.4552992 0.077272177
0.61791521 0.46573541 0.052385677
0.61948609 0.47617871 0.02753675
0.59845632 0.43517911 0.087209076
0.63213438 0.46948546 0.063190952
0.61664939 0.46499237 0.038391192
0.62023163 0.47842807 0.013558742
0.61523432 0.44636953 0.07309258
0.61981249 0.45880181 0.04822332
0.61839473 0.4672381 0.024394391
0.65103638 0.50660145 -0.0025138184
0.62800521 0.45557457 0.059015214
0.61453557 0.45507365 0.034249943
0.63818097 0.48543459 0.0093479939
0.63475275 0.49589589 -0.015406981
0.62571299 0.45285359 0.044003822
0.63732129 0.47325939 0.019147178
0.65192598 0.49767175 -0.0066934228
0.62348384 0.48917177 -0.028321996
0.6294353 0.45411038 0.028951764
0.63902527 0.47454146 0.0031330362
0.63461596 0.48498821 -0.020603478
0.60822266 0.47944432 -0.040216267
0.63214302 0.45638871 0.012936849
0.64376312 0.479794 -0.011865735
0.6163435 0.47227207 -0.032495424
0.59496498 0.47070962 -0.052130088
0.61882138 0.44570863 -0.002011992
0.62845659 0.46810311 -0.025795359
0.60407084 0.46455166 -0.045409676
0.58472252 0.46596339 -0.064028203
0.62854743 0.45296097 -0.018068347
0.60015064 0.44642445 -0.037661564
0.59181696 0.45681322 -0.057324268
0.57949489 0.46519855 -0.075948201
0.60124522 0.43227848 -0.029935323
0.5998925 0.44767752 -0.051638797
0.57456702 0.44507518 -0.06821733
0.58424449 0.4734506 -0.090892926
0.58495766 0.42057309 -0.04284649
0.58563501 0.43894634 -0.063533828
0.57132411 0.44532111 -0.081156544
0.75276208 0.62583125 -0.14731072
0.5796808 0.41684496 -0.056819867
0.57936227 0.4362216 -0.077470392
0.59503949 0.46959269 -0.1011683
0.74945617 0.62914896 -0.16419455
0.58740723 0.42410448 -0.072838642
0.59507722 0.45048738 -0.095512688
0.77845478 0.6300447 -0.16472146
0.74315768 0.62945998 -0.18007639
0.58811533 0.42638999 -0.088815965
0.80644184 0.62794453 -0.16528364
0.77711499 0.63439131 -0.18362413
0.73286688 0.62676769 -0.19493744
0.8174479 0.61083561 -0.161798
0.8020907 0.62930244 -0.18418398
0.77077508 0.63373864 -0.20152333
0.20119499 0.14775908 -0.027591184
0.83301711 0.62624598 -0.18781954
0.7947284 0.6276716 -0.20308207
0.21017464 0.14774486 -0.028759956
0.18416184 0.13380437 -0.026524339
0.8316133 0.62864715 -0.20975727
0.21415426 0.14273137 -0.02892521
0.1961192 0.13781489 -0.029676735
-0.02611593 -0.059798401 0.050936799
0.20217937 0.12468704 -0.024025757
0.19909509 0.13180514 -0.029841218
-0.02611593 -0.059798401 0.050936799
0.16206558 0.11792222 -0.028398566
-0.02611593 -0.059798401 0.050936799
-0.02611593 -0.059798401 0.050936799
0.17201151 0.11894044 -0.031567443
-0.02611593 -0.059798401 0.050936799
0.18303816 0.11184789 -0.028901279
0.1739876 0.11293428 -0.031713132
-0.02611593 -0.059798401 0.050936799
0.14102529 0.10198223 -0.027292602
-0.02611593 -0.059798401 0.050936799
-0.02611593 -0.059798401 0.050936799
0.14894895 0.10202588 -0.031441569
-0.02611593 -0.059798401 0.050936799
0.15197223 0.088944957 -0.027733542
0.15092503 0.096019715 -0.031587265
-0.02611593 -0.059798401 0.050936799
0.12398127 0.090045288 -0.027189385
-0.02611593 -0.059798401 0.050936799
-0.02611593 -0.059798401 0.050936799
0.12692367 0.085071541 -0.029335167
-0.02611593 -0.059798401 0.050936799
0.13689435 0.078036845 -0.029649202
0.13286245 0.084104449 -0.03246491
-0.02611593 -0.059798401 0.050936799
0.10994064 0.07909739 -0.027124524
-0.02611593 -0.059798401 0.050936799
-0.02611593 -0.059798401 0.050936799
0.11188319 0.074127242 -0.029251516
-0.02611593 -0.059798401 0.050936799
0.11885048 0.066103488 -0.029527195
0.11384448 0.069139011 -0.030378848
-0.02611593 -0.059798401 0.050936799
0.094918907 0.068135016 -0.026041199
-0.02611593 -0.059798401 0.050936799
-0.02611593 -0.059798401 0.050936799
0.099853963 0.066171683 -0.029170174
-0.02611593 -0.059798401 0.050936799
0.10182519 0.054148447 -0.028424319
0.10278547 0.06321568 -0.032279577
-0.02611593 -0.059798401 0.050936799
0.08688201 0.063182659 -0.026980631
-0.02611593 -0.059798401 0.050936799
-0.02611593 -0.059798401 0.050936799
0.085835978 0.056205533 -0.028087631
-0.02611593 -0.059798401 0.050936799
0.088796146 0.046196461 -0.028324191
0.089752495 0.054263871 -0.032197472
-0.02611593 -0.059798401 0.050936799
0.072897539 0.052180517 -0.023916785
-0.02611593 -0.059798401 0.050936799
-0.02611593 -0.059798401 0.050936799
0.073840268 0.047213949 -0.026024986
-0.02611593 -0.059798401 0.050936799
0.076766931 0.038240895 -0.028242849
0.077741988 0.046290204 -0.031116478
-0.02611593 -0.059798401 0.050936799
0.063871689 0.045214001 -0.023873799
-0.02611593 -0.059798401 0.050936799
-0.02611593 -0.059798401 0.050936799
0.067777343 0.04529009 -0.028947268
-0.02611593 -0.059798401 0.050936799
0.065760173 0.031263478 -0.027162623
0.068720073 0.040323526 -0.031055477
-0.02611593 -0.059798401 0.050936799
0.058831237 0.044268291 -0.025797185
-0.02611593 -0.059798401 0.050936799
-0.02611593 -0.059798401 0.050936799
0.056804106 0.037276663 -0.025885731
-0.02611593 -0.059798401 0.050936799
0.059712034 0.028321689 -0.029103253
0.057732038 0.033328019 -0.02897558
-0.02611593 -0.059798401 0.050936799
0.049857628 0.036247689 -0.02277324
-0.02611593 -0.059798401 0.050936799
-0.02611593 -0.059798401 0.050936799
0.051755797 0.034331296 -0.027845163
-0.02611593 -0.059798401 0.050936799
0.049727749 0.022322424 -0.027024142
0.053672682 0.032396812 -0.031917416
-0.02611593 -0.059798401 0.050936799
0.044817165 0.035301983 -0.024696622
-0.02611593 -0.059798401 0.050936799
-0.02611593 -0.059798401 0.050936799
0.042775247 0.029328264 -0.025766812
-0.02611593 -0.059798401 0.050936799
0.04074328 0.016319569 -0.024963811
0.045677152 0.028408112 -0.03083951
-0.02611593 -0.059798401 0.050936799
0.034877263 0.026248956 -0.01967258
-0.02611593 -0.059798401 0.050936799
-0.02611593 -0.059798401 0.050936799
0.039719623 0.029393297 -0.028709427
-0.02611593 -0.059798401 0.050936799
0.036687844 0.016388193 -0.027887635
0.041617785 0.027476911 -0.033781353
-0.02611593 -0.059798401 0.050936799
0.031821642 0.02631399 -0.022615194
-0.02611593 -0.059798401 0.050936799
-0.02611593 -0.059798401 0.050936799
0.032734789 0.023383265 -0.026686683
-0.02611593 -0.059798401 0.050936799
0.028740628 0.010345562 -0.023846779
0.034622084 0.023484621 -0.032722227
-0.02611593 -0.059798401 0.050936799
0.026829502 0.023314355 -0.02157563
-0.02611593 -0.059798401 0.050936799
-0.02611593 -0.059798401 0.050936799
0.024787577 0.017340636 -0.022645824
-0.02611593 -0.059798401 0.050936799
0.022729943 0.0073676119 -0.023788087
0.029581625 0.022538913 -0.034645621
-0.02611593 -0.059798401 0.050936799
-0.02611593 -0.059798401 0.050936799
-0.02611593 -0.059798401 0.050936799
-0.02611593 -0.059798401 0.050936799
0.018795611 0.014344596 -0.021587472
-0.02611593 -0.059798401 0.050936799
0.018689301 0.0064183073 -0.025730263
0.021649208 0.015478373 -0.029623114
-0.02611593 -0.059798401 0.050936799
-0.02611593 -0.059798401 0.050936799
-0.02611593 -0.059798401 0.050936799
-0.02611593 -0.059798401 0.050936799
0.017713968 0.017438116 -0.026512936
-0.02611593 -0.059798401 0.050936799
0.013701085 0.0044185091 -0.024672691
0.018578796 0.016561326 -0.033547375
-0.02611593 -0.059798401 0.050936799
0.0089423815 0.0082187075 -0.012510736
-0.02611593 -0.059798401 0.050936799
-0.02611593 -0.059798401 0.050936799
-0.02611593 -0.059798401 0.050936799
-0.02611593 -0.059798401 0.050936799
0.010649391 0.0054833735 -0.027597286
0.012590759 0.014565109 -0.032471005
-0.02611593 -0.059798401 0.050936799
-0.02611593 -0.059798401 0.050936799
-0.02611593 -0.059798401 0.050936799
-0.02611593 -0.059798401 0.050936799
0.0087186247 0.013453011 -0.025416229
-0.02611593 -0.059798401 0.050936799
0.0056424527 0.0035016569 -0.027539369
0.0095242783 0.016647894 -0.03637724
-0.02611593 -0.059798401 0.050936799
0.006768222 0.016423503 -0.023325276
-0.02611593 -0.059798401 0.050936799
-0.02611593 -0.059798401 0.050936799
0.0037304084 0.011453205 -0.024358653
-0.02611593 -0.059798401 0.050936799
0.00065816275 0.0025016817 -0.026463773
0.0055023567 0.015680507 -0.037319764
-0.02611593 -0.059798401 0.050936799
0.0018243863 0.011369938 -0.019322768
-0.02611593 -0.059798401 0.050936799
-0.02611593 -0.059798401 0.050936799
0.0026191701 0.016582571 -0.031247392
-0.02611593 -0.059798401 0.050936799
-0.0024122507 0.0035846354 -0.030388027
-0.00043736224 0.011630363 -0.033280447
-0.02611593 -0.059798401 0.050936799
-0.0012085816 0.012416713 -0.021247696
-0.02611593 -0.059798401 0.050936799
-0.02611593 -0.059798401 0.050936799
-0.0023246617 0.011529006 -0.027244896
-0.02611593 -0.059798401 0.050936799
-0.02611593 -0.059798401 0.050936799
-0.0044109705 0.0086090555 -0.031260006
-0.02611593 -0.059798401 0.050936799
-0.0042415513 0.013463489 -0.023172632
-0.02611593 -0.059798401 0.050936799
-0.02611593 -0.059798401 0.050936799
-0.0063574491 0.01257937 -0.029151034
-0.02611593 -0.059798401 0.050936799
-0.010385124 0.00057768013 -0.028292436
-0.0093952604 0.0076090805 -0.030184422
-0.02611593 -0.059798401 0.050936799
-0.0072597251 0.013492345 -0.02411592
-0.02611593 -0.059798401 0.050936799
-0.02611593 -0.059798401 0.050936799
-0.010327125 0.010557886 -0.027112592
-0.02611593 -0.059798401 0.050936799
-0.02611593 -0.059798401 0.050936799
-0.013350144 0.0045696767 -0.027164333
-0.02611593 -0.059798401 0.050936799
-0.010259174 0.013503111 -0.024059549
-0.02611593 -0.059798401 0.050936799
-0.02611593 -0.059798401 0.050936799
-0.02611593 -0.059798401 0.050936799
-0.02611593 -0.059798401 0.050936799
-0.02611593 -0.059798401 0.050936799
-0.016461015 0.0097062206 -0.034015499
-0.02611593 -0.059798401 0.050936799
-0.013296071 0.013550056 -0.026002504
-0.02611593 -0.059798401 0.050936799
-0.02611593 -0.059798401 0.050936799
-0.02611593 -0.059798401 0.050936799
-0.02611593 -0.059798401 0.050936799
-0.02611593 -0.059798401 0.050936799
-0.020475077 0.010738488 -0.034921974
-0.02611593 -0.059798401 0.050936799
-0.01726575 0.011528572 -0.023964051
-0.02611593 -0.059798401 0.050936799
-0.02611593 -0.059798401 0.050936799
-0.020362742 0.010629954 -0.028924003
-0.02611593 -0.059798401 0.050936799
-0.02611593 -0.059798401 0.050936799
-0.024366854 0.0046272436 -0.027957294
-0.02611593 -0.059798401 0.050936799
-0.020294791 0.013575179 -0.025870968
-0.02611593 -0.059798401 0.050936799
-0.02611593 -0.059798401 0.050936799
-0.024362009 0.010644309 -0.028848842
-0.02611593 -0.059798401 0.050936799
-0.02611593 -0.059798401 0.050936799
-0.0273811 0.0056559304 -0.028882563
-0.02611593 -0.059798401 0.050936799
-0.023283374 0.011568195 -0.024850968
-0.02611593 -0.059798401 0.050936799
-0.02611593 -0.059798401 0.050936799
-0.02611593 -0.059798401 0.050936799
-0.02611593 -0.059798401 0.050936799
-0.02611593 -0.059798401 0.050936799
-0.030380551 0.0056666969 -0.028826192
-0.02611593 -0.059798401 0.050936799
-0.026312415 0.013614801 -0.026757885
-0.02611593 -0.059798401 0.050936799
-0.02611593 -0.059798401 0.050936799
-0.030360911 0.010665843 -0.0287361
-0.02611593 -0.059798401 0.050936799
-0.02611593 -0.059798401 0.050936799
-0.034379818 0.0056810528 -0.028751031
-0.02611593 -0.059798401 0.050936799
-0.029282276 0.011589728 -0.024738226
-0.02611593 -0.059798401 0.050936799
-0.02611593 -0.059798401 0.050936799
-0.033330772 0.0086407783 -0.026716445
-0.02611593 -0.059798401 0.050936799
-0.02611593 -0.059798401 0.050936799
-0.038423471 0.0087491674 -0.031620793
-0.02611593 -0.059798401 0.050936799
-0.032252137 0.0095646633 -0.022718575
-0.02611593 -0.059798401 0.050936799
-0.02611593 -0.059798401 0.050936799
-0.037359633 0.010690966 -0.028604567
-0.02611593 -0.059798401 0.050936799
-0.02611593 -0.059798401 0.050936799
-0.042452332 0.010799356 -0.033508923
-0.02611593 -0.059798401 0.050936799
-0.035251591 0.0095754303 -0.022662204
-0.02611593 -0.059798401 0.050936799
-0.02611593 -0.059798401 0.050936799
-0.040329494 0.0086659007 -0.026584908
-0.02611593 -0.059798401 0.050936799
-0.02611593 -0.059798401 0.050936799
-0.046418078 0.0097777098 -0.031452455
-0.02611593 -0.059798401 0.050936799
-0.02611593 -0.059798401 0.050936799
-0.02611593 -0.059798401 0.050936799
-0.02611593 -0.059798401 0.050936799
-0.044354424 0.011715919 -0.028455012
-0.02611593 -0.059798401 0.050936799
-0.052365657 0.0037279029 -0.027449176
-0.050398622 0.0097739762 -0.030377626
-0.02611593 -0.059798401 0.050936799
-0.042261176 0.011618296 -0.023494288
-0.02611593 -0.059798401 0.050936799
-0.02611593 -0.059798401 0.050936799
-0.048353691 0.011730274 -0.02837985
-0.02611593 -0.059798401 0.050936799
-0.056375794 0.0057600089 -0.028337639
-0.054408763 0.011806075 -0.031266093
-0.02611593 -0.059798401 0.050936799
-0.04527542 0.012646982 -0.024419557
-0.02611593 -0.059798401 0.050936799
-0.02611593 -0.059798401 0.050936799
-0.052334234 0.011726541 -0.027305029
-0.02611593 -0.059798401 0.050936799
-0.059341729 0.0047347671 -0.026299965
-0.058389302 0.011802342 -0.030191265
-0.02611593 -0.059798401 0.050936799
-0.049255971 0.012643248 -0.023344737
-0.02611593 -0.059798401 0.050936799
-0.02611593 -0.059798401 0.050936799
-0.055314966 0.011719218 -0.026248999
-0.02611593 -0.059798401 0.050936799
-0.065366291 0.0077919704 -0.028132483
-0.062369853 0.011798608 -0.029116448
-0.02611593 -0.059798401 0.050936799
-0.051222082 0.011614418 -0.021325856
-0.02611593 -0.059798401 0.050936799
-0.02611593 -0.059798401 0.050936799
-0.060335785 0.015772663 -0.028082289
-0.02611593 -0.059798401 0.050936799
-0.067261443 0.0056909528 -0.022132978
-0.068405285 0.016873561 -0.031912599
-0.02611593 -0.059798401 0.050936799
-0.057261441 0.015689541 -0.024140019
-0.02611593 -0.059798401 0.050936799
-0.02611593 -0.059798401 0.050936799
-0.062238794 0.011671985 -0.022118818
-0.02611593 -0.059798401 0.050936799
-0.072286189 0.0087445676 -0.023984287
-0.073396519 0.018891167 -0.031782608
-0.02611593 -0.059798401 0.050936799
-0.060256965 0.016700139 -0.024065625
-0.02611593 -0.059798401 0.050936799
-0.02611593 -0.059798401 0.050936799
-0.068307742 0.01778294 -0.026896268
-0.02611593 -0.059798401 0.050936799
-0.08035478 0.0148627 -0.028724164
-0.078387745 0.020908773 -0.031652622
-0.02611593 -0.059798401 0.050936799
-0.0632229 0.015674897 -0.022027954
-0.02611593 -0.059798401 0.050936799
-0.02611593 -0.059798401 0.050936799
-0.073302902 0.018800722 -0.026784297
-0.02611593 -0.059798401 0.050936799
-0.084293947 0.015822619 -0.025631998
-0.08440838 0.0249658 -0.033467121
-0.02611593 -0.059798401 0.050936799
-0.069277056 0.02076794 -0.025823765
-0.02611593 -0.059798401 0.050936799
-0.02611593 -0.059798401 0.050936799
-0.078290202 0.021818152 -0.026636291
-0.02611593 -0.059798401 0.050936799
-0.08928518 0.01784022 -0.025502007
-0.088355415 0.023926059 -0.03041099
-0.02611593 -0.059798401 0.050936799
-0.066066541 0.0075061345 -0.012119114
-0.02611593 -0.059798401 0.050936799
-0.02611593 -0.059798401 0.050936799
-0.083281435 0.023835758 -0.026506297
-0.02611593 -0.059798401 0.050936799
-0.09324307 0.018818235 -0.023409501
-0.093323991 0.026925407 -0.029263318
-0.02611593 -0.059798401 0.050936799
-0.07210198 0.012581082 -0.014915273
-0.02611593 -0.059798401 0.050936799
-0.02611593 -0.059798401 0.050936799
-0.090301894 0.02789638 -0.028302018
-0.02611593 -0.059798401 0.050936799
-0.10225531 0.02488569 -0.025131602
-0.10032572 0.03096794 -0.030059375
-0.02611593 -0.059798401 0.050936799
-0.086279973 0.028863758 -0.027359493
-0.02611593 -0.059798401 0.050936799
-0.02611593 -0.059798401 0.050936799
-0.094259776 0.028874382 -0.026209511
-0.02611593 -0.059798401 0.050936799
-0.10822371 0.027888626 -0.023965143
-0.10832335 0.036013886 -0.030818626
-0.02611593 -0.059798401 0.050936799
-0.086168543 0.023737989 -0.020451963
-0.02611593 -0.059798401 0.050936799
-0.02611593 -0.059798401 0.050936799
-0.1002469 0.031895414 -0.026042715
-0.02611593 -0.059798401 0.050936799
-0.11926516 0.035999097 -0.027612947
-0.11326233 0.036977395 -0.02770767
-0.02611593 -0.059798401 0.050936799
-0.094199687 0.029819947 -0.02319251
-0.02611593 -0.059798401 0.050936799
-0.02611593 -0.059798401 0.050936799
-0.10824846 0.03594153 -0.026819974
-0.02611593 -0.059798401 0.050936799
-0.12420022 0.037962437 -0.024483968
-0.12327045 0.044048272 -0.02939295
-0.02611593 -0.059798401 0.050936799
-0.1001868 0.032840971 -0.023025706
-0.02611593 -0.059798401 0.050936799
-0.02611593 -0.059798401 0.050936799
-0.11624215 0.041987315 -0.027561206
-0.02611593 -0.059798401 0.050936799
-0.13417089 0.044997133 -0.024169937
-0.13224916 0.049079724 -0.029133745
-0.02611593 -0.059798401 0.050936799
-0.10715502 0.035847496 -0.021840461
-0.02611593 -0.059798401 0.050936799
-0.02611593 -0.059798401 0.050936799
-0.12319556 0.043975912 -0.025394306
-0.02611593 -0.059798401 0.050936799
-0.14715189 0.054060355 -0.024763148
-0.14321965 0.056118004 -0.02880092
-0.02611593 -0.059798401 0.050936799
-0.11716314 0.042918377 -0.023525752
-0.02611593 -0.059798401 0.050936799
-0.02611593 -0.059798401 0.050936799
-0.13015592 0.048982099 -0.024173021
-0.02611593 -0.059798401 0.050936799
-0.15509336 0.059052031 -0.022523414
-0.15418622 0.064156123 -0.028450076
-0.02611593 -0.059798401 0.050936799
-0.12717126 0.049989253 -0.025211036
-0.02611593 -0.059798401 0.050936799
-0.02611593 -0.059798401 0.050936799
-0.14011574 0.053999051 -0.022895366
-0.02611593 -0.059798401 0.050936799
-0.17409106 0.0731721 -0.024913114
-0.16615653 0.071197994 -0.02809846
-0.02611593 -0.059798401 0.050936799
-0.13109565 0.049931254 -0.02113723
-0.02611593 -0.059798401 0.050936799
-0.02611593 -0.059798401 0.050936799
-0.15510723 0.065087192 -0.024414625
-0.02611593 -0.059798401 0.050936799
-0.19104081 0.085231081 -0.024377454
-0.17910008 0.080225028 -0.026692353
-0.02611593 -0.059798401 0.050936799
-0.14710175 0.062040895 -0.023619343
-0.02611593 -0.059798401 0.050936799
-0.02611593 -0.059798401 0.050936799
-0.17109461 0.077178746 -0.025897078
-0.02611593 -0.059798401 0.050936799
-0.20996362 0.099278793 -0.022768512
-0.20005213 0.096315771 -0.027009122
-0.02611593 -0.059798401 0.050936799
-0.15704283 0.067039758 -0.02134202
-0.02611593 -0.059798401 0.050936799
-0.02611593 -0.059798401 0.050936799
-0.18804437 0.089237712 -0.025361415
-0.02611593 -0.059798401 0.050936799
-0.23388854 0.11736187 -0.021993209
-0.22098938 0.11138858 -0.026344243
-0.02611593 -0.059798401 0.050936799
-0.17403004 0.079134904 -0.022805683
-0.02611593 -0.059798401 0.050936799
-0.02611593 -0.059798401 0.050936799
-0.20597523 0.10128218 -0.023807298
-0.02611593 -0.059798401 0.050936799
-0.26180092 0.13845877 -0.021088686
-0.24089327 0.12542181 -0.023716856
-0.02611593 -0.059798401 0.050936799
-0.1939901 0.093222387 -0.023177274
-0.02611593 -0.059798401 0.050936799
-0.02611593 -0.059798401 0.050936799
-0.22890425 0.11836184 -0.023068801
-0.02611593 -0.059798401 0.050936799
-0.88186741 0.6536687 -0.1702103
-0.8594234 0.64709389 -0.19875914
-0.02611593 -0.059798401 0.050936799
-0.22094408 0.11335208 -0.024308886
-0.87849838 0.64727908 -0.14938191
-0.86908758 0.65082151 -0.18150491
-0.26082677 0.14149086 -0.023052748
-0.02611593 -0.059798401 0.050936799
-0.88114601 0.64594638 -0.13034998
-0.87273902 0.64849252 -0.16247222
-0.02611593 -0.059798401 0.050936799
-0.24986415 0.13245292 -0.023421608
-0.88681489 0.64865983 -0.11318894
-0.87638247 0.6481632 -0.1434035
-0.87296271 0.65372682 -0.17537771
-0.02611593 -0.059798401 0.050936799
-0.88644832 0.64629841 -0.093231745
-0.88102973 0.64683765 -0.12433399
-0.88161618 0.65543324 -0.15717867
-0.86720413 0.64992309 -0.18755847
-0.88909203 0.64596552 -0.074181817
-0.8846733 0.64650834 -0.10526527
-0.88625264 0.65208989 -0.13714555
-0.87485093 0.64860827 -0.16843259
-0.89075464 0.64564705 -0.056150354
-0.88831687 0.64617896 -0.086196534
-0.88788956 0.64873582 -0.11716879
-0.88348961 0.6492967 -0.14925192
-0.89239454 0.64631039 -0.037101187
-0.89297497 0.64687115 -0.068090685
-0.89454728 0.64943516 -0.099025354
-0.8931281 0.64998877 -0.13005242
-0.89303863 0.64597023 -0.018088832
-0.89561874 0.64653814 -0.049040742
-0.90016788 0.65009469 -0.078901365
-0.90075225 0.64965564 -0.10990888
-0.89569718 0.64665532 -2.0548701e-05
-0.8982625 0.64620525 -0.029990815
-0.90580708 0.65077245 -0.059777044
-0.90538466 0.6473121 -0.08985775
-0.89434558 0.64530814 0.018936206
-0.89989156 0.64485085 -0.0099780336
-0.90744412 0.64741832 -0.039800294
-0.91200894 0.64697552 -0.069732986
-0.89398986 0.6449644 0.037929766
-0.90153545 0.64451432 0.0090531111
-0.9080773 0.64506042 -0.019824319
-0.91763347 0.64663523 -0.049627006
-0.89364892 0.6456387 0.055941679
-0.90317935 0.64417779 0.028084252
-0.91070622 0.64370966 0.0002072528
-0.92224324 0.64527351 -0.028558195
-0.88930571 0.64228117 0.074806027
-0.89983594 0.6408239 0.04696738
-0.9173187 0.64637244 0.02038607
-0.93085933 0.64694369 -0.0083598346
-0.88599581 0.63996321 0.091707855
-0.90444875 0.64347953 0.067108616
-0.92193943 0.64702839 0.040491257
-0.93546522 0.64658177 0.012727
-0.88961965 0.64463305 0.11086667
-0.90710336 0.64516437 0.085194916
-0.9215728 0.64466697 0.060448445
-0.93506509 0.6431843 0.034665495
-0.88628721 0.64329678 0.12878618
-0.89877266 0.63879293 0.10393005
-0.9261896 0.64632279 0.080571659
-0.94166279 0.64482921 0.055825949
-0.88494641 0.64396751 0.1467793
-0.90238571 0.6414451 0.12405248
-0.9258191 0.64496118 0.10054686
-0.94824171 0.646456 0.077986062
-0.88061804 0.64162785 0.16466202
-0.90202606 0.64210123 0.14306407
-0.92343807 0.64157468 0.12144811
-0.94687927 0.6430912 0.09790644
-0.8792733 0.64329833 0.18267316
-0.90167034 0.64175749 0.16205764
-0.92705107 0.64422673 0.14157054
-0.95445019 0.64672124 0.12012137
-0.87194937 0.63994807 0.20048147
-0.89433157 0.6373893 0.18084759
-0.92765778 0.64385045 0.16258222
-0.95305026 0.64332014 0.14204107
-0.8716045 0.64162213 0.2185114
-0.89594501 0.6400342 0.20093244
-0.92526883 0.64246356 0.18351951
-0.95362335 0.64190793 0.16503406
-0.86230356 0.63728303 0.23526445
-0.89159781 0.63767654 0.21981481
-0.92686749 0.64409053 0.204586
-0.95818001 0.64450932 0.18817428
-0.86295068 0.64096034 0.25334921
-0.89023447 0.6393289 0.2388256
-0.92447853 0.64270371 0.22552328
-0.95776808 0.64411139 0.21016681
-0.85464174 0.63862449 0.2701571
-0.88588339 0.6379711 0.25772601
-0.9191168 0.63932449 0.2453685
-0.96032912 0.6457057 0.23325142
-0.84633666 0.63528866 0.28694695
-0.88649297 0.64161217 0.27781007
-0.92168868 0.64293653 0.26748949
-0.9589026 0.64428622 0.25620681
-0.84498411 0.63895887 0.30499414
-0.88114607 0.63925087 0.29667366
-0.91829598 0.64254594 0.28842598
-0.95051187 0.63886046 0.27795893
-0.84064394 0.63961869 0.32293087
-0.87282223 0.63589704 0.31446314
-0.91392618 0.64117002 0.30832604
-0.95603776 0.64444685 0.30217168
-0.83235371 0.63730097 0.3387391
-0.86746746 0.63553542 0.33336279
-0.90853792 0.6397723 0.32920694
-0.9466511 0.63801759 0.32388699
-0.82900542 0.63996404 0.3567307
-0.86805451 0.6401583 0.35446453
-0.90811813 0.64137405 0.35123551
-0.94718987 0.64058656 0.34795171
-0.81576926 0.63366514 0.37037355
-0.85478085 0.63382316 0.37010676
-0.89777994 0.6369952 0.3699691
-0.94375974 0.64015973 0.37088752
-0.81044793 0.63433951 0.38729185
-0.84844494 0.63347602 0.38798785
-0.89832944 0.64158183 0.39307022
-0.93733418 0.6387223 0.393749
-0.80609995 0.63699907 0.40526465
-0.84209031 0.63311082 0.4068687
-0.89096421 0.63919526 0.41289586
-0.93687308 0.64128762 0.41779491
-0.79780579 0.63568115 0.42109087
-0.83970445 0.63574141 0.42687839
-0.88654518 0.64078254 0.43484926
-0.92847437 0.63786143 0.43958306
-0.78753459 0.63337421 0.43586189
-0.83136892 0.63538712 0.44472197
-0.87818003 0.63839245 0.45465615
-0.92599487 0.64040154 0.46459106
-0.78418243 0.63703716 0.45387143
-0.82698733 0.63701057 0.46467608
-0.86783791 0.6350134 0.47340772
-0.91561532 0.63698632 0.48534197
-0.76798815 0.62976384 0.46544063
-0.81569767 0.63468206 0.48042792
-0.86241519 0.63759702 0.49536037
-0.90423983 0.63256764 0.50605613
-0.76166314 0.63143444 0.48235816
-0.80933911 0.63531661 0.49932674
-0.85404605 0.63620663 0.51518524
-0.90272969 0.6380927 0.53213662
-0.75336498 0.63111627 0.49820238
-0.80000377 0.63495874 0.51715153
-0.84467328 0.63581252 0.53500938
-0.89135033 0.63467389 0.55286872
-0.74310863 0.62982732 0.51199174
-0.78771812 0.63162678 0.5328666
-0.834346 0.63345146 0.55277932
-0.88094419 0.63324022 0.57465535
-0.73085666 0.62753147 0.52572548
-0.77542859 0.62929457 0.5485996
-0.82792336 0.63603145 0.57471317
-0.86857975 0.63083571 0.59438705
-0.7245276 0.63020182 0.54266101
-0.76218468 0.62499541 0.56227857
-0.81360072 0.6326561 0.59238994
-0.8571738 0.62939841 0.61615491
-0.71327144 0.62890929 0.55643153
-0.75384516 0.62564093 0.58014011
-0.79931945 0.62831706 0.60804933
-0.85069114 0.63292402 0.64110571
-0.70301121 0.62862015 0.57023889
-0.74350607 0.62627929 0.59796417
-0.791897 0.63089353 0.62996441
-0.83830804 0.63050145 0.6618371
-0.69372803 0.62931633 0.58508277
-0.73318571 0.62693572 0.61478847
-0.77759302 0.62753624 0.64664161
-0.82394391 0.62808967 0.68153119
-0.68244922 0.62900549 0.59987098
-0.72089219 0.62560338 0.6305396
-0.76721257 0.62913823 0.66648293
-0.81253016 0.6286521 0.70333505
-0.66925746 0.62576044 0.61056894
-0.70861745 0.62428916 0.64529097
-0.75290865 0.625781 0.68316001
-0.80011654 0.62921095 0.72512019
-0.65799731 0.62546772 0.62435746
-0.69534689 0.62197143 0.66000557
-0.74054724 0.62739384 0.70196414
-0.78477138 0.62681371 0.74379581
-0.64869153 0.62714565 0.64021891
-0.68402272 0.62362409 0.67682916
-0.72819376 0.62700707 0.72073221
-0.76844913 0.62343127 0.76143503
-0.63842338 0.62885618 0.65406233
-0.67172545 0.62329161 0.69259822
-0.71583623 0.62762016 0.73951828
-0.75405854 0.62300116 0.78216481
-0.62225878 0.62361866 0.66366822
-0.66042393 0.62396264 0.70840418
-0.69857037 0.62428838 0.75413972
-0.74159563 0.6265232 0.80600327
-0.61294907 0.6262964 0.67954773
-0.64614564 0.62364101 0.72313595
-0.68230027 0.62195992 0.76879799
-0.72622395 0.62610757 0.82571465
-0.59679919 0.62207693 0.68817198
-0.62895852 0.61938167 0.73374075
-0.66700739 0.62061685 0.78449267
-0.70889395 0.62472111 0.84337115
-0.58455414 0.6227985 0.70096004
-0.6156801 0.61906368 0.74849141
-0.65266508 0.62224066 0.8022595
-0.68767405 0.61941147 0.85588199
-0.57426727 0.62449092 0.71580315
-0.60335213 0.62171263 0.76531416
-0.63734955 0.62187934 0.81897199
-0.66934431 0.61802143 0.87351966
-0.5571363 0.62028587 0.72340888
-0.58713835 0.61943841 0.77697349
-0.62203002 0.62251782 0.8357023
-0.6559003 0.62155807 0.89633965
-0.54684544 0.62297821 0.73826998
-0.57190156 0.61814958 0.78966916
-0.60573339 0.62217098 0.85139626
-0.63560838 0.62019706 0.91194046
-0.53262335 0.62271088 0.75000286
-0.55666095 0.61786062 0.80238289
-0.5835886 0.61693007 0.85988975
-0.61727071 0.62080663 0.92961407
-0.51842391 0.62146181 0.76071805
-0.54237872 0.61853886 0.81713283
-0.57309091 0.62444055 0.88483751
-0.59795988 0.61943114 0.94623327
-0.50421655 0.62221247 0.77146924
-0.52613831 0.61824632 0.82982779
-0.55096483 0.61921775 0.8923313
-0.57575095 0.6161356 0.95776182
-0.49001712 0.62096334 0.78218442
-0.50989383 0.61895353 0.84254068
-0.53464162 0.62085247 0.90906096
-0.55836779 0.61871231 0.97748959
-0.4748553 0.61974692 0.79088151
-0.49369478 0.6176973 0.85321832
-0.51636404 0.62051654 0.92371762
-0.53900379 0.62129986 0.99618018
-0.45967472 0.61851227 0.80057824
-0.47454152 0.61446685 0.86180419
-0.49618834 0.6182642 0.93330234
-0.51485932 0.61605185 1.004636
-0.44447151 0.61825949 0.81129265
-0.46023273 0.61712664 0.8775897
-0.4778842 0.61990988 0.9489947
-0.49260515 0.61471975 1.0181999
-0.43024158 0.61999184 0.82306153
-0.44205269 0.61588132 0.88723004
-0.45671263 0.6166541 0.95854276
-0.47132424 0.61537296 1.0328183
-0.4140799 0.61877185 0.83173978
-0.42389145 0.61465412 0.89587075
-0.4374688 0.61735052 0.97119927
-0.44906223 0.61604053 1.0464182
-0.39891413 0.61855519 0.84045494
-0.40568876 0.61439049 0.90652889
-0.41631201 0.61511272 0.97976553
-0.4258644 0.61475921 1.0569643
-0.38272989 0.61831683 0.85015088
-0.38750485 0.6141451 0.91618723
-0.39608702 0.61582375 0.99140376
-0.40264785 0.61345971 1.0685099
-0.36560977 0.61612958 0.85679305
-0.36936226 0.6129359 0.92382818
-0.37584338 0.61651659 1.0040416
-0.37944615 0.61317819 1.0790739
-0.35044008 0.61691278 0.86552614
-0.35018247 0.611687 0.9334498
-0.35183391 0.61039531 1.0054817
-0.35622174 0.61387849 1.0906558
-0.33425185 0.61767429 0.87524009
-0.33197194 0.61342311 0.94414389
-0.3334766 0.61600411 1.0232456
-0.33199751 0.61457509 1.1022187
-0.31708646 0.61745054 0.88391763
-0.3128069 0.61319208 0.95278382
-0.31133479 0.6147806 1.0308114
-0.30783731 0.61332631 1.1107469
-0.30002645 0.61431766 0.88754278
-0.2927928 0.60808498 0.95431721
-0.28921166 0.61357516 1.0373776
-0.28086582 0.60723048 1.1101314
-0.2828345 0.61607534 0.89725596
-0.27453697 0.61178452 0.96704662
-0.2689375 0.61724949 1.0510691
-0.25663772 0.60892689 1.1217122
-0.26568779 0.61586964 0.90493387
-0.25441349 0.61058629 0.97365046
-0.24398828 0.61017907 1.0494736
-0.23157918 0.60576534 1.125187
-0.24860126 0.61471832 0.90959466
-0.23426344 0.61136961 0.98128998
-0.22186126 0.60997343 1.0560579
-0.20645267 0.60554904 1.1317151
-0.23143193 0.61549431 0.9182902
-0.21602635 0.61508733 0.99301976
-0.19971156 0.6107496 1.0636598
-0.18123953 0.60825974 1.1422955
-0.21149659 0.60945982 0.91580701
-0.19317827 0.6061148 0.98642743
-0.1765621 0.6115222 1.0712429
-0.15613177 0.60806143 1.1478238
-0.19525912 0.61318463 0.92757434
-0.17481312 0.61372322 1.0042273
-0.15351798 0.60938573 1.0737736
-0.12996015 0.60980505 1.1563681
-0.17617294 0.61202615 0.93219757
-0.15376866 0.61159396 1.0067955
-0.13045123 0.60823101 1.0773221
-0.10487112 0.60962492 1.1608967
-0.15812792 0.60990763 0.93482232
-0.13267888 0.61142814 1.0113993
-0.10725249 0.61196685 1.0869585
-0.077861279 0.60851008 1.161371
-0.13992827 0.61366147 0.94455278
-0.11158911 0.61126232 1.016003
-0.083246022 0.60986304 1.0874714
-0.051855166 0.606399 1.161846
-0.12181924 0.61348832 0.95021248
-0.090582088 0.60916919 1.016572
-0.06013396 0.61067176 1.0930551
-0.025803752 0.60625142 1.1643565
-0.10181202 0.61139876 0.9508003
-0.069469661 0.60998511 1.0221934
-0.036146212 0.60858595 1.0925682
-0.0007935334 0.60514385 1.1648684
-0.083740421 0.61126179 0.95446068
-0.047481537 0.60790652 1.021744
-0.012218552 0.60555464 1.089064
0.026224175 0.60602862 1.1653788
-0.064646363 0.61210304 0.95912004
-0.026493242 0.60583144 1.0213134
0.010920079 0.60834491 1.0956836
0.052260794 0.6068989 1.1669074
-0.044620428 0.60999542 0.96070755
-0.0054822899 0.60473818 1.0219004
0.034911759 0.60725898 1.0952145
0.078127988 0.60291487 1.160349
-0.025586462 0.60989106 0.96234977
0.015724659 0.61048096 1.0316105
0.057884902 0.60619473 1.0937647
0.10404049 0.60089421 1.1558257
-0.0065790713 0.60780513 0.96295643
0.03767141 0.60743868 1.0291438
0.081839137 0.60514498 1.0912964
0.13116358 0.60468817 1.1613884
0.01249627 0.60866439 0.96661603
0.059772778 0.61026877 1.0337827
0.10581209 0.60407704 1.0898278
0.15597479 0.60076183 1.1518495
0.032552704 0.6095382 0.9692573
0.08057294 0.60335737 1.0242651
0.1297476 0.60304528 1.0863597
0.18085003 0.59878105 1.1453458
0.052522466 0.60748482 0.96784574
0.10265559 0.60620558 1.0279044
0.15376981 0.60494083 1.0869443
0.20677038 0.59876007 1.1408587
0.071492411 0.60543501 0.96645296
0.12462891 0.6051448 1.0264733
0.17774668 0.6048727 1.0854938
0.23594627 0.60650986 1.1484551
0.092593968 0.6082688 0.97111082
0.14764735 0.60604411 1.0270588
0.20162208 0.60289538 1.0790088
0.25861108 0.59871817 1.1318843
0.11254893 0.60723341 0.96871763
0.16854204 0.6040594 1.0216298
0.22453907 0.60188538 1.0745602
0.28453538 0.59969705 1.1274151
0.13143612 0.60325629 0.96329027
0.19052321 0.60499841 1.0202348
0.24846371 0.60287142 1.0701284
0.30938101 0.59975207 1.1189481
0.1535375 0.60608637 0.96792918
0.21352686 0.60691559 1.0198387
0.27240708 0.60383946 1.0666964
0.33320028 0.59782904 1.1094639
0.17347376 0.60506898 0.96453637
0.23438017 0.60396725 1.0123924
0.29630908 0.60384375 1.0612472
0.35910583 0.59882605 1.1039952
0.19338734 0.60306996 0.96012592
0.25738382 0.60588443 1.0119963
0.31919256 0.60386974 1.0548171
0.38187301 0.59796071 1.0915492
0.21445145 0.60593975 0.96278435
0.27930492 0.60587788 1.0075841
0.34203067 0.60193223 1.0463516
0.40775985 0.59897578 1.0850806
0.23645528 0.60786045 0.96240699
0.30016214 0.6039294 1.0001559
0.36591786 0.60295445 1.0399207
0.40744263 0.56511772 1.0214525
0.25637281 0.60686123 0.95801449
0.32310569 0.60490096 0.99674273
0.38776016 0.60202044 1.0314919
0.45435414 0.59818715 1.0631864
0.276245 0.60389847 0.95158666
0.34396687 0.60395235 0.98933256
0.40535098 0.59431893 1.0110162
0.47918499 0.59926003 1.0537378
0.29720762 0.60485911 0.94921076
0.3648093 0.60302186 0.98092258
0.43345219 0.60214472 1.0146329
0.49986982 0.59647459 1.0372946
0.31815159 0.60583788 0.94583517
0.38667032 0.6020698 0.97349352
0.45732456 0.60418493 1.0072204
0.52368212 0.59756923 1.026865
0.33798638 0.60291135 0.93740809
0.4064489 0.59919745 0.96206743
0.4780882 0.60232693 0.99479383
0.54956198 0.60160178 1.0194509
0.35993403 0.60488623 0.93403172
0.43040407 0.60316485 0.95868951
0.50196451 0.60536695 0.98739928
0.56716466 0.59689987 0.9990294
0.38083658 0.60490131 0.92863882
0.45226896 0.60321259 0.95127857
0.5237506 0.60448712 0.97597164
0.59406698 0.60191065 0.99261409
0.4017204 0.60493445 0.92224622
0.47205153 0.60134012 0.93987036
0.54139459 0.60074884 0.95756739
0.61480105 0.60208845 0.97822428
0.42262685 0.60594946 0.91687137
0.49496546 0.60434753 0.93449396
0.56116241 0.59989429 0.94517761
0.63857979 0.60421908 0.9658134
0.44142437 0.60306269 0.90646368
0.51577437 0.60445297 0.92410272
0.58397883 0.60199231 0.93478489
0.65106314 0.59764397 0.93945181
0.46539825 0.60701209 0.90408546
0.53658336 0.60455853 0.91371155
0.60988134 0.60700667 0.92838842
0.67382342 0.59979624 0.92606008
0.48520344 0.60612124 0.893695
0.55535132 0.60370761 0.9013406
0.625507 0.6032936 0.90902215
0.69352019 0.60001385 0.90968972
0.5050047 0.6042307 0.88328654
0.57509631 0.60187131 0.88793319
0.64624095 0.60347146 0.89463234
0.71219456 0.59925336 0.89232045
0.52587765 0.6062817 0.87593031
0.5969317 0.60395485 0.87855887
0.66597527 0.60365289 0.8802613
0.73291761 0.60144901 0.87696695
0.54568285 0.60539091 0.86553991
0.61465842 0.60214388 0.86418933
0.6816048 0.60093969 0.86091304
0.74957365 0.60071373 0.85863554
0.56751424 0.60647464 0.85614759
0.63545644 0.60426706 0.85283446
0.70238411 0.60308105 0.84855855
0.76621479 0.60099643 0.83932257
0.58834583 0.60756189 0.8467741
0.65623188 0.60540861 0.84046197
0.72005856 0.60232419 0.83120805
0.78589672 0.60223198 0.82197052
0.60711372 0.60671091 0.8344031
0.67392117 0.60363376 0.8240931
0.73773313 0.60156727 0.8138575
0.800493 0.6005584 0.80065978
0.6248405 0.60489994 0.82003355
0.69163311 0.60284072 0.80874193
0.75747913 0.60474819 0.79954052
0.81815666 0.60181916 0.78234571
0.64358568 0.60306728 0.80664486
0.71036756 0.60302573 0.79438967
0.77618003 0.60596919 0.78320694
0.83379799 0.60210544 0.76305151
0.665425 0.60615051 0.79728866
0.7280646 0.60325062 0.77805686
0.79079497 0.60427755 0.76289582
0.84942448 0.60340971 0.74277562
0.68311423 0.60437572 0.78091979
0.7478255 0.60541356 0.76472151
0.8074736 0.60452408 0.74558216
0.86097991 0.60078311 0.71950382
0.70290858 0.60550278 0.76956576
0.76856732 0.60759115 0.7503677
0.82413346 0.60478866 0.72726882
0.87560272 0.60109109 0.69922876
0.72162426 0.60570592 0.75421375
0.78117484 0.60390699 0.73005807
0.83671135 0.60314029 0.70499599
0.88921094 0.60242057 0.67799085
0.74033993 0.60590905 0.73886186
0.79887193 0.60413182 0.71372527
0.85339379 0.60438669 0.68770027
0.90181535 0.60275376 0.65675366
0.76214176 0.60902858 0.72750622
0.8155545 0.60537815 0.69642961
0.86701292 0.60369831 0.66742599
0.9164421 0.60406154 0.63649666
0.78083879 0.60924983 0.71115458
0.83425933 0.60759902 0.68011409
0.8816396 0.6050061 0.64716893
0.92903167 0.60541272 0.61427784
0.79446864 0.60654372 0.69184393
0.85294539 0.60983807 0.66279882
0.89930713 0.60726678 0.62887281
0.93656915 0.60281861 0.59008157
0.81214702 0.60678667 0.67451143
0.86658317 0.60913163 0.64352417
0.909908 0.60660732 0.60765517
0.95020002 0.60512984 0.56986129
0.82984424 0.60701144 0.65817869
0.87817603 0.60646892 0.62225175
0.9245348 0.6079151 0.58739817
0.96078998 0.60648817 0.54768014
0.84650415 0.60727608 0.63986534
0.8938213 0.60775501 0.60297561
0.93916547 0.6102227 0.56715918
0.97337961 0.60783929 0.52546132
0.86114168 0.60656613 0.62057191
0.90439951 0.60611385 0.58074033
0.94772536 0.60860676 0.54396176
0.97892135 0.60625219 0.50132066
0.87982774 0.60880506 0.60325664
0.92004484 0.60739994 0.56146407
0.95831138 0.60896528 0.52176255
0.98748904 0.60663593 0.47815934
0.89344293 0.607117 0.58296436
0.93569404 0.60968584 0.54220593
0.96889752 0.60932374 0.49956331
0.99505705 0.6070233 0.45501682
0.90808439 0.60740685 0.56368899
0.95032066 0.61099362 0.52194893
0.97948354 0.6096822 0.47736406
1.0056509 0.60938144 0.43285358
0.92268848 0.60773283 0.54241419
0.96090293 0.61035228 0.49973166
0.99006975 0.61004072 0.45516482
1.0122004 0.60979044 0.40873021
0.93730736 0.607041 0.52212107
0.97246611 0.60972548 0.47649592
0.99861866 0.61044258 0.43100381
1.0248019 0.61414111 0.38656545
0.95798618 0.61229044 0.50382268
0.98305225 0.61008394 0.45429665
1.0102311 0.61277902 0.40982151
1.0313737 0.61553186 0.36345974
0.97159046 0.61262006 0.48256671
0.99161607 0.60946786 0.43111736
1.0208064 0.61515528 0.38665861
1.0349197 0.61495185 0.33937469
0.9801237 0.60902256 0.45833367
1.0072318 0.61278981 0.40987787
1.024326 0.61259359 0.36153787
1.0384471 0.61438984 0.31428996
0.994717 0.61136627 0.4360953
1.0157994 0.61317354 0.38671654
1.0298902 0.61198831 0.33841491
1.0369635 0.61084634 0.28924519
1.0123322 0.61468107 0.41481826
1.0233408 0.6115793 0.36253831
1.0404732 0.61636418 0.31528813
1.0505953 0.61817473 0.26811534
1.0198735 0.61308682 0.39064002
1.0389644 0.61690092 0.34133488
1.0440152 0.61478436 0.29118502
1.047112 0.61463839 0.24310811
1.0294147 0.61148542 0.36642423
1.0374542 0.61137581 0.31525439
1.0545983 0.61916018 0.26805818
1.0466588 0.61407274 0.21909823
1.0460153 0.61582166 0.34418431
1.0520364 0.61573738 0.29205239
1.0601479 0.61957282 0.24395359
0.98890203 0.57688075 0.18649578
1.0535418 0.6152454 0.31902441
1.0646192 0.6201061 0.26888797
1.0576644 0.6160329 0.21892756
0.61277735 0.34047559 0.12223972
1.0671164 0.61761087 0.29580522
1.0651165 0.61657351 0.24280593
1.0250223 0.59469414 0.18914261
0.629574 0.35164785 0.10912289
1.0766466 0.61802721 0.27062577
1.0736734 0.61897498 0.21868098
0.62679446 0.34542447 0.12206675
0.59517562 0.33008116 0.092371121
1.0801512 0.61648351 0.24452339
1.0751784 0.6174385 0.19261616
0.60943216 0.3337951 0.10517573
0.60996485 0.33926094 0.079255842
1.0896665 0.61791778 0.2183623
0.66389579 0.36325246 0.12369515
0.60115182 0.32907784 0.091240704
0.58364451 0.32361022 0.065460846
1.0982007 0.6193375 0.19321969
0.61741191 0.33378446 0.10402574
0.58783799 0.32039741 0.076327898
0.58338636 0.32486328 0.051483609
0.71503294 0.38601124 0.12615025
0.61812699 0.33305234 0.088994019
0.59057933 0.32163972 0.062294289
-0.02611593 -0.059798401 0.050936799
0.6363976 0.33573398 0.10270509
0.60681671 0.32536453 0.074061655
0.58230293 0.31792235 0.048377287
0.58191854 0.32531911 0.026510874
0.61703175 0.32311189 0.085833639
0.60252088 0.32165089 0.05906982
0.57907093 0.31615052 0.036401685
0.60469633 0.34150517 0.011372067
0.63779026 0.33430603 0.070642322
