# .PCD v0.7 - Point Cloud Data file format
VERSION 0.7
FIELDS x y z
SIZE 4 4 4
TYPE F F F
COUNT 1 1 1
WIDTH 1402
HEIGHT 1
VIEWPOINT 0 0 0 1 0 0 0
POINTS 1402
DATA ascii
-1.1913693 0.65046382 0.019590765
-1.2080816 0.65020877 -0.018113732
-1.0738568 0.55911958 -0.043283015
-1.1632249 0.64624596 0.081008345
-1.1908864 0.64899361 0.045563933
-1.2145709 0.65074533 0.0090266839
-1.1443576 0.59704244 -0.023270287
-1.1617759 0.64580816 0.10498143
-1.1894075 0.64652014 0.071500294
-1.2200603 0.65127832 0.036148287
-1.2138103 0.63290763 -0.00031340867
-1.1603266 0.64537048 0.1289545
-1.1899354 0.6470713 0.096528634
-1.2235541 0.65080422 0.063214302
-1.2492315 0.64954555 0.027660221
-1.1568818 0.64392573 0.15287198
-1.1934401 0.648615 0.12263102
-1.2280438 0.65133363 0.090317115
-1.2586936 0.65207446 0.055892698
-1.153433 0.64348078 0.17680746
-1.1889844 0.64514893 0.14749332
-1.2245506 0.64783496 0.11719754
-1.2581624 0.64855033 0.084828809
-1.1459967 0.64002216 0.20061374
-1.1855021 0.643668 0.17341012
-1.2300135 0.6503495 0.14535484
-1.2646331 0.64906877 0.11296888
-1.142548 0.63957721 0.22454925
-1.1860113 0.64420116 0.19943812
-1.2275162 0.64785427 0.17227209
-1.2610835 0.64551592 0.14284828
-1.1420681 0.64212441 0.24959484
-1.1855205 0.64473063 0.22544733
-1.2269959 0.64634794 0.20024458
-1.2715042 0.64901197 0.17311689
-1.1346465 0.6396836 0.27241945
-1.1760699 0.64024681 0.25019768
-1.2224803 0.64382744 0.22812387
-1.2649817 0.64346671 0.20190422
-1.130198 0.63923514 0.29633617
-1.1745791 0.64077276 0.27618808
-1.2229518 0.64432436 0.2561512
-1.2743653 0.64692312 0.23415336
-1.1257455 0.63978648 0.3202709
-1.1730888 0.64129865 0.3021785
-1.2234236 0.64482123 0.28417853
-1.2698309 0.6443845 0.26303232
-1.1193159 0.63934886 0.34315038
-1.1696024 0.64081752 0.32811332
-1.2179229 0.64331508 0.31105739
-1.2772146 0.6478337 0.29524386
-1.1138675 0.63889676 0.36704826
-1.1621397 0.6393404 0.35295528
-1.214403 0.64179808 0.33897352
-1.2696887 0.64328462 0.32403046
-1.1044612 0.63746667 0.3888537
-1.1546767 0.63786322 0.37779728
-1.2088836 0.64027369 0.36685205
-1.2720772 0.64571607 0.35613
-1.092086 0.63304442 0.409549
-1.1501907 0.63737857 0.40371329
-1.205356 0.64075631 0.39480418
-1.2605598 0.63915306 0.38480538
-1.0896064 0.63558453 0.43455699
-1.1437049 0.63688672 0.42959175
-1.2028096 0.64122432 0.42377484
-1.2669171 0.64458019 0.41803384
-1.0772233 0.6331619 0.45528838
-1.1342613 0.63542044 0.45339647
-1.1972862 0.64069992 0.45167139
-1.2494422 0.63703197 0.44457915
-1.0668173 0.63172823 0.47707495
-1.1248214 0.6329543 0.47718319
-1.1907631 0.64017189 0.47954914
-1.2517895 0.64042699 0.47869605
-1.057411 0.6302982 0.49888039
-1.1143777 0.63148445 0.50096911
-1.182263 0.63865495 0.50637162
-1.2422599 0.63687062 0.50746304
-1.0519506 0.63284558 0.52283233
-1.1078882 0.63199246 0.5268656
-1.171767 0.63613099 0.53313857
-1.2416303 0.63927317 0.54050589
-1.0435402 0.63241887 0.54467458
-1.0994177 0.63251132 0.55172479
-1.1691941 0.63858068 0.56314486
-1.2231516 0.63272119 0.56705046
-1.0341259 0.63298851 0.56651604
-1.0929241 0.6340192 0.57763928
-1.1557213 0.63506418 0.58883774
-1.2314218 0.64108264 0.60436922
-1.022716 0.63255107 0.58830184
-1.0814806 0.63254571 0.60140646
-1.1412678 0.63156223 0.6135121
-1.2070122 0.63156396 0.62774789
-1.0123287 0.63113546 0.60908878
-1.0720329 0.63207936 0.62522918
-1.134714 0.63401562 0.64244366
-1.2063372 0.63593 0.66282612
-1.0019149 0.63170147 0.63091147
-1.0605856 0.63160568 0.64901435
-1.1212375 0.63149899 0.66815448
-1.1838969 0.62939978 0.68729615
-0.99150068 0.63226748 0.6527341
-1.0461655 0.62913966 0.67170745
-1.1136879 0.63294894 0.69704914
-1.1871533 0.63672537 0.72550255
-0.97715151 0.63087368 0.67144656
-1.0347142 0.62966591 0.69551063
-1.1011847 0.63241744 0.72381449
-1.1666898 0.63118422 0.75102788
-0.96378332 0.6294654 0.69117761
-1.019313 0.62721449 0.71718526
-1.0817732 0.62793386 0.74637759
-1.1610384 0.63455051 0.78499448
-0.95041519 0.62805706 0.71090847
-1.0098199 0.62871152 0.74304342
-1.0722429 0.62939483 0.77423507
-1.1385939 0.62902021 0.80948257
-0.94195163 0.63159353 0.73482203
-0.9954145 0.62726343 0.76475489
-1.0557854 0.62688541 0.79888994
-1.1309431 0.63237941 0.84341151
-0.9216941 0.62625128 0.74935114
-0.9790321 0.62482649 0.78541106
-1.0452514 0.62934262 0.82674658
-1.1055591 0.6258927 0.8648262
-0.91127229 0.62881702 0.77120978
-0.96264184 0.62438923 0.80610335
-1.0258359 0.62585884 0.84932774
-1.0998439 0.63120449 0.90182781
-0.89296901 0.62544531 0.78781176
-0.94919097 0.62490821 0.82986891
-1.0103519 0.62533462 0.87503701
-1.0685704 0.62078738 0.91805935
-0.87959695 0.6250369 0.80756068
-0.93280464 0.62347114 0.85054314
-0.98899311 0.62189806 0.89458162
-1.0500722 0.61923456 0.94469398
-0.86033136 0.62169784 0.82214451
-0.91541857 0.62203044 0.87119853
-0.97446352 0.62334096 0.9223451
-1.029593 0.61769259 0.97029138
-0.84988689 0.62524521 0.84502089
-0.90295953 0.62455273 0.89501899
-0.959934 0.62478387 0.95010859
-1.0100949 0.61613619 0.99690711
-0.83648825 0.62681848 0.86580557
-0.88555086 0.62409371 0.91669214
-0.92779195 0.61448985 0.9593237
-0.99937648 0.62242979 1.0338328
-0.81624156 0.62349385 0.87937099
-0.863271 0.619726 0.93220121
-0.91717106 0.61987412 0.99123305
-0.97596186 0.61893177 1.0563388
-0.80088854 0.62309635 0.89808261
-0.84687674 0.62028861 0.95291144
-0.89483118 0.61645192 1.0097592
-0.95058501 0.61546266 1.0768079
-0.78455055 0.62371314 0.9157939
-0.8265326 0.61787349 0.97149312
-0.87536263 0.61693138 1.0344117
-0.92810225 0.61491334 1.1023855
-0.76821643 0.62333012 0.93348718
-0.81011581 0.61941773 0.9932211
-0.85201901 0.61450553 1.052937
-0.9046424 0.61337876 1.126927
-0.75088257 0.62294352 0.95116162
-0.79172194 0.61997312 1.0138937
-0.83550459 0.6169591 1.0796813
-0.87924284 0.61089146 1.1484138
-0.73159045 0.62158608 0.96678114
-0.76847982 0.61563796 1.0273848
-0.8053543 0.60867202 1.0889701
-0.85480177 0.60937136 1.1719368
-0.71329421 0.62123203 0.98243749
-0.74908221 0.61718959 1.0480567
-0.79266584 0.61699426 1.1238948
-0.83328837 0.61180705 1.1985869
-0.69499791 0.62087804 0.99809384
-0.72679448 0.61482149 1.0636019
-0.76542443 0.61264479 1.1373106
-0.80590415 0.61033046 1.2190545
-0.67670161 0.62052399 1.0137503
-0.70647997 0.61444223 1.0802202
-0.74496686 0.61513829 1.1609807
-0.78050059 0.60884291 1.2405592
-0.6564244 0.6201809 1.0283693
-0.68610513 0.61500853 1.0998558
-0.71672565 0.61078531 1.1743778
-0.75407094 0.60933346 1.2630808
-0.63910532 0.62081218 1.0450622
-0.66574526 0.61659271 1.1185095
-0.69722658 0.61424607 1.200084
-0.72766376 0.60884213 1.2845848
-0.61785096 0.61948377 1.0586448
-0.64149535 0.61425364 1.1320177
-0.66804558 0.60894388 1.2104453
-0.69542319 0.60447478 1.2979068
-0.59857357 0.6191442 1.0732827
-0.61628705 0.61094743 1.1434898
-0.64654303 0.61339736 1.236132
-0.66709524 0.6030488 1.3153565
-0.57346678 0.61392874 1.0797205
-0.59301043 0.6105935 1.1580526
-0.61639965 0.60812771 1.2444751
-0.64063883 0.60552084 1.3389138
-0.55320448 0.61460352 1.0933578
-0.57067353 0.61118877 1.1756511
-0.5900861 0.60772687 1.2609808
-0.61032999 0.60410589 1.3553263
-0.53196877 0.61329317 1.1059408
-0.54454416 0.60695148 1.1830877
-0.56474984 0.60831147 1.278523
-0.58289254 0.60659242 1.3778653
-0.51072931 0.61298263 1.1185418
-0.52316189 0.60951376 1.2027404
-0.53839087 0.60987407 1.2970639
-0.54876858 0.60132653 1.3851336
-0.49140269 0.61560649 1.1352332
-0.49790427 0.60917079 1.216266
-0.5073266 0.6036734 1.3013717
-0.51843315 0.60189307 1.4025818
-0.46820876 0.6133253 1.1457613
-0.47175229 0.60591525 1.2247202
-0.48282057 0.6091159 1.32702
-0.48620349 0.59954333 1.4149401
-0.44502965 0.61206198 1.1553075
-0.44936618 0.60947376 1.2443721
-0.45079383 0.60294789 1.3293097
-0.45396596 0.59919339 1.4273343
-0.42663494 0.61763459 1.1750706
-0.42033494 0.60431635 1.2467362
-0.42540824 0.60649562 1.3489052
-0.42452493 0.60267264 1.4498537
-0.40150148 0.61440074 1.1825442
-0.39699039 0.60690761 1.2643518
-0.39241913 0.6003601 1.3491766
-0.39043453 0.59844267 1.4551406
-0.37738666 0.61118835 1.1890367
-0.36895502 0.60275358 1.2667527
-0.36601111 0.60488611 1.369771
-0.35538176 0.59424543 1.4584097
-0.35416225 0.61188871 1.2006186
-0.34458801 0.606323 1.2853673
-0.33304068 0.59876871 1.3690428
-0.3249104 0.60070246 1.4819639
-0.33099794 0.61164331 1.2091833
-0.31463969 0.5992347 1.2836779
-0.30652723 0.60620368 1.3946896
-0.29079735 0.59745425 1.4882685
-0.3067964 0.61135823 1.2197287
-0.29115921 0.60771644 1.3073997
-0.27359819 0.59912258 1.3919441
-0.25569537 0.59622031 1.4935908
-0.28357202 0.6120584 1.2313104
-0.26222944 0.60064971 1.3047292
-0.24608099 0.60755396 1.4175901
-0.22245014 0.59786642 1.5060024
-0.25933993 0.61475468 1.2429093
-0.23593767 0.60428441 1.3193078
-0.21231373 0.59761441 1.4067744
-0.18824647 0.59854525 1.5163779
-0.23245117 0.60673147 1.2382593
-0.20598149 0.59919572 1.3176543
-0.18289837 0.60412931 1.4273485
-0.15408029 0.59926021 1.5247539
-0.20817775 0.61039144 1.2518755
-0.18050532 0.60667044 1.3413205
-0.15010431 0.59617507 1.4175873
-0.11901571 0.59806246 1.5280769
-0.18305518 0.60917526 1.2583854
-0.15066937 0.59969056 1.3336331
-0.12060229 0.60561705 1.442214
-0.083951153 0.59686464 1.5313997
-0.15874039 0.6137988 1.2740191
-0.12331373 0.60526711 1.3512278
-0.087868355 0.59671718 1.4294358
-0.047924221 0.59569937 1.5327047
-0.13280222 0.60874254 1.2714411
-0.09449631 0.59830886 1.3425593
-0.055615097 0.60036653 1.4419023
-0.012851808 0.59650129 1.5360637
-0.10665327 0.60950434 1.278968
-0.065201141 0.60293263 1.3570994
-0.02373421 0.59534299 1.4362127
0.021096671 0.59441572 1.5333893
-0.080628432 0.6073752 1.2804426
-0.036172926 0.60179257 1.3585358
0.007523153 0.59999573 1.4487159
0.057168901 0.59521401 1.5367297
-0.053539764 0.60718787 1.2849336
-0.0069792233 0.60450709 1.3680415
0.039287783 0.59408092 1.43701
0.092057101 0.59217942 1.5310197
-0.027386887 0.60894954 1.2924783
0.020842308 0.59855229 1.3594102
0.072687618 0.60159928 1.4565274
0.12451714 0.58053327 1.5041921
-0.0002154652 0.61068952 1.3010041
0.051099852 0.6032086 1.371932
0.10341498 0.59572423 1.4428412
0.12615794 0.46524984 1.2409868
0.025707899 0.60665107 1.2974445
0.079943851 0.59823197 1.3642994
0.10608034 0.47238424 1.1824718
0.19914684 0.59570426 1.5340794
0.052759126 0.60649997 1.2999361
0.098776832 0.54504728 1.2589489
0.16952702 0.59837836 1.4476531
0.23404683 0.59566903 1.5284234
0.079810351 0.60634875 1.3024278
0.13759832 0.58931482 1.3470527
0.20031841 0.59444863 1.4370018
0.26780021 0.59176481 1.5157164
0.095421307 0.54435724 1.1869749
0.16885962 0.59496742 1.3595738
0.23552281 0.60014111 1.4464489
0.30376014 0.59267157 1.5130588
0.13483381 0.60511535 1.3033755
0.19892207 0.5978049 1.3620633
0.26515281 0.59336025 1.4277651
0.33976531 0.59554189 1.5124364
0.16282475 0.60401499 1.3028314
0.2288752 0.59673363 1.3594822
0.29706812 0.59231788 1.4231472
0.37250409 0.59265918 1.4987667
0.19084229 0.60489637 1.3033228
0.26099741 0.60050958 1.364951
0.32901004 0.59325719 1.419565
0.40626535 0.59075451 1.4860958
0.21881451 0.60381407 1.3017792
0.28877062 0.59660876 1.3533565
0.36193308 0.59421092 1.4149641
0.44009063 0.59079528 1.47646
0.24566674 0.60084438 1.29422
0.32085535 0.60042089 1.3568258
0.3926909 0.59131724 1.4023316
0.47179607 0.58895212 1.4608276
0.27366161 0.60074389 1.2936939
0.34960967 0.59653455 1.3442129
0.42561784 0.59327084 1.3977491
0.50768501 0.59093112 1.4541893
0.30261886 0.600676 1.2911497
0.38063058 0.59840482 1.3446661
0.45643973 0.59232253 1.3881514
0.5193823 0.5660466 1.3894982
0.33053491 0.599648 1.2866069
0.40837029 0.59554005 1.3310903
0.48614165 0.58948672 1.3725388
0.40321603 0.40677914 1.0396736
0.35953748 0.60154361 1.286098
0.4414174 0.59938478 1.3325417
0.41594443 0.46929973 1.1195934
0.59237468 0.57681888 1.3863255
0.38531104 0.59764987 1.274541
0.46598825 0.59167624 1.3109348
0.42714927 0.4539648 1.0800927
0.63560116 0.58848166 1.3957303
0.41631323 0.59953833 1.2739946
0.46327341 0.55218816 1.2272431
0.5817278 0.59353948 1.3488146
0.66629589 0.58865982 1.3791533
0.44313192 0.59760451 1.2644544
0.42708591 0.47610584 1.0724919
0.60833275 0.58980501 1.3282417
0.69800925 0.58881629 1.3635569
0.46782297 0.59178722 1.2488816
0.55975515 0.59857285 1.296299
0.64118481 0.59183097 1.3196605
0.72768152 0.58801633 1.345981
0.41273847 0.48753396 1.0519602
0.58435255 0.59284598 1.275728
0.66677111 0.5881182 1.298107
0.75835758 0.58821261 1.3284042
0.53190672 0.60150152 1.2508581
0.62042964 0.59966129 1.2781767
0.69548106 0.58728558 1.2825493
0.79009748 0.59035063 1.3138437
0.55553782 0.59474218 1.232287
0.64086622 0.59109396 1.2496294
0.72417623 0.58747095 1.2660096
0.8156355 0.58869183 1.2893273
0.58857405 0.60060465 1.2327747
0.67792827 0.59892362 1.2510777
0.75599498 0.59053653 1.2554657
0.8442331 0.58796775 1.2677714
0.61221302 0.59584498 1.2142398
0.70046991 0.59325814 1.2275451
0.77952152 0.58588529 1.2309328
0.87391716 0.59016722 1.2502495
0.65139484 0.60555857 1.2216845
0.73749453 0.60112399 1.226994
0.8123253 0.58996522 1.2193886
0.89945519 0.58850843 1.2257329
0.66776431 0.59406036 1.1901593
0.75389045 0.59160733 1.1965046
0.83897942 0.58919406 1.2008693
0.92605704 0.58879137 1.2042328
0.70590895 0.60381371 1.1956234
0.78160447 0.59177822 1.1809835
0.86561865 0.58944088 1.1813684
0.95468128 0.59004897 1.1837127
0.72436464 0.59523547 1.1681134
0.80929583 0.5909673 1.1644447
0.89123553 0.58870947 1.1608686
0.97820485 0.58941519 1.1582521
0.76447141 0.60501784 1.1715406
0.83701384 0.59213799 1.1489418
0.91785622 0.58897442 1.1403681
1.0037694 0.58973795 1.1347713
0.77882242 0.5935449 1.1390532
0.86369061 0.59234858 1.1314402
0.94245839 0.58926451 1.1189054
1.0283382 0.5910641 1.1113274
0.81067854 0.59657431 1.1305088
0.88830376 0.59062099 1.1109412
0.97010148 0.59050757 1.0994037
1.0528656 0.59142661 1.0858662
0.83326548 0.59287232 1.1090118
0.91394323 0.59087133 1.091459
0.99368131 0.58981955 1.0769421
1.0733522 0.59083974 1.0584627
0.87329745 0.60272706 1.1084403
0.94264233 0.59205651 1.0749376
1.0152012 0.58819318 1.0515012
1.0958799 0.59120947 1.033039
0.88665646 0.59325731 1.0760078
0.96624082 0.59135044 1.0534756
1.0428522 0.59143585 1.0320356
1.118389 0.59159726 1.0066156
0.9246248 0.60117388 1.0724388
0.98881686 0.58966619 1.0310149
1.0643764 0.59080929 1.0066127
1.1378611 0.59203196 0.97824925
0.94002879 0.59366047 1.0420043
1.011378 0.58899981 1.0075725
1.0859003 0.59018278 0.98118973
1.1603929 0.59340155 0.95284361
0.98200417 0.60356236 1.0383964
1.0410888 0.59318095 0.9910863
1.1074468 0.59053797 0.95678443
1.1778238 0.59287971 0.92249757
0.9933449 0.59411788 1.0050019
1.0626276 0.59153646 0.966645
1.1279563 0.59093291 0.93039864
1.1973147 0.59329635 0.89513087
1.0179433 0.59340823 0.98352116
1.0841701 0.59089184 0.9422217
1.148443 0.5903461 0.90299517
1.2157869 0.59373468 0.86678338
1.0425642 0.59368032 0.96305823
1.1118211 0.59413457 0.92275608
1.1669526 0.59074819 0.876647
1.2332407 0.59419465 0.83745492
1.0641029 0.59203577 0.93861687
1.1303043 0.59255511 0.89537209
1.1854397 0.5901686 0.84928107
1.2436131 0.59275246 0.80422336
1.0897276 0.59330404 0.91815311
1.1548957 0.59486294 0.8729459
1.2039121 0.59060693 0.82093358
1.2620891 0.59419054 0.77589381
1.1153337 0.59459049 0.89668971
1.1794643 0.59618908 0.84950197
1.2284926 0.59493256 0.79754364
1.2765247 0.59467942 0.74562222
1.1358539 0.59296763 0.87126756
1.2019961 0.59755862 0.8240962
1.2459425 0.59439272 0.76819718
1.2970272 0.59809196 0.71829081
1.1593962 0.59231585 0.84680665
1.2245277 0.59892815 0.79869056
1.2614151 0.59484178 0.73990601
1.3114628 0.59858078 0.68801904
1.1880096 0.59559113 0.82532293
1.239974 0.59739566 0.7693637
1.2798914 0.59627986 0.71157652
1.3238839 0.60009468 0.65680337
1.2095374 0.59596443 0.79991806
1.2594688 0.5988121 0.74201506
1.2963454 0.59674346 0.68226695
1.333279 0.59963787 0.62460828
1.2290243 0.59538114 0.7725333
1.2799594 0.5992251 0.71462959
1.3128033 0.59820688 0.65297538
1.3456963 0.60015196 0.59337449
1.2505335 0.59577256 0.7461288
1.2964133 0.59968871 0.68532002
1.3252205 0.59872097 0.62174153
1.3581175 0.60166585 0.5621587
1.272024 0.59618199 0.71872455
1.3189341 0.60307598 0.65895069
1.3366301 0.59723902 0.59049058
1.3614684 0.59926701 0.52804101
1.2955368 0.59756601 0.69230032
1.3323433 0.60158682 0.62766206
1.3500696 0.59873128 0.56025565
1.3739122 0.60176277 0.497843
1.3129905 0.59802604 0.66297197
1.3457377 0.60111558 0.59539187
1.3614645 0.5982672 0.528023
1.3863373 0.60427654 0.46664524
1.335466 0.59944975 0.63456726
1.361173 0.60160077 0.56510139
1.371882 0.5987885 0.49682686
1.3886923 0.60288107 0.43256438
1.3579454 0.6018734 0.60618067
1.3745902 0.60211134 0.53384882
1.3853068 0.60129869 0.4656103
1.3971143 0.60440934 0.40142375
1.3743619 0.60237318 0.57487172
1.3910294 0.60359287 0.50355756
1.394706 0.60184169 0.43343326
1.4055213 0.60695559 0.36930153
1.3917969 0.60285121 0.54454368
1.4014243 0.60313237 0.47134367
1.4041238 0.60236657 0.40225586
1.4058914 0.60454947 0.33623987
1.4122167 0.60433638 0.51317757
1.416826 0.60465366 0.43907189
1.4115044 0.60293478 0.36911672
1.3399124 0.57262045 0.29088226
1.4225888 0.60289419 0.47994602
1.4272062 0.60521114 0.40587637
1.4188851 0.60350299 0.33597758
1.1283412 0.47456697 0.22804841
1.4409941 0.60540456 0.44763589
1.4355828 0.60477591 0.37270045
1.2524027 0.52526641 0.27365822
1.1388867 0.47897899 0.20292228
1.4573731 0.60594052 0.41432762
1.4519924 0.60829324 0.34044591
1.1212244 0.46366632 0.22398311
0.99482208 0.41229972 0.16039898
1.4717565 0.60748345 0.38107494
1.1548339 0.47198558 0.25451469
1.1337695 0.46807122 0.19881938
0.73851746 0.29408547 0.11604428
1.4800918 0.60608453 0.34588164
1.1140996 0.450766 0.21988176
0.97265786 0.39347234 0.15547171
0.72916245 0.28944424 0.098129407
1.1326541 0.44915891 0.24951535
1.099524 0.44234237 0.19099249
0.74947017 0.29208252 0.11380222
0.73485488 0.29272971 0.08107648
1.137121 0.44764778 0.22139485
0.8752014 0.34008288 0.14232615
0.75315511 0.29337552 0.096750848
0.73856246 0.29500443 0.065042779
-0.02611593 -0.059798401 0.050936799
0.76945168 0.29302865 0.11244477
0.75682122 0.29468659 0.078699797
0.73624063 0.29431927 0.048068099
0.83196044 0.31036893 0.13559595
0.76810706 0.29135817 0.094433628
0.75149214 0.29201254 0.061745461
0.73394144 0.29461589 0.032111105
0.80045384 0.29491708 0.1118983
0.74469358 0.2808044 0.074674383
0.75616592 0.29531971 0.043711662
0.73462683 0.29591966 0.015116097
0.74493116 0.26953495 0.089471094
0.75035942 0.28210825 0.056585763
0.75785118 0.29661986 0.026697859
0.72830182 0.29424906 -0.0018014386
0.74258667 0.26786804 0.071478739
0.76205856 0.28737187 0.039456129
0.75751418 0.29694548 0.0087039582
0.74399722 0.3035157 -0.01993382
0.74423057 0.26820454 0.052447602
0.77574259 0.29364622 0.021307275
0.75519234 0.29626033 -0.0082707107
0.74368286 0.30482304 -0.036910038
0.74891531 0.26949397 0.035377428
0.78239727 0.29696429 0.0022362322
0.75485927 0.29758579 -0.026246592
0.74437225 0.30712661 -0.053887039
0.74556714 0.26683083 0.017385844
0.79304051 0.30228573 -0.017873589
0.75053781 0.29690781 -0.043183688
0.74504292 0.3094483 -0.071863689
0.75420666 0.27115965 -0.0027044192
0.78468919 0.29864076 -0.035789244
0.75020474 0.29823327 -0.06115957
0.74872094 0.31375888 -0.089860678
0.77386004 0.27944827 -0.022929296
0.7763232 0.29601365 -0.054686539
0.75185645 0.30056942 -0.080154672
0.75339866 0.31806582 -0.10787645
0.81747329 0.29772145 -0.047423624
0.77797103 0.29734999 -0.073699653
0.75054234 0.30188033 -0.097112104
0.75106984 0.3203983 -0.12579674
0.8110882 0.29510531 -0.067358151
0.77263105 0.29669371 -0.091617621
0.75119424 0.30422011 -0.11608842
0.75971735 0.32672673 -0.14585096
0.79573035 0.28948572 -0.085178316
0.78624403 0.30404022 -0.11374711
0.74587297 0.30354574 -0.13300672
0.64076257 0.27092817 -0.13162832
0.79634088 0.29086185 -0.10617197
0.73201376 0.28138265 -0.12114413
0.66378403 0.26780996 -0.13011524
0.61457831 0.26116788 -0.13931724
0.74209589 0.2692222 -0.11455064
0.67084795 0.25567839 -0.12446503
0.60767728 0.24303328 -0.1305131
0.58640522 0.24939705 -0.14600496
0.68289614 0.24454668 -0.11989042
0.63963401 0.24295461 -0.13311371
0.60339725 0.24331896 -0.14543286
0.21580617 0.063773796 -0.032385577
0.67957836 0.24486496 -0.13682829
0.65326971 0.2512829 -0.15422553
-0.02611593 -0.059798401 0.050936799
0.20575483 0.059846543 -0.034269061
0.66329569 0.23917669 -0.15063101
0.7455495 0.29679161 -0.20214629
0.20775355 0.054822121 -0.033397082
-0.02611593 -0.059798401 0.050936799
0.8162989 0.30780631 -0.2182771
0.21572551 0.052811846 -0.034583095
-0.02611593 -0.059798401 0.050936799
0.17472425 0.045942079 -0.032939162
0.21275082 0.044769697 -0.031671897
0.20068598 0.046884783 -0.035409015
0.18268141 0.044949725 -0.035106823
-0.02611593 -0.059798401 0.050936799
0.19572645 0.037831903 -0.031478584
-0.02611593 -0.059798401 0.050936799
-0.02611593 -0.059798401 0.050936799
0.15068544 0.035030089 -0.032686394
-0.02611593 -0.059798401 0.050936799
0.16867429 0.032965828 -0.033060655
0.15962763 0.035052057 -0.035854492
-0.02611593 -0.059798401 0.050936799
0.16766961 0.026952352 -0.03215031
-0.02611593 -0.059798401 0.050936799
-0.02611593 -0.059798401 0.050936799
0.12869157 0.0260744 -0.030435838
-0.02611593 -0.059798401 0.050936799
0.14463942 0.023053663 -0.032789867
0.13959984 0.027125198 -0.035622828
-0.02611593 -0.059798401 0.050936799
0.14265758 0.018025517 -0.030843053
-0.02611593 -0.059798401 0.050936799
-0.02611593 -0.059798401 0.050936799
0.11266699 0.019133015 -0.030261323
-0.02611593 -0.059798401 0.050936799
0.12561539 0.016123045 -0.032558978
0.11762077 0.017151579 -0.032390635
-0.02611593 -0.059798401 0.050936799
0.1236109 0.01011315 -0.031629842
-0.02611593 -0.059798401 0.050936799
-0.02611593 -0.059798401 0.050936799
0.10064955 0.014176928 -0.030125927
-0.02611593 -0.059798401 0.050936799
0.11059456 0.010177895 -0.032385234
0.10656963 0.013227921 -0.03425533
-0.02611593 -0.059798401 0.050936799
0.10660917 0.0041570961 -0.030418854
-0.02611593 -0.059798401 0.050936799
-0.02611593 -0.059798401 0.050936799
0.088636033 0.010220673 -0.029972516
-0.02611593 -0.059798401 0.050936799
0.092607811 0.0032075103 -0.030173805
0.096522242 0.010300497 -0.03612081
-0.02611593 -0.059798401 0.050936799
0.09457694 0.00021893322 -0.031265102
-0.02611593 -0.059798401 0.050936799
-0.02611593 -0.059798401 0.050936799
0.076633394 0.0042466745 -0.02885548
-0.02611593 -0.059798401 0.050936799
0.084563971 0.0012727384 -0.032058842
0.084523514 0.0053263283 -0.034985755
-0.02611593 -0.059798401 0.050936799
0.081559673 -0.0047335606 -0.031110916
-0.02611593 -0.059798401 0.050936799
-0.02611593 -0.059798401 0.050936799
0.073562972 0.005329628 -0.032779727
-0.02611593 -0.059798401 0.050936799
0.075535111 -0.0016763606 -0.032943435
0.075494662 0.0023772256 -0.035870355
-0.02611593 -0.059798401 0.050936799
0.071549729 -0.0076971631 -0.030977067
-0.02611593 -0.059798401 0.050936799
-0.02611593 -0.059798401 0.050936799
0.062582798 0.00033377844 -0.030663803
-0.02611593 -0.059798401 0.050936799
0.06455493 -0.0066722101 -0.030827511
0.065499499 -0.0016042932 -0.034754861
-0.02611593 -0.059798401 0.050936799
0.065509453 -0.0086392788 -0.032881659
-0.02611593 -0.059798401 0.050936799
-0.02611593 -0.059798401 0.050936799
0.052606355 -0.0036658333 -0.028548654
-0.02611593 -0.059798401 0.050936799
0.057514843 -0.0076107401 -0.032713316
0.059459221 -0.0025464087 -0.036659457
-0.02611593 -0.059798401 0.050936799
0.053529456 -0.013631539 -0.030746948
-0.02611593 -0.059798401 0.050936799
-0.02611593 -0.059798401 0.050936799
0.049550738 -0.0036007995 -0.031491268
-0.02611593 -0.059798401 0.050936799
0.052474383 -0.0085564442 -0.034636717
0.050486531 -0.0055497787 -0.034545083
-0.02611593 -0.059798401 0.050936799
0.044556767 -0.016634908 -0.028632566
-0.02611593 -0.059798401 0.050936799
-0.02611593 -0.059798401 0.050936799
0.04352919 -0.0045610038 -0.032396194
-0.02611593 -0.059798401 0.050936799
0.045449086 -0.010512894 -0.035540879
0.045446072 -0.006495486 -0.036468461
-0.02611593 -0.059798401 0.050936799
0.040501334 -0.016566286 -0.03155639
-0.02611593 -0.059798401 0.050936799
-0.02611593 -0.059798401 0.050936799
0.035571113 -0.0085858786 -0.029318966
-0.02611593 -0.059798401 0.050936799
0.039442327 -0.012491022 -0.035464171
0.039424524 -0.0074556945 -0.037373397
-0.02611593 -0.059798401 0.050936799
0.032528453 -0.019573241 -0.029460799
-0.02611593 -0.059798401 0.050936799
-0.02611593 -0.059798401 0.050936799
0.03054937 -0.0095496792 -0.030242693
-0.02611593 -0.059798401 0.050936799
0.030507082 -0.015530566 -0.031350471
0.033417769 -0.0094338227 -0.037296694
-0.02611593 -0.059798401 0.050936799
0.026525628 -0.020551542 -0.029366076
-0.02611593 -0.059798401 0.050936799
-0.02611593 -0.059798401 0.050936799
0.024561342 -0.011545893 -0.029166326
-0.02611593 -0.059798401 0.050936799
0.023519233 -0.017523196 -0.030255303
0.028396031 -0.010397616 -0.038220428
-0.02611593 -0.059798401 0.050936799
0.021503888 -0.021515336 -0.030289795
-0.02611593 -0.059798401 0.050936799
-0.02611593 -0.059798401 0.050936799
0.019554395 -0.013527606 -0.029108409
-0.02611593 -0.059798401 0.050936799
0.017549926 -0.019537495 -0.02817928
0.021441694 -0.013426249 -0.03514396
-0.02611593 -0.059798401 0.050936799
-0.02611593 -0.059798401 0.050936799
-0.02611593 -0.059798401 0.050936799
-0.02611593 -0.059798401 0.050936799
0.016517503 -0.013480661 -0.031051364
-0.02611593 -0.059798401 0.050936799
0.014513026 -0.019490551 -0.030122228
0.017404987 -0.013375715 -0.037068117
-0.02611593 -0.059798401 0.050936799
0.012464162 -0.022446688 -0.03213802
-0.02611593 -0.059798401 0.050936799
-0.02611593 -0.059798401 0.050936799
0.011551935 -0.014498729 -0.028976105
-0.02611593 -0.059798401 0.050936799
-0.02611593 -0.059798401 0.050936799
0.01336827 -0.013325181 -0.038992282
-0.02611593 -0.059798401 0.050936799
-0.02611593 -0.059798401 0.050936799
-0.02611593 -0.059798401 0.050936799
-0.02611593 -0.059798401 0.050936799
-0.02611593 -0.059798401 0.050936799
-0.02611593 -0.059798401 0.050936799
-0.02611593 -0.059798401 0.050936799
0.008383981 -0.01432516 -0.03791669
-0.02611593 -0.059798401 0.050936799
-0.02611593 -0.059798401 0.050936799
-0.02611593 -0.059798401 0.050936799
-0.02611593 -0.059798401 0.050936799
-0.02611593 -0.059798401 0.050936799
-0.02611593 -0.059798401 0.050936799
-0.02611593 -0.059798401 0.050936799
0.0043659909 -0.014292715 -0.038841188
-0.02611593 -0.059798401 0.050936799
-0.02611593 -0.059798401 0.050936799
-0.02611593 -0.059798401 0.050936799
-0.02611593 -0.059798401 0.050936799
-0.02611593 -0.059798401 0.050936799
-0.02611593 -0.059798401 0.050936799
-0.02611593 -0.059798401 0.050936799
-0.00060350262 -0.016310606 -0.036783941
-0.02611593 -0.059798401 0.050936799
-0.02611593 -0.059798401 0.050936799
-0.02611593 -0.059798401 0.050936799
-0.02611593 -0.059798401 0.050936799
-0.02611593 -0.059798401 0.050936799
-0.02611593 -0.059798401 0.050936799
-0.02611593 -0.059798401 0.050936799
-0.02611593 -0.059798401 0.050936799
-0.02611593 -0.059798401 0.050936799
-0.02611593 -0.059798401 0.050936799
-0.02611593 -0.059798401 0.050936799
-0.02611593 -0.059798401 0.050936799
-0.02611593 -0.059798401 0.050936799
-0.02611593 -0.059798401 0.050936799
-0.02611593 -0.059798401 0.050936799
-0.0086394874 -0.016245717 -0.038632944
-0.02611593 -0.059798401 0.050936799
-0.02611593 -0.059798401 0.050936799
-0.02611593 -0.059798401 0.050936799
-0.02611593 -0.059798401 0.050936799
-0.02611593 -0.059798401 0.050936799
-0.02611593 -0.059798401 0.050936799
-0.02611593 -0.059798401 0.050936799
-0.012657477 -0.016213274 -0.039557442
-0.02611593 -0.059798401 0.050936799
-0.02611593 -0.059798401 0.050936799
-0.02611593 -0.059798401 0.050936799
-0.02611593 -0.059798401 0.050936799
-0.02611593 -0.059798401 0.050936799
-0.02611593 -0.059798401 0.050936799
-0.02611593 -0.059798401 0.050936799
-0.02611593 -0.059798401 0.050936799
-0.02611593 -0.059798401 0.050936799
-0.02611593 -0.059798401 0.050936799
-0.02611593 -0.059798401 0.050936799
-0.02611593 -0.059798401 0.050936799
-0.02611593 -0.059798401 0.050936799
-0.02611593 -0.059798401 0.050936799
-0.02611593 -0.059798401 0.050936799
-0.02611593 -0.059798401 0.050936799
-0.02611593 -0.059798401 0.050936799
-0.02611593 -0.059798401 0.050936799
-0.02611593 -0.059798401 0.050936799
-0.02611593 -0.059798401 0.050936799
-0.02611593 -0.059798401 0.050936799
-0.02611593 -0.059798401 0.050936799
-0.02611593 -0.059798401 0.050936799
-0.02611593 -0.059798401 0.050936799
-0.02611593 -0.059798401 0.050936799
-0.02611593 -0.059798401 0.050936799
-0.02611593 -0.059798401 0.050936799
-0.02611593 -0.059798401 0.050936799
-0.02611593 -0.059798401 0.050936799
-0.02611593 -0.059798401 0.050936799
-0.02611593 -0.059798401 0.050936799
-0.02611593 -0.059798401 0.050936799
-0.02611593 -0.059798401 0.050936799
-0.02611593 -0.059798401 0.050936799
-0.02611593 -0.059798401 0.050936799
-0.02611593 -0.059798401 0.050936799
-0.02611593 -0.059798401 0.050936799
-0.02611593 -0.059798401 0.050936799
-0.02611593 -0.059798401 0.050936799
-0.02611593 -0.059798401 0.050936799
-0.02611593 -0.059798401 0.050936799
-0.02611593 -0.059798401 0.050936799
-0.02611593 -0.059798401 0.050936799
-0.02611593 -0.059798401 0.050936799
-0.02611593 -0.059798401 0.050936799
-0.02611593 -0.059798401 0.050936799
-0.02611593 -0.059798401 0.050936799
-0.02611593 -0.059798401 0.050936799
-0.02611593 -0.059798401 0.050936799
-0.02611593 -0.059798401 0.050936799
-0.02611593 -0.059798401 0.050936799
-0.02611593 -0.059798401 0.050936799
-0.02611593 -0.059798401 0.050936799
-0.02611593 -0.059798401 0.050936799
-0.02611593 -0.059798401 0.050936799
-0.02611593 -0.059798401 0.050936799
-0.02611593 -0.059798401 0.050936799
-0.02611593 -0.059798401 0.050936799
-0.02611593 -0.059798401 0.050936799
-0.02611593 -0.059798401 0.050936799
-0.02611593 -0.059798401 0.050936799
-0.02611593 -0.059798401 0.050936799
-0.02611593 -0.059798401 0.050936799
-0.044636827 -0.017116347 -0.037974503
-0.02611593 -0.059798401 0.050936799
-0.02611593 -0.059798401 0.050936799
-0.02611593 -0.059798401 0.050936799
-0.02611593 -0.059798401 0.050936799
-0.02611593 -0.059798401 0.050936799
-0.02611593 -0.059798401 0.050936799
-0.02611593 -0.059798401 0.050936799
-0.02611593 -0.059798401 0.050936799
-0.02611593 -0.059798401 0.050936799
-0.02611593 -0.059798401 0.050936799
-0.02611593 -0.059798401 0.050936799
-0.02611593 -0.059798401 0.050936799
-0.02611593 -0.059798401 0.050936799
-0.02611593 -0.059798401 0.050936799
-0.02611593 -0.059798401 0.050936799
-0.052616641 -0.017105725 -0.036824521
-0.02611593 -0.059798401 0.050936799
-0.02611593 -0.059798401 0.050936799
-0.02611593 -0.059798401 0.050936799
-0.02611593 -0.059798401 0.050936799
-0.02611593 -0.059798401 0.050936799
-0.02611593 -0.059798401 0.050936799
-0.02611593 -0.059798401 0.050936799
-0.057611793 -0.016087949 -0.03671255
-0.02611593 -0.059798401 0.050936799
-0.02611593 -0.059798401 0.050936799
-0.02611593 -0.059798401 0.050936799
-0.02611593 -0.059798401 0.050936799
-0.02611593 -0.059798401 0.050936799
-0.02611593 -0.059798401 0.050936799
-0.02611593 -0.059798401 0.050936799
-0.061611064 -0.016073594 -0.036637384
-0.02611593 -0.059798401 0.050936799
-0.02611593 -0.059798401 0.050936799
-0.02611593 -0.059798401 0.050936799
-0.02611593 -0.059798401 0.050936799
-0.02611593 -0.059798401 0.050936799
-0.02611593 -0.059798401 0.050936799
-0.02611593 -0.059798401 0.050936799
-0.065587677 -0.015077496 -0.035544541
-0.02611593 -0.059798401 0.050936799
-0.07252723 -0.01912405 -0.031486437
-0.02611593 -0.059798401 0.050936799
-0.02611593 -0.059798401 0.050936799
-0.02611593 -0.059798401 0.050936799
-0.02611593 -0.059798401 0.050936799
-0.070471421 -0.019185495 -0.028525032
-0.069549501 -0.015099319 -0.033470061
-0.02611593 -0.059798401 0.050936799
-0.07545571 -0.020185472 -0.02744944
-0.02611593 -0.059798401 0.050936799
-0.02611593 -0.059798401 0.050936799
-0.02611593 -0.059798401 0.050936799
-0.02611593 -0.059798401 0.050936799
-0.075485304 -0.018149633 -0.029412728
-0.073511332 -0.015121141 -0.031395573
-0.02611593 -0.059798401 0.050936799
-0.082484022 -0.018124511 -0.029281192
-0.02611593 -0.059798401 0.050936799
-0.02611593 -0.059798401 0.050936799
-0.02611593 -0.059798401 0.050936799
-0.02611593 -0.059798401 0.050936799
-0.08148028 -0.01712827 -0.029281963
-0.077477083 -0.016142795 -0.029339109
-0.02611593 -0.059798401 0.050936799
-0.087460458 -0.017124824 -0.028169554
-0.02611593 -0.059798401 0.050936799
-0.02611593 -0.059798401 0.050936799
-0.075473517 -0.015150141 -0.029358674
-0.02611593 -0.059798401 0.050936799
-0.084404834 -0.017189858 -0.025226947
-0.087586664 -0.010981132 -0.036058739
-0.02611593 -0.059798401 0.050936799
-0.0893704 -0.018207923 -0.023151688
-0.02611593 -0.059798401 0.050936799
-0.02611593 -0.059798401 0.050936799
-0.079435341 -0.015171964 -0.027284183
-0.02611593 -0.059798401 0.050936799
-0.092466481 -0.014089303 -0.029021215
-0.090529948 -0.011024632 -0.033003382
-0.02611593 -0.059798401 0.050936799
-0.099427752 -0.014100359 -0.026890356
-0.02611593 -0.059798401 0.050936799
-0.02611593 -0.059798401 0.050936799
-0.08441177 -0.014172282 -0.026172552
-0.02611593 -0.059798401 0.050936799
-0.098438807 -0.012086198 -0.027872767
-0.095472872 -0.011060955 -0.029910438
-0.02611593 -0.059798401 0.050936799
-0.10643735 -0.012057486 -0.027722441
-0.02611593 -0.059798401 0.050936799
-0.02611593 -0.059798401 0.050936799
-0.091454886 -0.0110934 -0.028985947
-0.02611593 -0.059798401 0.050936799
-0.10849616 -0.0079786293 -0.031611439
-0.1045156 -0.0079748956 -0.03268626
-0.02611593 -0.059798401 0.050936799
-0.11340556 -0.0090509644 -0.026537195
-0.02611593 -0.059798401 0.050936799
-0.02611593 -0.059798401 0.050936799
-0.097431138 -0.010090125 -0.027855523
-0.02611593 -0.059798401 0.050936799
-0.1154683 -0.0059719384 -0.030444201
-0.11253981 -0.0049105179 -0.034481201
-0.02611593 -0.059798401 0.050936799
-0.12442921 -0.0059758164 -0.028275765
-0.02611593 -0.059798401 0.050936799
-0.02611593 -0.059798401 0.050936799
-0.10035962 -0.011151546 -0.023818523
-0.02611593 -0.059798401 0.050936799
-0.11941139 -0.0060118502 -0.027370054
-0.1174788 -0.0039470103 -0.031370252
-0.02611593 -0.059798401 0.050936799
-0.13241595 -0.0029476169 -0.028071389
-0.02611593 -0.059798401 0.050936799
-0.02611593 -0.059798401 0.050936799
-0.11141679 -0.0070403917 -0.027538396
-0.02611593 -0.059798401 0.050936799
-0.12736464 -0.0040196553 -0.025184374
-0.12850246 -0.00087186566 -0.033108816
-0.02611593 -0.059798401 0.050936799
-0.14339823 0.0010911841 -0.027792618
-0.02611593 -0.059798401 0.050936799
-0.02611593 -0.059798401 0.050936799
-0.1163745 -0.0060587949 -0.025427107
-0.02611593 -0.059798401 0.050936799
-0.13735101 -0.00098427793 -0.024942413
-0.13543715 0.0010986509 -0.029942263
-0.02611593 -0.059798401 0.050936799
-0.15436178 0.0051118918 -0.026514184
-0.02611593 -0.059798401 0.050936799
-0.02611593 -0.059798401 0.050936799
-0.12942737 -0.00094063301 -0.029091373
-0.02611593 -0.059798401 0.050936799
-0.15642846 0.0071910797 -0.030439217
-0.14642334 0.0041376171 -0.029681507
-0.02611593 -0.059798401 0.050936799
-0.17236844 0.012211477 -0.028049141
-0.02611593 -0.059798401 0.050936799
-0.02611593 -0.059798401 0.050936799
-0.14142819 0.0031198419 -0.029793479
-0.02611593 -0.059798401 0.050936799
-0.16637348 0.011190114 -0.028179903
-0.15942006 0.0092015155 -0.030346807
-0.02611593 -0.059798401 0.050936799
-0.18331328 0.016214101 -0.025771052
-0.02611593 -0.059798401 0.050936799
-0.02611593 -0.059798401 0.050936799
-0.14936663 0.0040941164 -0.026626151
-0.02611593 -0.059798401 0.050936799
-0.18336551 0.017268198 -0.028752021
-0.17339785 0.014250906 -0.029993646
-0.02611593 -0.059798401 0.050936799
-0.2032782 0.024284516 -0.025251094
-0.02611593 -0.059798401 0.050936799
-0.02611593 -0.059798401 0.050936799
-0.15933035 0.0081112394 -0.025366515
-0.02611593 -0.059798401 0.050936799
-0.20131993 0.023313686 -0.027306013
-0.18534252 0.018257111 -0.027696751
-0.02611593 -0.059798401 0.050936799
-0.22927161 0.034412306 -0.026581671
-0.02611593 -0.059798401 0.050936799
-0.02611593 -0.059798401 0.050936799
-0.17229748 0.01113929 -0.024068523
-0.02611593 -0.059798401 0.050936799
-0.22027025 0.030362593 -0.025823213
-0.20732972 0.02535297 -0.028156899
-0.02611593 -0.059798401 0.050936799
-0.25620475 0.045489248 -0.024876475
-0.02611593 -0.059798401 0.050936799
-0.02611593 -0.059798401 0.050936799
-0.19128524 0.018224377 -0.024585031
-0.02611593 -0.059798401 0.050936799
-0.2482219 0.041461214 -0.025098871
-0.23230459 0.035459079 -0.028506618
-0.02611593 -0.059798401 0.050936799
-0.96170759 0.36368555 -0.21197513
-0.02611593 -0.059798401 0.050936799
-0.02611593 -0.059798401 0.050936799
-0.21727864 0.028352173 -0.025915619
-0.97836655 0.36843815 -0.19457136
-0.95996308 0.36091402 -0.22506237
-0.25321707 0.042478997 -0.0249869
-0.02611593 -0.059798401 0.050936799
-0.9889822 0.37011555 -0.17433542
-0.96958286 0.36158797 -0.20486319
-0.02611593 -0.059798401 0.050936799
-0.24926704 0.039501324 -0.027115434
-0.99957526 0.37277469 -0.15308177
-0.97818416 0.36224025 -0.18368319
-0.9658131 0.35577366 -0.21604276
-0.02611593 -0.059798401 0.050936799
-1.0141971 0.37748393 -0.13371626
-0.99181408 0.36494628 -0.16437252
-0.97743261 0.35645473 -0.19580606
-0.95304978 0.34390989 -0.22649987
-1.0248089 0.38016114 -0.1134623
-1.01045 0.37068784 -0.1459135
-0.98705238 0.35712868 -0.17560689
-0.96768355 0.34561974 -0.20718843
-1.0354019 0.38282022 -0.092208669
-1.0150411 0.36930799 -0.12384501
-1.0026779 0.36084172 -0.15624061
-0.97629273 0.34427232 -0.18604445
-1.0479867 0.38748619 -0.070881411
-1.0256342 0.37196711 -0.10259138
-1.0142787 0.36150476 -0.13500422
-0.98990786 0.34596041 -0.16575211
-1.0615712 0.39215571 -0.049535371
-1.0382268 0.3746334 -0.081300162
-1.0228612 0.36213893 -0.11282454
-0.99851298 0.34561285 -0.14459012
-1.0741373 0.39680356 -0.027208447
-1.0608168 0.38235277 -0.060730614
-1.0364536 0.36480883 -0.091514535
-1.0121132 0.34628305 -0.12331615
-1.0806977 0.39841226 -0.0040486678
-1.0663811 0.38295808 -0.03760764
-1.0410261 0.36341086 -0.06844639
-1.0267056 0.34895653 -0.10198736
-1.1022464 0.40709177 0.018519428
-1.0819466 0.38761672 -0.01522436
-1.0716214 0.37417656 -0.04867214
-1.0372878 0.34959784 -0.079770096
-1.106807 0.40869328 0.041641623
-1.098508 0.39327878 0.0071957409
-1.0791668 0.37477094 -0.024511926
-1.0508655 0.35124981 -0.057478458
-1.1243229 0.41632241 0.066115864
-1.1020354 0.3938407 0.032280445
-1.0857348 0.37437999 -0.0013881847
-1.0704302 0.35592279 -0.035019994
-1.1418576 0.42396957 0.089590445
-1.1245691 0.4015058 0.055848971
-1.094276 0.37597784 0.022808839
-1.0789753 0.35652077 -0.010841005
-0.02611593 -0.059798401 0.050936799
-1.1360979 0.40611392 0.080156423
-1.1177909 0.38362849 0.047395818
-1.0865018 0.35709709 0.014318869
-1.1678693 0.43516001 0.14029707
-1.1516035 0.4117181 0.10555671
-1.1283089 0.38621524 0.072648093
-1.1060292 0.36173388 0.03877664
-0.02611593 -0.059798401 0.050936799
-1.1601179 0.41529751 0.13078943
-1.1578108 0.39688691 0.097401887
-0.02611593 -0.059798401 0.050936799
-1.2137448 0.45633006 0.196558
-1.1845498 0.42487901 0.15942988
-1.1642963 0.39842328 0.12456031
-1.142047 0.3709605 0.089635126
-1.2012905 0.4528352 0.22126998
-1.192031 0.42741883 0.18662512
-1.1708004 0.39997771 0.15071908
-0.02611593 -0.059798401 0.050936799
-0.02611593 -0.059798401 0.050936799
-1.2274039 0.44200277 0.21756169
-1.2012085 0.41056255 0.18048996
-1.2069001 0.39218065 0.14725274
-1.2470684 0.47491461 0.28254724
-1.2467992 0.45153019 0.24810752
-1.2136436 0.41508374 0.20981449
-0.02611593 -0.059798401 0.050936799
-1.3072317 0.50344127 0.3222031
-1.2582159 0.45602974 0.27841291
-1.248979 0.42963156 0.24275038
-1.2397313 0.40121561 0.20805146
-1.3176031 0.50990069 0.35452509
-1.2676287 0.46152198 0.30869877
-1.2723213 0.43811923 0.27635235
-1.20732 0.38765079 0.23220745
-1.3448651 0.52434736 0.39130932
-1.3008895 0.47599024 0.34559575
-1.2886916 0.44460019 0.30878705
-1.2685069 0.410182 0.27177399
-1.4197884 0.56072748 0.44238746
-1.330155 0.48944432 0.3823995
-1.278181 0.44105834 0.3365356
-1.254005 0.40462607 0.29941136
-1.6088164 0.64786047 0.53253329
-1.3673059 0.50783575 0.42444199
-1.3124043 0.45549399 0.3754507
-0.02611593 -0.059798401 0.050936799
-1.5902176 0.64319962 0.56511176
-1.6814858 0.64279771 0.55180877
-1.3515438 0.47187492 0.41849437
-1.3433383 0.4374817 0.38270649
-1.5815598 0.64353764 0.5999676
-1.6767484 0.6440776 0.59075642
-1.7759588 0.64365011 0.58060277
-1.3496698 0.43987322 0.41788021
-1.5610175 0.63892382 0.62950957
-1.6640658 0.64136553 0.62748235
-1.7791187 0.64686775 0.62473512
-1.8883204 0.64345866 0.61571491
-1.5543368 0.6402508 0.66542065
-1.6553518 0.64164925 0.66533715
-1.7673609 0.64408708 0.66547847
-1.884437 0.6435976 0.6626606
-1.543698 0.64059967 0.69923925
-1.6426651 0.6399371 0.70208114
-1.7595532 0.64428395 0.70835036
-1.8815348 0.64372194 0.71062475
-1.5281056 0.63896722 0.73092854
-1.6289974 0.63823932 0.73780662
-1.7477915 0.64250296 0.74911177
-1.8686836 0.64084715 0.75634766
-1.5135131 0.63733822 0.7626366
-1.6153071 0.63752335 0.77454984
-1.7350299 0.64071846 0.78985435
-1.8518746 0.6369943 0.79997808
-1.5008748 0.63767999 0.79641759
-1.602598 0.63679296 0.81231147
-1.7222272 0.63989753 0.83261424
-1.8509079 0.63907129 0.85101485
-1.4852782 0.63704729 0.82812488
-1.5859534 0.63410276 0.84696293
-1.7104615 0.63911641 0.87339365
-1.840988 0.63915247 0.89984715
-1.4677049 0.63542563 0.85877693
-1.5752172 0.63536102 0.8857978
-1.6937046 0.63631767 0.91404313
-1.8251562 0.63628489 0.94451398
-1.4520898 0.63477486 0.8914839
-1.5546108 0.63269269 0.91837478
-1.6769587 0.63553667 0.95372897
-1.8112786 0.63538808 0.99125379
-1.4286003 0.63120443 0.91798854
-1.5329899 0.62900287 0.95191467
-1.660198 0.63373774 0.99439633
-1.7964013 0.63448769 1.0379747
-1.4149771 0.63256049 0.95076907
-1.5232456 0.63226438 0.99080431
-1.6394941 0.63197875 1.0319897
-1.7795242 0.63358003 1.0846581
-1.4003578 0.63291317 0.98351288
-1.5055748 0.6315521 1.0264728
-1.6187565 0.62918377 1.0715642
-1.7626472 0.63267243 1.1313416
-1.3798037 0.6312989 1.0131088
-1.4809916 0.62788767 1.0579569
-1.6009883 0.629381 1.112249
-1.7408124 0.63078314 1.1759138
-1.3562914 0.62871015 1.0406312
-1.4613626 0.62620461 1.0915704
-1.5802655 0.62760383 1.1508418
-1.7189777 0.62889397 1.2204859
-1.3357748 0.62713212 1.0682279
-1.4417068 0.62650317 1.1262195
-1.555585 0.62484878 1.1873424
-1.6981388 0.62800825 1.2650948
-1.3161979 0.62650317 1.0988604
-1.4161427 0.62285322 1.1566852
-1.5299236 0.62210822 1.2228245
-1.6723274 0.62512285 1.3085742
-1.2946775 0.62592131 1.1264563
-1.3974642 0.62413704 1.1923708
-1.5111325 0.62328351 1.2645079
-1.6484891 0.62422639 1.3531266
-1.2692071 0.62236178 1.1519237
-1.3689609 0.61953074 1.2197632
-1.4805359 0.61857957 1.2968608
-1.6177762 0.62041378 1.3914957
-1.2476867 0.62177992 1.1795195
-1.3463243 0.61983651 1.2533561
-1.4607412 0.6207512 1.3385438
-1.5879991 0.61855006 1.4329185
-1.2222123 0.6192202 1.2050048
-1.3227334 0.61817533 1.2848951
-1.4311218 0.61703259 1.3719331
-1.5651004 0.61860269 1.4805069
-1.2006921 0.61863834 1.2326007
-1.2951804 0.61653596 1.3143595
-1.4044338 0.61626995 1.4084321
-1.5314029 0.61579716 1.5178379
-1.1801074 0.62000549 1.2632505
-1.2706045 0.61588901 1.3448981
-1.3767873 0.6145401 1.4428949
-1.5016406 0.61495143 1.558279
-1.1536894 0.61749643 1.2857182
-1.2440101 0.61521691 1.3763987
-1.3461789 0.61283571 1.475302
-1.4698639 0.61308068 1.5996642
-1.1301653 0.61790723 1.3132944
-1.2164574 0.61357749 1.4058632
-1.3135748 0.61012423 1.5076535
-1.4293064 0.60837704 1.6298301
-1.103706 0.61636186 1.3377794
-1.1908776 0.61392683 1.4364008
-1.2829623 0.60941964 1.5400785
-1.3946052 0.60656774 1.6671603
-1.0792049 0.61578733 1.3643193
-1.1623023 0.61326557 1.4668642
-1.2513355 0.60769343 1.5734664
-1.3598439 0.60570407 1.7075075
-1.0537 0.61620903 1.3908583
-1.1337458 0.61262244 1.4963279
-1.2187234 0.60698164 1.605854
-1.3299987 0.60678571 1.7519834
-1.0262783 0.61469626 1.4133252
-1.1013101 0.61007375 1.5196824
-1.1870925 0.60625541 1.6392601
-1.2933125 0.60598719 1.7882943
-0.99592113 0.61122733 1.4327006
-1.0717912 0.60946316 1.5471281
-1.1564162 0.6074962 1.6747202
-1.2565664 0.60613424 1.8276224
-0.97137076 0.61361605 1.4612939
-1.0393368 0.6068964 1.5714822
-1.1189255 0.60487533 1.7009797
-1.2188803 0.6053322 1.8639146
-0.94005519 0.60917991 1.4786332
-1.0097725 0.60824937 1.6009631
-1.0882303 0.606098 1.7374395
-1.1762968 0.60260296 1.8950784
-0.90967137 0.60769254 1.4990444
-0.97533727 0.60569352 1.6242801
-1.0468376 0.60255349 1.7586075
-1.1346678 0.60184073 1.9282966
-0.88318151 0.60912859 1.5245831
-0.94189799 0.60414118 1.6476339
-1.0122035 0.60281616 1.7919751
-1.0901406 0.59915859 1.956424
-0.8518393 0.6066739 1.5429581
-0.91327351 0.60644323 1.6801506
-0.97658795 0.6030935 1.8243244
-1.0466095 0.59747988 1.9845881
-0.82434958 0.60810643 1.568478
-0.87497395 0.60299981 1.6963768
-0.93714976 0.60151958 1.8475653
-1.0049163 0.59866309 2.0208411
-0.79298472 0.60663354 1.5878706
-0.83957237 0.60147649 1.7176937
-0.89283252 0.59803653 1.8646784
-0.95652503 0.59509337 2.0418777
-0.76068014 0.60421151 1.6042275
-0.8012501 0.59901482 1.7349374
-0.85431516 0.59739363 1.8919549
-0.91197139 0.59439272 2.0710409
-0.73025107 0.60468763 1.6266739
-0.76774675 0.59940779 1.7613262
-0.81669241 0.5996635 1.9243025
-0.86161792 0.59085214 2.0900402
-0.69696546 0.60228014 1.6420126
-0.73134136 0.59888059 1.7826424
-0.770477 0.59426409 1.9363437
-0.81700027 0.59209687 2.1222382
-0.66363835 0.60083622 1.6593684
-0.69399637 0.5974043 1.8009226
-0.72809547 0.59273368 1.9565293
-0.77142411 0.59237444 2.1524003
-0.63124716 0.60134137 1.679778
-0.65567023 0.5959425 1.8181845
-0.68661225 0.59311604 1.9817681
-0.72196501 0.59174633 2.1764712
-0.5960781 0.5980354 1.6890628
-0.6183213 0.59546602 1.8364828
-0.64516646 0.59353453 2.0050075
-0.6716451 0.58924168 2.1934896
-0.56366414 0.59952223 1.7104901
-0.57805562 0.59305149 1.85069
-0.59892058 0.59111661 2.0181024
-0.621261 0.58868235 2.2135427
-0.52933729 0.59807479 1.7278271
-0.53970683 0.59257144 1.8689696
-0.55549395 0.59154606 2.0403047
-0.56525743 0.58244622 2.2143819
-0.49506274 0.59768146 1.7421831
-0.49943724 0.5911566 1.8831948
-0.50928551 0.5891642 2.0514002
-0.50201386 0.56487077 2.1768672
-0.45977348 0.59626657 1.7575021
-0.45922774 0.58879644 1.894403
-0.4630397 0.58674616 2.0644951
-0.43800297 0.5455091 2.1273015
-0.42449903 0.59586966 1.7718393
-0.41889808 0.58832723 1.9116453
-0.41764694 0.5882045 2.0846782
-0.37982941 0.52902395 2.0859003
-0.38826618 0.59450543 1.7841403
-0.37956429 0.58886147 1.9289244
-0.36873955 0.58108407 2.0806324
-0.32363683 0.51252764 2.045536
-0.35205203 0.59315938 1.7954419
-0.33828703 0.58944279 1.9431669
-0.31546754 0.56552619 2.0443413
-0.2729584 0.50461733 2.0294387
-0.31581521 0.59279495 1.807761
-0.29605526 0.5880571 1.9553553
-0.26751077 0.56137264 2.0423677
-0.23160709 0.52022278 2.0979702
-0.27855986 0.59240896 1.821061
-0.25571769 0.58958763 1.9726336
-0.22719671 0.57701778 2.1089184
-0.18631268 0.53586811 2.1634274
-0.24130452 0.5920229 1.834361
-0.21172273 0.58541226 1.9727345
-0.18153697 0.5842399 2.1422055
-0.13979679 0.55531007 2.2399337
-0.20316564 0.59074193 1.8416263
-0.16934419 0.58789927 1.9919925
-0.132539 0.58104646 2.1422305
-0.089202806 0.5756653 2.3203821
-0.16572607 0.59419245 1.8639952
-0.12624364 0.58663654 1.9971645
-0.084398001 0.58072948 2.1493258
-0.034141913 0.57439572 2.3233292
-0.12666616 0.59198052 1.8672251
-0.082244754 0.58346105 1.9972832
-0.035339929 0.57848161 2.1523676
0.019002095 0.57506061 2.3303485
-0.087527454 0.59069598 1.8744714
-0.039024025 0.58408958 2.0084894
0.013643254 0.5763061 2.1514108
0.073867917 0.57197225 2.3232634
-0.048430108 0.58844781 1.8797005
0.0051364303 0.58376884 2.0166595
0.06163054 0.57513398 2.1504908
0.12891401 0.57172066 2.3252287
-0.0092460886 0.58912671 1.8889824
0.048120707 0.58161485 2.0158155
0.11083538 0.57675886 2.1606023
