# .PCD v0.7 - Point Cloud Data file format
VERSION 0.7
FIELDS x y z
SIZE 4 4 4
TYPE F F F
COUNT 1 1 1
WIDTH 1390
HEIGHT 1
VIEWPOINT 0 0 0 1 0 0 0
POINTS 1390
DATA ascii
-0.98991913 0.078966044 -0.1685825
-0.98443061 0.073415861 -0.19479457
-0.96689594 0.065768667 -0.21826914
-0.24334498 -0.032706946 -0.017529238
-1.0035156 0.080636084 -0.14729053
-0.99405438 0.073089972 -0.17461345
-0.9755199 0.065439187 -0.1981068
-0.02611593 -0.059798401 0.050936799
-1.0221484 0.082360238 -0.12790391
-0.99862278 0.072691858 -0.15152729
-0.98916161 0.065145738 -0.17885017
-0.97968554 0.056581695 -0.20519143
-1.0277317 0.08298365 -0.10578062
-1.0262877 0.075484328 -0.13395286
-1.0037844 0.064837791 -0.1585751
-0.98629892 0.054227289 -0.18410304
-1.0373139 0.083621405 -0.083582148
-1.0328743 0.075111486 -0.11182877
-1.0204029 0.065536849 -0.13824442
-1.0009217 0.053919341 -0.16382799
-1.058905 0.086319983 -0.062121823
-1.0334249 0.074680939 -0.087818116
-1.0249753 0.064138919 -0.11517629
-1.0175629 0.053636659 -0.14451498
-1.0814958 0.089022152 -0.040642686
-1.0510246 0.075365491 -0.066468984
-1.0375797 0.063805707 -0.093939111
-1.0301713 0.052303605 -0.12329583
-1.0900369 0.090619959 -0.016445674
-1.0786332 0.078103699 -0.045895569
-1.0451663 0.063436456 -0.071796246
-1.0357435 0.05090927 -0.10020892
-1.103596 0.092253819 0.0068456382
-1.0951915 0.079748325 -0.022547893
-1.0737787 0.065178417 -0.051222064
-1.0483332 0.049558137 -0.077990107
-1.1141367 0.093858838 0.031080235
-1.110754 0.080389522 0.00076299161
-1.0863271 0.064790934 -0.026985928
-1.0629371 0.049232099 -0.056715362
-1.1336719 0.096495949 0.055501971
-1.126294 0.082012475 0.02509154
-1.1099029 0.066478759 -0.0045063719
-1.0855211 0.048916686 -0.034290642
-1.1402173 0.097086772 0.079643384
-1.1448145 0.083628096 0.050476119
-1.113438 0.065041058 0.020542305
-1.1030872 0.048565239 -0.010960206
-1.1587152 0.099684142 0.10604565
-1.1533637 0.083226256 0.0746371
-1.1359767 0.066689126 0.045002386
-1.1126212 0.04714907 0.014201209
-1.1632239 0.1002316 0.13214882
-1.1658667 0.084802255 0.10090861
-1.1525015 0.067297742 0.070331372
-1.1291689 0.046775941 0.038512517
-1.1777037 0.10279651 0.15947556
-1.1773549 0.08535675 0.12814295
-1.1630127 0.066866912 0.096529253
-1.1426795 0.046355873 0.064766772
-0.02611593 -0.059798401 0.050936799
-1.1938384 0.086929008 0.15548928
-1.1705245 0.066425309 0.12267077
-1.1662071 0.045989778 0.090209275
-1.2076298 0.10689394 0.2161292
-1.2013088 0.087451056 0.18364814
-1.1999869 0.06802614 0.15126103
-1.1747038 0.044533852 0.11735122
-1.225049 0.11041518 0.24652934
-1.2038027 0.086973414 0.21069537
-1.2044617 0.067537591 0.17934549
-1.1881957 0.044095691 0.14460513
-0.02611593 -0.059798401 0.050936799
-1.2032973 0.086485013 0.2376862
-1.2039602 0.066049352 0.20631832
-0.02611593 -0.059798401 0.050936799
-0.02611593 -0.059798401 0.050936799
-1.2336581 0.08999867 0.27132958
-1.2273715 0.066574566 0.2377768
-1.2370594 0.044189617 0.20554234
-0.02611593 -0.059798401 0.050936799
-1.2610233 0.092501685 0.30489862
-1.2338272 0.066075101 0.26689851
-0.02611593 -0.059798401 0.050936799
-1.2975652 0.12234849 0.37714717
-1.2963043 0.096960753 0.34265259
-0.02611593 -0.059798401 0.050936799
-1.2300049 0.040137514 0.26235622
-0.02611593 -0.059798401 0.050936799
-1.3056808 0.09739954 0.37584737
-0.02611593 -0.059798401 0.050936799
-0.02611593 -0.059798401 0.050936799
-3.1143711 0.38742948 0.99316645
-1.3687537 0.1057775 0.42419621
-1.2909057 0.069458984 0.36906302
-0.02611593 -0.059798401 0.050936799
-3.0930641 0.38609147 1.0627669
-3.1097701 0.31954974 0.98484969
-1.368909 0.075818792 0.42165631
-0.02611593 -0.059798401 0.050936799
-3.1621239 0.39853501 1.1643194
-3.0914478 0.31720456 1.0554881
-3.1150963 0.25063369 0.98070133
-1.3332816 0.039912786 0.40833527
-3.2311277 0.41092426 1.2688709
-3.1565614 0.3256706 1.1548941
-3.0838442 0.24529663 1.0480425
-3.1194727 0.17373347 0.97539043
-3.2861376 0.42226344 1.3731413
-3.2205667 0.33302468 1.2602611
-3.1538939 0.25070873 1.151487
-3.0901871 0.16736759 1.0447505
-3.3697896 0.43738043 1.4960227
-3.2894702 0.3423059 1.3707565
-3.2238541 0.25503063 1.2599117
-3.1493185 0.16679554 1.1448812
-3.4454432 0.45246869 1.6187536
-3.3671613 0.3524203 1.4924353
-3.2877774 0.25929478 1.3702232
-3.2331526 0.16904135 1.2605306
-5.0851107 0.70290518 2.5092845
-3.4556599 0.3633931 1.6243355
-3.3724272 0.26538068 1.4949603
-3.2970545 0.16926998 1.3727692
-4.9389191 0.68715709 2.5742846
-4.8180785 0.53313589 2.3811705
-3.4589231 0.27232888 1.6277504
-3.375725 0.17033523 1.4973036
-4.812604 0.67337185 2.6456945
-4.7016826 0.5203141 2.4567852
-4.8035665 0.40006852 2.3804917
-3.4612217 0.17226261 1.6309845
-3.4728603 0.47237217 2.0187626
-4.5813994 0.50758648 2.5263262
-4.6881323 0.38721415 2.4581244
-4.8019977 0.25695908 2.3848751
-4.6729226 0.66428494 2.8419814
-3.4661686 0.37027398 2.0217915
-4.5786977 0.3743813 2.5358694
-4.6676683 0.24212724 2.4571161
-4.5655541 0.65353125 2.9158018
-3.3446054 0.35622689 2.053272
-3.4544671 0.26614004 2.0256901
-4.5829406 0.23111242 2.5503621
-3.1579087 0.43719217 2.1262658
-3.2379525 0.34516075 2.089087
-4.6535406 0.37877324 2.8634613
-3.4556031 0.15487307 2.0397031
-4.345006 0.63218331 3.0533328
-3.154063 0.33595982 2.1373665
-3.5502002 0.2724719 2.3056917
-4.6458092 0.22444512 2.8785298
-2.6077509 0.35852778 1.9314764
-3.2133083 0.34557545 2.2826989
-4.4238515 0.35524866 3.0087848
-3.4495192 0.14690506 2.2585192
-2.5794785 0.35820067 1.9989641
-2.6018729 0.27030417 1.9417739
-4.3154879 0.34349155 3.0825682
-4.4071226 0.20088817 3.0236843
-2.4566722 0.3428703 1.9903846
-2.7804942 0.29586786 2.1716588
-2.5958824 0.18197197 1.9580694
-3.2557073 0.12837365 2.3565886
-2.4107296 0.34078643 2.0405037
-4.0253954 0.45989907 3.2753077
-2.7459307 0.19579542 2.1671999
-2.6027451 0.087524667 1.9834982
-2.3617914 0.33769199 2.0905485
-3.9162855 0.45039135 3.3351133
-3.9936376 0.31348345 3.2900696
-2.7251146 0.092520513 2.1769452
-1.8863951 0.26096338 1.749144
-2.3478856 0.24740377 2.102659
-2.4015465 0.16293404 2.0841293
-3.9579008 0.15703705 3.3055758
-1.8368579 0.25624552 1.7781411
-1.8705053 0.18573779 1.7574887
-1.9022051 0.11627699 1.7338177
-2.4023125 0.069374591 2.1144617
-1.8766235 0.26829556 1.8951433
-1.8209455 0.18200168 1.7875034
-1.8535705 0.11247211 1.7678499
-1.8892251 0.039971933 1.7471988
-2.0201714 0.29967833 2.1274774
-1.9440502 0.20179959 1.9922357
-1.8530645 0.11302824 1.8478774
-1.8307273 0.035257965 1.7740276
-2.2329624 0.34468541 2.4513853
-2.1237044 0.22944741 2.2731946
-2.0201764 0.13002926 2.1064014
-1.9214327 0.037446972 1.9498248
-3.2898259 0.54928601 3.7603171
-3.3380876 0.40314904 3.7215643
-2.2369113 0.15091005 2.4379494
-2.1187801 0.04680068 2.2507908
-3.1937811 0.541897 3.8164043
-3.2488275 0.39758581 3.7888153
-3.29704 0.25441206 3.7521155
-3.3492522 0.10623544 3.7164006
-3.1026525 0.53645313 3.8766203
-3.1487873 0.38918248 3.8448091
-3.1988828 0.2469072 3.8141632
-3.2500057 0.097636774 3.7834096
-3.0135236 0.53101641 3.9368737
-3.0576024 0.3836844 3.9080238
-3.1036694 0.23935898 3.8792658
-3.15277 0.091063038 3.8494925
-2.9204743 0.524638 3.9930348
-2.9664216 0.37718642 3.9712207
-3.0104702 0.23283575 3.9434247
-3.0477452 0.083659738 3.9044108
-2.8353031 0.52017927 4.0553808
-2.8733163 0.37075365 4.0303812
-2.9094594 0.2264647 3.9974365
-2.9543962 0.076991804 3.9765673
-2.7452116 0.51477528 4.113616
-2.7763195 0.36541492 4.0834866
-2.8171668 0.21985464 4.0666127
-2.8522923 0.070526741 4.0355582
-2.6541202 0.50936759 4.1718321
-2.6909988 0.36081153 4.1538301
-2.7220199 0.21437839 4.1277528
-2.7521358 0.063014768 4.0975685
-2.5650063 0.50494885 4.2311039
-2.5939124 0.35438251 4.2119155
-2.6238966 0.20790958 4.187819
-2.657783 0.057343066 4.1697235
-2.4729717 0.49959183 4.2863026
-2.4969387 0.34806204 4.2640033
-2.5287349 0.20141536 4.2499409
-2.5595994 0.051819853 4.2328072
-2.3838198 0.49513692 4.3475742
-2.4086707 0.344502 4.3313093
-2.4345095 0.19687012 4.3151164
-2.4594202 0.045289613 4.295835
-2.2946641 0.49168181 4.4088631
-2.317482 0.34000373 4.3945413
-2.3354385 0.19145185 4.3721828
-2.3602743 0.039798975 4.3568993
-2.2045276 0.48824126 4.4691339
-2.2194667 0.33464327 4.4486279
-2.2431562 0.18685952 4.4403954
-2.2648845 0.034087516 4.4310355
-2.1115077 0.48389858 4.5233316
-2.1272221 0.33008718 4.5148406
-2.1459162 0.18128559 4.5064964
-2.1608291 0.02966921 4.4870267
-2.0212774 0.48036751 4.5886002
-2.0320902 0.32562876 4.5749993
-2.0458269 0.17584562 4.5645437
-2.058609 0.024095438 4.5520339
-1.9233559 0.47509757 4.6376886
-1.9369172 0.32213402 4.6371756
-1.9504478 0.17215194 4.6377163
-1.9602342 0.019391157 4.6251316
-0.97060156 0.21814567 2.4824719
-0.97391903 0.13717023 2.4810688
-0.98305523 0.059052974 2.4888296
-0.99787605 -0.020350058 2.513679
-0.88963711 0.20679407 2.4287326
-0.89194316 0.12881452 2.4273646
-0.89612865 0.052733246 2.4320683
-0.91850549 -0.024057643 2.4801147
-0.81367201 0.19546038 2.375087
-0.81206447 0.11955658 2.3686819
-0.81427592 0.046503812 2.3714025
-0.82498413 -0.028004879 2.4012656
-0.73597318 0.18337296 2.3073907
-0.73797083 0.11212085 2.3211439
-0.7420243 0.04093023 2.3319359
-0.74311972 -0.031234819 2.3406539
-0.67069459 0.17478885 2.2700007
-0.66512436 0.10392407 2.2606113
-0.67552036 0.037142683 2.3056133
-1.3974378 -0.0044468716 4.8262315
-0.60564464 0.16542193 2.2205966
-0.59708583 0.096564159 2.2101872
-0.63717508 0.036707319 2.3769114
-1.315307 -0.0077693537 4.9926901
-0.54441768 0.15790626 2.1803007
-0.53766328 0.090874441 2.1799614
-0.5291301 0.025052335 2.1676071
-1.2123075 -0.011085279 5.0987372
-0.48711497 0.15033258 2.1440783
-0.47837192 0.085311309 2.1427381
-0.46984959 0.02150698 2.1294198
-1.1027435 -0.015010126 5.181643
-0.43090963 0.14185309 2.1028588
-0.42030886 0.078969032 2.0935199
-0.46336949 0.028210826 2.3665001
-0.98742032 -0.017721497 5.2514586
-0.37948567 0.13619208 2.0727832
-0.36601651 0.073423877 2.0563903
-0.40293929 0.02451716 2.3362918
-1.5037409 0.0087409914 9.2789698
-0.32915905 0.12962526 2.0377104
-0.31549481 0.068675846 2.0313501
-0.34090656 0.020196371 2.2850349
-1.2131004 -0.0013699979 8.8331928
-0.2825056 0.12476494 2.019743
-0.27136093 0.066373557 2.0384846
-0.27745858 0.015429318 2.2027328
-0.95530361 -0.010462776 8.4490728
-0.24260616 0.12575637 2.06703
-0.23036812 0.067270935 2.0907509
-0.2239296 0.012670163 2.1776721
-0.71549571 -0.017491281 8.0653257
-0.20345926 0.12751606 2.1273494
-0.18822175 0.069019847 2.1510139
-0.17638046 0.010958984 2.2067606
-0.49955606 -0.024515554 7.7420459
-0.16127154 0.13022861 2.1896296
-0.1439634 0.070653036 2.2172372
-0.37235859 0.18143837 7.5523257
-0.30256754 -0.029508188 7.4211588
-0.28840244 0.49342948 6.3719969
-0.25989503 0.37314099 7.3796296
-0.18978484 0.1669042 7.2645473
-0.11976731 -0.034224965 7.1435566
-0.14986695 0.48737431 6.4003034
-0.088807553 0.35012668 7.1209221
-0.020680368 0.15291356 7.0050402
0.049488768 -0.038325816 6.8902278
-0.010683082 0.48370358 6.4626527
0.067511261 0.32794887 6.8745108
0.13686478 0.14054966 6.7687864
0.20599455 -0.041615337 6.6501565
0.13305478 0.48249346 6.5539703
0.2131996 0.30846643 6.6473536
0.28341588 0.129225 6.5327578
0.35370791 -0.045071535 6.4212513
0.27670833 0.47224963 6.5360894
0.35336497 0.29055291 6.4453368
0.42257148 0.11835007 6.328887
0.4929511 -0.048002079 6.2205234
0.40728649 0.44895688 6.3571625
0.48353606 0.27367511 6.243526
0.55183035 0.10942023 6.1302376
0.62106532 -0.05076655 6.0130038
0.53064126 0.42590621 6.1663713
0.60597473 0.25757265 6.0558786
0.6731469 0.10046484 5.9347382
0.73924524 -0.051549725 5.8087082
0.64513278 0.40376109 5.9827652
0.72144121 0.24347685 5.8693986
0.78776813 0.092244975 5.7553825
0.85834259 -0.053219263 5.6533957
0.75491375 0.38336223 5.8142834
0.829059 0.22926503 5.6910663
-0.02611593 -0.059798401 0.050936799
-0.02611593 -0.059798401 0.050936799
-0.02611593 -0.059798401 0.050936799
-0.02611593 -0.059798401 0.050936799
1.0038489 0.078059085 5.4409738
1.0690743 -0.056009222 5.3182855
0.17853191 0.023977796 1.1850051
1.03757 0.20465732 5.401619
0.26872051 -0.025556032 1.4164989
0.28281268 -0.05986226 1.3746004
1.0561736 0.32941821 5.3565121
0.27238831 0.0048586577 1.3929724
0.29623947 -0.027203957 1.3909452
1.2657152 -0.057613958 5.0314775
0.27743816 0.036907621 1.3894565
1.2220409 0.18318948 5.1096783
1.2874967 0.059938386 4.9971852
1.3519162 -0.058255687 4.8818016
1.2339288 0.29866952 5.0815349
1.3063526 0.17241195 4.9678564
1.3719071 0.05508747 4.8594699
1.4406825 -0.058447432 4.7620955
1.3195843 0.28454518 4.9586344
1.3888187 0.16249666 4.8340878
1.4586954 0.050867386 4.7417293
1.5242811 -0.058458421 4.6334867
1.3981287 0.27055454 4.8298664
1.4716856 0.15420115 4.7213478
1.5372753 0.045875192 4.6131234
-0.02611593 -0.059798401 0.050936799
1.4800326 0.25720924 4.7200551
1.5483478 0.14612621 4.5977249
-0.02611593 -0.059798401 0.050936799
0.44447589 -0.059225719 1.2485423
1.5537357 0.24509147 4.5994148
-0.02611593 -0.059798401 0.050936799
0.446484 -0.033146869 1.2439749
1.7546316 -0.056940969 4.2770805
-0.02611593 -0.059798401 0.050936799
0.43490237 -0.0094600972 1.2086083
1.7618004 0.034199312 4.2685924
1.8234015 -0.057060935 4.1577501
0.40770856 0.010860037 1.1414622
1.7702087 0.12410101 4.2730627
1.8297313 0.031920478 4.1582413
1.8914002 -0.056394543 4.0504532
0.49433494 0.018042488 1.2790169
1.8309901 0.11697478 4.155756
1.8998636 0.028435662 4.0588317
1.9604962 -0.05482237 3.948153
1.8253694 0.19892813 4.1603451
1.8991296 0.11047957 4.0573292
1.9639074 0.026062638 3.9545546
2.0266261 -0.054275431 3.8478911
1.8894979 0.18944778 4.0619397
1.9601582 0.104118 3.9530361
2.0249329 0.023718476 3.849334
2.0877197 -0.053674363 3.7457235
1.9515857 0.17901093 3.9615541
2.0223029 0.09864413 3.8547404
2.0923133 0.02100911 3.7629943
2.1581941 -0.051467717 3.6634159
2.0127709 0.16948706 3.8662043
2.0876532 0.092960536 3.7673845
2.151474 0.019545324 3.6648266
2.2184 -0.050971609 3.567265
2.0741327 0.16180004 3.779887
2.1489663 0.087327458 3.6781044
2.2076693 0.017056316 3.568697
2.2745922 -0.049443215 3.4702077
2.1386211 0.15297583 3.7004931
2.205266 0.082730241 3.5879364
2.270133 0.016292162 3.486486
2.3350122 -0.047146417 3.3850894
2.190793 0.14450221 3.6043303
2.2626028 0.078093283 3.4997492
2.3264444 0.014694449 3.3963721
2.3893168 -0.045719378 3.2940674
2.2471745 0.13681507 3.5191069
2.3179398 0.07346347 3.4115994
2.3777194 0.013150856 3.304353
2.4446776 -0.044350199 3.2060258
2.2995002 0.12919654 3.4309595
2.3723373 0.069782816 3.3264856
2.4382772 0.012303449 3.2271776
2.5021539 -0.042096898 3.1239624
2.354938 0.1214587 3.3487537
2.4257312 0.06510593 3.2413723
2.4906449 0.010665819 3.1401381
2.554534 -0.040735044 3.0369773
2.409436 0.11467004 3.2695837
2.4771476 0.061417967 3.1573145
2.5430923 0.0099556632 3.0571153
2.6110671 -0.038532421 2.9579315
2.4628928 0.10692129 3.1884153
2.5337322 0.057549246 3.0821595
2.5986321 0.0091442913 2.9790339
2.6625447 -0.036257595 2.8759813
2.5113583 0.10119017 3.1073763
2.5852649 0.054752577 3.004118
2.6522143 0.0093037374 2.9030082
2.7161195 -0.033080563 2.7990098
2.5639315 0.094336316 3.032243
2.6347194 0.051035594 2.922097
2.699662 0.0086115226 2.8200791
2.7686346 -0.030845495 2.7190397
2.6144717 0.088525653 2.9551654
2.6842487 0.047246274 2.8440747
2.7481284 0.007897649 2.7381308
2.813076 -0.028509356 2.6352215
2.664989 0.081733242 2.8770702
2.739912 0.044308618 2.7729552
2.7976923 0.0080895424 2.6611803
2.8615727 -0.026241846 2.5543272
2.7166038 0.075846627 2.8039725
2.7863898 0.041584153 2.6920083
2.8421597 0.0073900037 2.5793073
2.9609113 -0.022968134 2.5175138
2.7570145 0.070198476 2.7200851
2.8288682 0.038874052 2.6111364
2.9059455 0.0073146001 2.5140898
3.0145233 -0.019827276 2.4425416
2.8066297 0.064319052 2.6470253
2.875421 0.03607722 2.5341883
2.9931469 0.00875834 2.4704683
3.0569654 -0.017483965 2.3587611
2.852212 0.059489973 2.5720592
2.9819291 0.035145607 2.5071681
3.0396736 0.0089971982 2.3915746
3.1207299 -0.013523884 2.291616
2.9252241 0.055147812 2.5195956
3.0213706 0.032482445 2.4243536
3.0902374 0.0091855079 2.3146052
3.1672456 -0.011267276 2.2117591
2.9941204 0.049928676 2.4611917
3.0760381 0.030548211 2.3532708
3.138824 0.010362741 2.2386913
3.2147841 -0.0080325343 2.1329007
3.0437396 0.04504906 2.3881497
3.1246133 0.028725959 2.2773027
3.187407 0.010540139 2.1627593
3.2643638 -0.0038413182 2.0560222
3.0913403 0.040194727 2.3141456
3.1701658 0.025932726 2.2003732
3.24103 0.011663254 2.0887504
4.7003074 0.023498725 2.7788768
3.1409407 0.035333212 2.240104
3.2258556 0.024976637 2.1302896
4.6561618 0.042915184 2.821069
4.7712693 0.029207762 2.6686141
3.186523 0.030504152 2.1651378
3.2663345 0.022273704 2.0494554
4.7372928 0.044408116 2.7205429
4.6473098 0.030473813 2.4588869
3.2341237 0.025649812 2.0911336
4.696239 0.053688861 2.769496
4.803236 0.045135941 2.6102841
4.6336012 0.034136038 2.3141606
4.6483412 0.054815229 2.8284333
4.7703032 0.052261718 2.6660483
4.5985374 0.041395612 2.3629649
4.7107487 0.039642651 2.2137818
4.7355571 0.049179275 2.7336662
4.6514053 0.045420732 2.461081
4.6646338 0.042978559 2.2607217
5.0631695 0.051960934 2.230412
4.8025279 0.042850446 2.6262617
4.6275964 0.042192403 2.3124182
4.9828734 0.050582509 2.2689037
5.1280389 0.057781942 2.1152637
4.5897813 0.031158272 2.377949
4.7088275 0.040577319 2.2178361
5.0890789 0.0529132 2.1719244
13.498409 0.26113814 5.1012387
4.6488099 0.024803884 2.2736936
5.0552378 0.044900384 2.2354345
5.154974 0.055694953 2.0587027
13.690915 0.27774364 4.803834
5.0074258 0.024867497 2.3029904
5.1140389 0.042780463 2.1182556
13.60593 0.24706146 4.9709272
13.892504 0.2962442 4.5102949
5.0803776 0.01853523 2.194473
13.501787 0.20455803 5.1321626
13.801419 0.25463966 4.6743031
14.094976 0.31484967 4.2107387
5.1432419 0.0133291 2.0811634
13.692348 0.20104752 4.8414326
13.993908 0.2622287 4.3777356
14.276191 0.33278394 3.8975646
13.571605 0.11606959 5.0322208
13.878757 0.19769609 4.5427804
14.197344 0.27083224 4.077981
14.474506 0.35356623 3.589123
13.767101 0.10156108 4.7401991
14.081243 0.19521467 4.2478447
14.394589 0.27863845 3.7683244
14.558186 0.37037358 3.2487447
13.953547 0.088138983 4.4453659
14.270642 0.19387025 3.9481728
14.570772 0.28859204 3.4550998
13.999379 0.36790583 2.7860057
14.151032 0.075641043 4.1523428
14.473866 0.1916385 3.6392231
14.404382 0.29030886 3.0631135
13.270469 0.3601577 2.3203549
14.348327 0.062324166 3.8493056
14.577598 0.18925068 3.3051243
13.630927 0.27622637 2.5701723
12.610503 0.35224292 1.9044271
14.546447 0.048166715 3.5372341
14.063853 0.1755147 2.8473392
12.961514 0.26376069 2.1313314
12.049435 0.34710732 1.5347135
14.530627 0.033714645 3.1771467
13.361928 0.16065285 2.3820546
12.349967 0.25425771 1.7374759
11.524922 0.34129995 1.1943134
13.754006 0.015788306 2.6761932
12.697863 0.14582585 1.9620771
11.807128 0.24582295 1.3803657
6.1055007 0.15980788 0.51426601
13.091468 0.00040656701 2.2311685
12.109603 0.13395123 1.583748
11.304939 0.23761135 1.0575101
5.9866347 0.16201007 0.36247987
12.473734 -0.013911229 1.8283386
11.580015 0.12321691 1.2403526
6.0119705 0.1014145 0.44493735
6.0190492 0.17039783 0.22297741
11.900675 -0.027038511 1.4607058
6.1254811 0.036304787 0.53666544
6.0443516 0.10582102 0.30436316
3.0761909 0.061747178 0.067057401
11.391332 -0.037079945 1.1299484
5.9785604 0.032644674 0.38329801
6.0436926 0.10838248 0.16237372
3.0968544 0.066969939 -0.0052595139
6.0561109 -0.05244096 0.48134023
6.0159235 0.03303393 0.24255781
3.0994728 0.028227588 0.035004307
3.130497 0.072164156 -0.078820363
6.0193524 -0.057676576 0.33588439
6.0862999 0.033286661 0.10219719
3.1331074 0.031422131 -0.038592588
2.8453827 0.063270614 -0.13366172
6.0266647 -0.062142625 0.19361851
3.8717008 -0.0010355625 -0.0079977987
3.2596433 0.03737285 -0.11888124
2.7512496 0.062708162 -0.19292958
3.8855784 -0.064157017 0.050620444
3.654088 -0.0046855854 -0.091017663
3.4360054 0.044306748 -0.20908836
2.7809868 0.067826279 -0.26141697
6.1962271 -0.070595011 -0.095807165
3.5106006 -0.0067281583 -0.16839436
3.3266466 0.043015361 -0.28008834
2.8585954 0.075898245 -0.3377499
3.6172965 -0.069020748 -0.12050258
3.8505731 -0.0010389737 -0.28069469
3.2194037 0.042608097 -0.34510988
2.382581 0.056628235 -0.3301836
-0.02611593 -0.059798401 0.050936799
3.7430227 -0.0031564799 -0.36174685
1.9360988 0.0026534083 -0.23476827
2.4164112 0.061641555 -0.39374787
-0.02611593 -0.059798401 0.050936799
3.7702949 -0.0015963642 -0.45426059
3.0380201 0.040566761 -0.46979305
2.4412427 0.066687174 -0.45714295
3.8039758 -0.075643018 -0.40421367
1.9345573 -0.029939426 -0.25733665
2.9499464 0.040928327 -0.5261566
2.6672151 0.081838228 -0.57013804
1.9329515 -0.068450369 -0.22899358
4.103785 0.0034954371 -0.69849509
2.8709042 0.040221598 -0.58070803
2.8352652 0.095125414 -0.67808062
4.1753554 -0.082631283 -0.65237743
3.4353282 -0.0065537654 -0.66114891
2.8118064 0.040497173 -0.6386162
2.8299856 0.099387407 -0.74692804
3.455899 -0.080445223 -0.61685568
3.4426978 -0.0050123148 -0.74828857
2.8612733 0.044796932 -0.72149271
2.5481589 0.088238716 -0.73284835
4.0121031 -0.084908545 -0.82342005
3.4769084 -0.0044228882 -0.84395087
2.6758945 0.040841602 -0.73909938
2.421679 0.085161909 -0.75654399
3.3938906 -0.083338216 -0.77580094
3.7379324 0.00046911277 -1.0058043
2.5125303 0.036789224 -0.75611985
3.0565517 0.1278508 -1.0437557
3.4658957 -0.08570376 -0.8822279
2.5844922 -0.017640885 -0.74844915
3.046021 0.060196191 -1.0057695
-0.02611593 -0.059798401 0.050936799
2.6545541 -0.080189079 -0.73388737
2.4221919 -0.019751454 -0.76245338
3.0266612 0.062581122 -1.0783885
0.18734181 -0.046070836 -0.035840791
2.549854 -0.081128106 -0.76995635
3.4523096 -0.00099042617 -1.1955475
-0.02611593 -0.059798401 0.050936799
-0.02611593 -0.059798401 0.050936799
2.4332907 -0.081150867 -0.79878414
-0.02611593 -0.059798401 0.050936799
0.18030474 -0.051026776 -0.036799017
0.16232374 -0.04696285 -0.03638871
-0.02611593 -0.059798401 0.050936799
0.18231824 -0.057069108 -0.034945387
-0.02611593 -0.059798401 0.050936799
-0.02611593 -0.059798401 0.050936799
0.18633926 -0.06111896 -0.0330933
-0.02611593 -0.059798401 0.050936799
0.15928593 -0.051933147 -0.037422098
0.13836165 -0.047912728 -0.033956438
-0.02611593 -0.059798401 0.050936799
0.16128464 -0.056957565 -0.036550105
-0.02611593 -0.059798401 0.050936799
-0.02611593 -0.059798401 0.050936799
0.15734455 -0.061014891 -0.032548375
-0.02611593 -0.059798401 0.050936799
0.13828583 -0.052857611 -0.037045516
0.12432281 -0.048826136 -0.035710707
-0.02611593 -0.059798401 0.050936799
0.13928866 -0.056878604 -0.036136713
-0.02611593 -0.059798401 0.050936799
-0.02611593 -0.059798401 0.050936799
0.13534859 -0.060935929 -0.032134984
-0.02611593 -0.059798401 0.050936799
0.11434639 -0.052825745 -0.033595558
0.10337891 -0.049804866 -0.03233514
-0.02611593 -0.059798401 0.050936799
0.11931105 -0.056824919 -0.034761235
-0.02611593 -0.059798401 0.050936799
-0.02611593 -0.059798401 0.050936799
0.11933278 -0.060860422 -0.032833993
-0.02611593 -0.059798401 0.050936799
0.10332575 -0.053768005 -0.034406532
0.095324211 -0.049721889 -0.035183802
-0.02611593 -0.059798401 0.050936799
0.10430986 -0.057770915 -0.034497395
-0.02611593 -0.059798401 0.050936799
-0.02611593 -0.059798401 0.050936799
0.10531662 -0.060792085 -0.033570591
-0.02611593 -0.059798401 0.050936799
0.086385034 -0.053761266 -0.031088114
0.087288231 -0.049656998 -0.037032805
-0.02611593 -0.059798401 0.050936799
0.093293153 -0.057713345 -0.035290368
-0.02611593 -0.059798401 0.050936799
-0.02611593 -0.059798401 0.050936799
0.094281189 -0.060716428 -0.035363216
-0.02611593 -0.059798401 0.050936799
0.080311246 -0.053667374 -0.034974016
0.075323932 -0.050649934 -0.03482601
-0.02611593 -0.059798401 0.050936799
0.072428063 -0.057764605 -0.027898137
-0.02611593 -0.059798401 0.050936799
-0.02611593 -0.059798401 0.050936799
0.0793401 -0.060716864 -0.032082371
-0.02611593 -0.059798401 0.050936799
0.069331981 -0.053645983 -0.033767655
0.063363574 -0.050643049 -0.032601204
-0.02611593 -0.059798401 0.050936799
0.068353891 -0.057677895 -0.03182162
-0.02611593 -0.059798401 0.050936799
-0.02611593 -0.059798401 0.050936799
0.06736102 -0.060691886 -0.030857228
-0.02611593 -0.059798401 0.050936799
0.058386236 -0.054660603 -0.030579999
0.055365045 -0.050614338 -0.032450881
-0.02611593 -0.059798401 0.050936799
0.056393538 -0.057671003 -0.029596813
-0.02611593 -0.059798401 0.050936799
-0.02611593 -0.059798401 0.050936799
0.05738157 -0.060674082 -0.029669661
-0.02611593 -0.059798401 0.050936799
0.054312076 -0.054573894 -0.034503482
0.048362389 -0.051589046 -0.032337364
-0.02611593 -0.059798401 0.050936799
0.04939482 -0.05764588 -0.02946528
-0.02611593 -0.059798401 0.050936799
-0.02611593 -0.059798401 0.050936799
0.051345229 -0.060616374 -0.031556237
-0.02611593 -0.059798401 0.050936799
0.04437007 -0.05459227 -0.03131659
0.043325868 -0.051534921 -0.034242727
-0.02611593 -0.059798401 0.050936799
0.045339379 -0.05757726 -0.032389104
-0.02611593 -0.059798401 0.050936799
-0.02611593 -0.059798401 0.050936799
0.0463087 -0.060562249 -0.033461604
-0.02611593 -0.059798401 0.050936799
0.038352445 -0.054552648 -0.032203514
0.038289335 -0.0514808 -0.036148101
-0.02611593 -0.059798401 0.050936799
0.037359569 -0.057566635 -0.031239111
-0.02611593 -0.059798401 0.050936799
-0.02611593 -0.059798401 0.050936799
0.037347786 -0.060566127 -0.031293169
-0.02611593 -0.059798401 0.050936799
0.032353543 -0.054531116 -0.032090772
0.030346969 -0.051506355 -0.032998785
-0.02611593 -0.059798401 0.050936799
0.031360667 -0.057545103 -0.031126369
-0.02611593 -0.059798401 0.050936799
-0.02611593 -0.059798401 0.050936799
-0.02611593 -0.059798401 0.050936799
-0.02611593 -0.059798401 0.050936799
0.027335733 -0.054495081 -0.032996472
0.026310259 -0.051455822 -0.034922957
-0.02611593 -0.059798401 0.050936799
-0.02611593 -0.059798401 0.050936799
-0.02611593 -0.059798401 0.050936799
-0.02611593 -0.059798401 0.050936799
-0.02611593 -0.059798401 0.050936799
-0.02611593 -0.059798401 0.050936799
0.025242489 -0.05439746 -0.037957203
-0.02611593 -0.059798401 0.050936799
-0.02611593 -0.059798401 0.050936799
-0.02611593 -0.059798401 0.050936799
-0.02611593 -0.059798401 0.050936799
-0.02611593 -0.059798401 0.050936799
-0.02611593 -0.059798401 0.050936799
-0.02611593 -0.059798401 0.050936799
-0.02611593 -0.059798401 0.050936799
-0.02611593 -0.059798401 0.050936799
-0.02611593 -0.059798401 0.050936799
-0.02611593 -0.059798401 0.050936799
-0.02611593 -0.059798401 0.050936799
-0.02611593 -0.059798401 0.050936799
-0.02611593 -0.059798401 0.050936799
-0.02611593 -0.059798401 0.050936799
-0.02611593 -0.059798401 0.050936799
-0.02611593 -0.059798401 0.050936799
-0.02611593 -0.059798401 0.050936799
-0.02611593 -0.059798401 0.050936799
-0.02611593 -0.059798401 0.050936799
-0.02611593 -0.059798401 0.050936799
-0.02611593 -0.059798401 0.050936799
-0.02611593 -0.059798401 0.050936799
-0.02611593 -0.059798401 0.050936799
-0.02611593 -0.059798401 0.050936799
-0.02611593 -0.059798401 0.050936799
-0.02611593 -0.059798401 0.050936799
-0.02611593 -0.059798401 0.050936799
-0.02611593 -0.059798401 0.050936799
-0.02611593 -0.059798401 0.050936799
-0.02611593 -0.059798401 0.050936799
-0.02611593 -0.059798401 0.050936799
-0.02611593 -0.059798401 0.050936799
-0.02611593 -0.059798401 0.050936799
-0.02611593 -0.059798401 0.050936799
-0.02611593 -0.059798401 0.050936799
-0.02611593 -0.059798401 0.050936799
-0.02611593 -0.059798401 0.050936799
-0.02611593 -0.059798401 0.050936799
-0.02611593 -0.059798401 0.050936799
-0.02611593 -0.059798401 0.050936799
-0.02611593 -0.059798401 0.050936799
-0.02611593 -0.059798401 0.050936799
-0.02611593 -0.059798401 0.050936799
-0.02611593 -0.059798401 0.050936799
-0.02611593 -0.059798401 0.050936799
-0.02611593 -0.059798401 0.050936799
-0.02611593 -0.059798401 0.050936799
-0.02611593 -0.059798401 0.050936799
-0.02611593 -0.059798401 0.050936799
-0.02611593 -0.059798401 0.050936799
-0.02611593 -0.059798401 0.050936799
-0.02611593 -0.059798401 0.050936799
-0.02611593 -0.059798401 0.050936799
-0.02611593 -0.059798401 0.050936799
-0.02611593 -0.059798401 0.050936799
-0.02611593 -0.059798401 0.050936799
-0.02611593 -0.059798401 0.050936799
-0.02611593 -0.059798401 0.050936799
-0.02611593 -0.059798401 0.050936799
-0.02611593 -0.059798401 0.050936799
-0.02611593 -0.059798401 0.050936799
-0.02611593 -0.059798401 0.050936799
-0.02611593 -0.059798401 0.050936799
-0.02611593 -0.059798401 0.050936799
-0.02611593 -0.059798401 0.050936799
-0.02611593 -0.059798401 0.050936799
-0.02611593 -0.059798401 0.050936799
-0.02611593 -0.059798401 0.050936799
-0.02611593 -0.059798401 0.050936799
-0.02611593 -0.059798401 0.050936799
-0.02611593 -0.059798401 0.050936799
-0.02611593 -0.059798401 0.050936799
-0.02611593 -0.059798401 0.050936799
-0.02611593 -0.059798401 0.050936799
-0.02611593 -0.059798401 0.050936799
-0.02611593 -0.059798401 0.050936799
-0.02611593 -0.059798401 0.050936799
-0.02611593 -0.059798401 0.050936799
-0.02611593 -0.059798401 0.050936799
-0.02611593 -0.059798401 0.050936799
-0.02611593 -0.059798401 0.050936799
-0.02611593 -0.059798401 0.050936799
-0.02611593 -0.059798401 0.050936799
-0.02611593 -0.059798401 0.050936799
-0.02611593 -0.059798401 0.050936799
-0.02611593 -0.059798401 0.050936799
-0.02611593 -0.059798401 0.050936799
-0.02611593 -0.059798401 0.050936799
-0.02611593 -0.059798401 0.050936799
-0.02611593 -0.059798401 0.050936799
-0.02611593 -0.059798401 0.050936799
-0.02611593 -0.059798401 0.050936799
-0.02611593 -0.059798401 0.050936799
-0.02611593 -0.059798401 0.050936799
-0.02611593 -0.059798401 0.050936799
-0.02611593 -0.059798401 0.050936799
-0.02611593 -0.059798401 0.050936799
-0.02611593 -0.059798401 0.050936799
-0.02611593 -0.059798401 0.050936799
-0.02611593 -0.059798401 0.050936799
-0.02611593 -0.059798401 0.050936799
-0.02611593 -0.059798401 0.050936799
-0.02611593 -0.059798401 0.050936799
-0.02611593 -0.059798401 0.050936799
-0.02611593 -0.059798401 0.050936799
-0.02611593 -0.059798401 0.050936799
-0.02611593 -0.059798401 0.050936799
-0.02611593 -0.059798401 0.050936799
-0.02611593 -0.059798401 0.050936799
-0.02611593 -0.059798401 0.050936799
-0.02611593 -0.059798401 0.050936799
-0.02611593 -0.059798401 0.050936799
-0.02611593 -0.059798401 0.050936799
-0.02611593 -0.059798401 0.050936799
-0.02611593 -0.059798401 0.050936799
-0.02611593 -0.059798401 0.050936799
-0.02611593 -0.059798401 0.050936799
-0.02611593 -0.059798401 0.050936799
-0.02611593 -0.059798401 0.050936799
-0.02611593 -0.059798401 0.050936799
-0.02611593 -0.059798401 0.050936799
-0.02611593 -0.059798401 0.050936799
-0.02611593 -0.059798401 0.050936799
-0.02611593 -0.059798401 0.050936799
-0.02611593 -0.059798401 0.050936799
-0.02611593 -0.059798401 0.050936799
-0.02611593 -0.059798401 0.050936799
-0.02611593 -0.059798401 0.050936799
-0.02611593 -0.059798401 0.050936799
-0.02611593 -0.059798401 0.050936799
-0.02611593 -0.059798401 0.050936799
-0.02611593 -0.059798401 0.050936799
-0.02611593 -0.059798401 0.050936799
-0.02611593 -0.059798401 0.050936799
-0.02611593 -0.059798401 0.050936799
-0.02611593 -0.059798401 0.050936799
-0.02611593 -0.059798401 0.050936799
-0.02611593 -0.059798401 0.050936799
-0.02611593 -0.059798401 0.050936799
-0.02611593 -0.059798401 0.050936799
-0.02611593 -0.059798401 0.050936799
-0.02611593 -0.059798401 0.050936799
-0.02611593 -0.059798401 0.050936799
-0.02611593 -0.059798401 0.050936799
-0.02611593 -0.059798401 0.050936799
-0.02611593 -0.059798401 0.050936799
-0.02611593 -0.059798401 0.050936799
-0.02611593 -0.059798401 0.050936799
-0.02611593 -0.059798401 0.050936799
-0.02611593 -0.059798401 0.050936799
-0.02611593 -0.059798401 0.050936799
-0.02611593 -0.059798401 0.050936799
-0.02611593 -0.059798401 0.050936799
-0.02611593 -0.059798401 0.050936799
-0.02611593 -0.059798401 0.050936799
-0.02611593 -0.059798401 0.050936799
-0.02611593 -0.059798401 0.050936799
-0.02611593 -0.059798401 0.050936799
-0.02611593 -0.059798401 0.050936799
-0.02611593 -0.059798401 0.050936799
-0.02611593 -0.059798401 0.050936799
-0.02611593 -0.059798401 0.050936799
-0.02611593 -0.059798401 0.050936799
-0.02611593 -0.059798401 0.050936799
-0.02611593 -0.059798401 0.050936799
-0.02611593 -0.059798401 0.050936799
-0.02611593 -0.059798401 0.050936799
-0.02611593 -0.059798401 0.050936799
-0.02611593 -0.059798401 0.050936799
-0.02611593 -0.059798401 0.050936799
-0.02611593 -0.059798401 0.050936799
-0.02611593 -0.059798401 0.050936799
-0.02611593 -0.059798401 0.050936799
-0.02611593 -0.059798401 0.050936799
-0.071758486 -0.054031245 -0.037134185
-0.02611593 -0.059798401 0.050936799
-0.02611593 -0.059798401 0.050936799
-0.02611593 -0.059798401 0.050936799
-0.02611593 -0.059798401 0.050936799
-0.02611593 -0.059798401 0.050936799
-0.02611593 -0.059798401 0.050936799
-0.02611593 -0.059798401 0.050936799
-0.075720303 -0.054053064 -0.035059698
-0.02611593 -0.059798401 0.050936799
-0.02611593 -0.059798401 0.050936799
-0.02611593 -0.059798401 0.050936799
-0.02611593 -0.059798401 0.050936799
-0.02611593 -0.059798401 0.050936799
-0.082697295 -0.05806344 -0.033000916
-0.02611593 -0.059798401 0.050936799
-0.079682134 -0.054074891 -0.032985218
-0.078693174 -0.052060727 -0.033967629
-0.02611593 -0.059798401 0.050936799
-0.084707789 -0.056038514 -0.033926956
-0.02611593 -0.059798401 0.050936799
-0.02611593 -0.059798401 0.050936799
-0.089714728 -0.05802023 -0.033869043
-0.02611593 -0.059798401 0.050936799
-0.087755553 -0.05397382 -0.036833536
-0.084692076 -0.052039195 -0.033854883
-0.02611593 -0.059798401 0.050936799
-0.02611593 -0.059798401 0.050936799
-0.02611593 -0.059798401 0.050936799
-0.02611593 -0.059798401 0.050936799
-0.090583496 -0.058143262 -0.026852623
-0.02611593 -0.059798401 0.050936799
-0.08964286 -0.054075178 -0.030797977
-0.087639295 -0.053082522 -0.030817538
-0.02611593 -0.059798401 0.050936799
-0.09363126 -0.056078568 -0.029759198
-0.02611593 -0.059798401 0.050936799
-0.02611593 -0.059798401 0.050936799
-0.099634089 -0.057056867 -0.029664475
-0.02611593 -0.059798401 0.050936799
-0.096660294 -0.054031968 -0.031666111
-0.094675459 -0.053021226 -0.032685339
-0.02611593 -0.059798401 0.050936799
-0.099611431 -0.056075126 -0.028646789
-0.02611593 -0.059798401 0.050936799
-0.02611593 -0.059798401 0.050936799
-0.10459573 -0.057075098 -0.027571194
-0.02611593 -0.059798401 0.050936799
-0.10264048 -0.054028522 -0.030553699
-0.099637099 -0.053039458 -0.030592054
-0.02611593 -0.059798401 0.050936799
-0.1035358 -0.056133125 -0.02457298
-0.02611593 -0.059798401 0.050936799
-0.02611593 -0.059798401 0.050936799
-0.10955737 -0.057093333 -0.025477923
-0.02611593 -0.059798401 0.050936799
-0.11167628 -0.053960044 -0.032383919
-0.1086729 -0.052970979 -0.032422271
-0.02611593 -0.059798401 0.050936799
-0.1156233 -0.054999787 -0.029327791
-0.02611593 -0.059798401 0.050936799
-0.02611593 -0.059798401 0.050936799
-0.11957425 -0.057039354 -0.026289679
-0.02611593 -0.059798401 0.050936799
-0.11763774 -0.053974688 -0.030271843
-0.1156529 -0.05296395 -0.031291071
-0.02611593 -0.059798401 0.050936799
-0.12462166 -0.054967485 -0.029158674
-0.02611593 -0.059798401 0.050936799
-0.02611593 -0.059798401 0.050936799
-0.13160558 -0.055960279 -0.02804549
-0.02611593 -0.059798401 0.050936799
-0.1215621 -0.054032687 -0.026198044
-0.12465125 -0.052931644 -0.031121954
-0.02611593 -0.059798401 0.050936799
-0.13260147 -0.054956865 -0.028008685
-0.02611593 -0.059798401 0.050936799
-0.02611593 -0.059798401 0.050936799
-0.14158502 -0.055942476 -0.026857927
-0.02611593 -0.059798401 0.050936799
-0.13764885 -0.052884988 -0.03087768
-0.13364959 -0.052899346 -0.030952841
-0.02611593 -0.059798401 0.050936799
-0.14663243 -0.053870607 -0.029726915
-0.02611593 -0.059798401 0.050936799
-0.02611593 -0.059798401 0.050936799
-0.15661579 -0.054852638 -0.028557379
-0.02611593 -0.059798401 0.050936799
-0.14560996 -0.052892458 -0.028728034
-0.14264795 -0.052867047 -0.030783728
-0.02611593 -0.059798401 0.050936799
-0.15659314 -0.053870898 -0.027539693
-0.02611593 -0.059798401 0.050936799
-0.02611593 -0.059798401 0.050936799
-0.16657652 -0.054852933 -0.026370145
-0.02611593 -0.059798401 0.050936799
-0.15558942 -0.052874658 -0.027540464
-0.15059032 -0.052892603 -0.027634416
-0.02611593 -0.059798401 0.050936799
-0.17160912 -0.053798977 -0.0282575
-0.02611593 -0.059798401 0.050936799
-0.02611593 -0.059798401 0.050936799
-0.17751442 -0.053867888 -0.023146447
-0.02611593 -0.059798401 0.050936799
-0.17262372 -0.052777465 -0.029220343
-0.16560628 -0.052820679 -0.028352223
-0.02611593 -0.059798401 0.050936799
-0.18558393 -0.05276699 -0.026976746
-0.02611593 -0.059798401 0.050936799
-0.02611593 -0.059798401 0.050936799
-0.1985293 -0.053774431 -0.023751512
-0.02611593 -0.059798401 0.050936799
-0.18960191 -0.052734543 -0.027901251
-0.18160336 -0.052763257 -0.028051578
-0.02611593 -0.059798401 0.050936799
-0.20254335 -0.052742153 -0.024657991
-0.02611593 -0.059798401 0.050936799
-0.02611593 -0.059798401 0.050936799
-0.23762663 -0.051526271 -0.028980605
-0.02611593 -0.059798401 0.050936799
-0.20757598 -0.051688202 -0.026545335
-0.19456354 -0.052752778 -0.025807973
-0.02611593 -0.059798401 0.050936799
-0.23862645 -0.05152268 -0.028961815
-0.02611593 -0.059798401 0.050936799
-0.02611593 -0.059798401 0.050936799
-0.25351137 -0.051577378 -0.022681993
-0.02611593 -0.059798401 0.050936799
-0.23560829 -0.051551532 -0.028018519
-0.22361439 -0.052594431 -0.028262027
-0.02611593 -0.059798401 0.050936799
-0.25754416 -0.050527014 -0.02458813
-0.02611593 -0.059798401 0.050936799
-0.02611593 -0.059798401 0.050936799
-1.0343713 -0.019831542 -0.22655706
-0.02611593 -0.059798401 0.050936799
-0.26256588 -0.051490813 -0.025511857
-0.24960965 -0.05250112 -0.02777347
-1.0489862 -0.018139828 -0.20624596
-1.0384119 -0.020780839 -0.22849923
-0.02611593 -0.059798401 0.050936799
-0.02611593 -0.059798401 0.050936799
-1.0535359 -0.018556021 -0.18216011
-1.053012 -0.020107044 -0.20720649
-1.041438 -0.022751641 -0.22947857
-1.027872 -0.027403081 -0.25182426
-1.0661178 -0.017907493 -0.15990528
-1.0585616 -0.020519648 -0.18310189
-1.0469915 -0.024164073 -0.20539194
-1.0434798 -0.028725356 -0.23054874
-1.0596094 -0.017417602 -0.13300915
-1.0711473 -0.020870952 -0.16086504
-1.0575814 -0.025522387 -0.18321078
-1.0400201 -0.031188007 -0.20564961
-1.0621742 -0.016823055 -0.10994255
-1.0656615 -0.021359213 -0.1349678
-1.0681676 -0.025880868 -0.16101149
-1.0626642 -0.032448985 -0.18624189
-1.0857542 -0.016135048 -0.087481022
-1.0782472 -0.021710515 -0.11273099
-1.0737211 -0.027293302 -0.13692492
-1.0702399 -0.034835979 -0.16313541
-1.0752879 -0.016623165 -0.062677398
-1.0908142 -0.022079907 -0.089494497
-1.0742754 -0.028723679 -0.11293228
-1.0747936 -0.036252003 -0.13906762
-1.0898466 -0.014985718 -0.039367311
-1.0893463 -0.022535723 -0.064521775
-1.0908644 -0.030060461 -0.09063831
-1.0793512 -0.038667858 -0.11501785
-1.1194066 -0.014294272 -0.015793361
-1.1089268 -0.021862071 -0.042135395
-1.1024315 -0.030433441 -0.067420632
-1.1059757 -0.039932571 -0.094535276
-1.130951 -0.013685511 0.0084419996
-1.1254745 -0.022235198 -0.017824091
-1.1019672 -0.031885497 -0.042447113
-1.108515 -0.042373687 -0.069523424
-1.1374779 -0.013112785 0.033583086
-1.1540345 -0.021547336 0.0057310611
-1.1185187 -0.033258449 -0.018153831
-1.1120541 -0.044811219 -0.044492766
-1.1509994 -0.011515109 0.058873717
-1.1485525 -0.023035428 0.03161028
-1.1360662 -0.033627987 0.0061762631
-1.1246063 -0.046198528 -0.020274647
-1.1455323 -0.011985281 0.083771296
-1.1490656 -0.023502156 0.057620261
-1.1535987 -0.035015441 0.031488001
-1.1311448 -0.04862529 0.0048123747
-0.02611593 -0.059798401 0.050936799
-1.1615912 -0.022907894 0.082874075
-1.1481168 -0.036503535 0.057367224
-1.1526954 -0.049980305 0.029199619
-0.02611593 -0.059798401 0.050936799
-1.1810821 -0.023324521 0.11024074
-1.1856416 -0.03681938 0.083072789
-0.02611593 -0.059798401 0.050936799
-0.02611593 -0.059798401 0.050936799
-0.02611593 -0.059798401 0.050936799
-0.02611593 -0.059798401 0.050936799
-1.2177253 -0.054683387 0.082350098
-0.02611593 -0.059798401 0.050936799
-1.2300018 -0.02317632 0.16817896
-1.2076304 -0.038713474 0.13746867
-0.02611593 -0.059798401 0.050936799
-0.02611593 -0.059798401 0.050936799
-0.02611593 -0.059798401 0.050936799
-1.2240884 -0.040176876 0.16676027
-1.206724 -0.057695746 0.13610786
-1.2273586 -0.0067024529 0.25245607
-1.2379329 -0.024175098 0.22532876
-1.2295482 -0.041679755 0.19584514
-1.2182055 -0.06015883 0.16428781
-0.02611593 -0.059798401 0.050936799
-1.2314285 -0.024685035 0.25220686
-1.2280469 -0.043171581 0.22279918
-1.2226695 -0.062665127 0.19333589
-0.02611593 -0.059798401 0.050936799
-0.02611593 -0.059798401 0.050936799
-1.2275078 -0.044695992 0.25177133
-1.2291331 -0.065164246 0.22242156
-1.269556 -0.0042636786 0.34832269
-1.2821606 -0.024710551 0.32017928
-0.02611593 -0.059798401 0.050936799
-0.02611593 -0.059798401 0.050936799
-0.02611593 -0.059798401 0.050936799
-0.02611593 -0.059798401 0.050936799
-1.2911893 -0.046728775 0.32295096
-0.02611593 -0.059798401 0.050936799
-6.2336392 0.2234142 1.8388875
-0.02611593 -0.059798401 0.050936799
-0.02611593 -0.059798401 0.050936799
-0.02611593 -0.059798401 0.050936799
-3.0792465 0.080026865 1.0049523
-3.1485291 0.023311861 0.94820428
-1.5328979 -0.048023768 0.44749519
-1.3534677 -0.076293662 0.36759731
-3.117557 0.082559839 1.0947458
-3.082444 0.020011675 1.0059268
-3.1417403 -0.039738718 0.94893682
-1.5230666 -0.081017867 0.44471335
-3.1856298 0.08698304 1.197135
-3.1207664 0.019545138 1.0956663
-3.0826392 -0.044031709 1.0077726
-3.1320395 -0.11074445 0.94647002
-3.2535901 0.091297716 1.3055222
-3.1868365 0.019943751 1.1989455
-3.1268973 -0.047548562 1.1015694
-3.0798893 -0.11706624 1.0084002
-3.324456 0.095532708 1.418964
-3.2647398 0.019222822 1.3114291
-3.1899879 -0.052159853 1.2047023
-3.1370673 -0.1246262 1.1073676
-3.4031336 0.099615514 1.5425528
-3.324661 0.019455191 1.4225929
-3.2718461 -0.055920199 1.3202059
-3.203131 -0.13226241 1.212502
-3.4777706 0.10464765 1.6680838
-3.4102778 0.019491453 1.5502398
-3.3416915 -0.060741525 1.4364659
-3.2680869 -0.14101055 1.3235976
-4.7550554 0.16751605 2.3983827
-3.4938202 0.019448185 1.6818479
-3.4173858 -0.065686032 1.5608357
-3.3399141 -0.15086003 1.4418043
-4.6505847 0.16369961 2.4763842
-4.7533293 0.045330655 2.4071434
-3.4998922 -0.070786312 1.6953338
-3.4294946 -0.16088007 1.5733447
-4.5936289 0.16160288 2.5803151
-4.6250391 0.03959123 2.4756606
-4.8000522 -0.082220711 2.4467242
-3.4941359 -0.17093557 1.7014165
-3.4456587 0.10771856 2.0456662
-4.6195536 0.036174782 2.6085413
-4.619235 -0.086698309 2.4892724
-5.0589161 -0.23384523 2.5918772
-4.6310172 0.16738287 2.8782208
-3.4348772 0.0095329434 2.0526905
-4.7611837 -0.095080703 2.7078526
-4.9244289 -0.24180485 2.671242
-3.427897 0.10904965 2.2454255
-4.6123714 0.030157115 2.885392
-3.3577709 -0.090259671 2.0234318
-4.8009357 -0.24872513 2.7508318
-4.4123054 0.15893134 3.0220218
-3.2688859 0.0019734986 2.1584821
-3.2520154 -0.094395734 2.0633905
-4.6953301 -0.25668919 2.8367398
-3.2727835 0.10342081 2.3574574
-4.3817635 0.019753292 3.0239327
-3.1937871 -0.099811599 2.1292248
-4.5659924 -0.26448616 2.9082012
-2.6040363 0.07074821 1.9712147
-4.2793331 0.014980376 3.0999546
-3.1859093 -0.10465962 2.2300234
-3.5425887 -0.22799145 2.3805218
-2.7403352 0.078739516 2.1679778
-2.5990794 -0.016544349 1.9855478
-2.681612 -0.10303628 1.9745246
-3.4544783 -0.23340644 2.4397941
-3.9853442 0.14351624 3.284838
-2.7185853 -0.017449737 2.172832
-2.5536244 -0.10551342 1.973083
-3.3308578 -0.23748048 2.4724169
-2.412765 0.063827544 2.0915492
-3.9615548 0.00011072308 3.3008039
-2.4828963 -0.10848787 2.0117183
-4.1125774 -0.29248098 3.1973038
-1.9045485 0.038333617 1.7304505
-2.4244571 -0.025747366 2.1251593
-2.4348869 -0.11265093 2.0657623
-2.7853224 -0.22516048 2.2803609
-1.8549623 0.03657908 1.761501
-1.8886886 -0.0348561 1.7368318
-2.4203284 -0.11721656 2.1494353
-3.8999963 -0.30580157 3.3351295
-1.8270313 0.035577729 1.8109766
-1.8440117 -0.037682969 1.7729565
-1.8756968 -0.10816168 1.750267
-1.9123896 -0.18563934 1.7285452
-1.9952641 0.04567397 2.064395
-1.9073331 -0.038015086 1.9161844
-1.8280431 -0.11198106 1.7853177
-1.8627177 -0.18948399 1.7645578
-2.1945465 0.05698026 2.3684337
-2.0705352 -0.039007276 2.1733093
-1.9728229 -0.1205155 2.0129511
-1.8838124 -0.19826342 1.8678291
-3.3179595 0.11988664 3.7290661
-2.274523 -0.039006773 2.4952376
-2.1682529 -0.13216539 2.3135014
-2.0490513 -0.21828139 2.1266482
-3.224786 0.11639911 3.7912798
-3.2839863 -0.033770114 3.7566595
-3.3362882 -0.18085645 3.7159648
-2.2668996 -0.2454612 2.461349
-3.1385362 0.11286434 3.8576231
-3.1868548 -0.038235664 3.8167806
-3.242048 -0.18641958 3.7821219
-3.2992842 -0.34559441 3.7473023
-3.0425131 0.10951074 3.911783
-3.0956662 -0.042733941 3.8800135
-3.1458831 -0.19191755 3.844243
-3.1981761 -0.35105613 3.8063304
-2.9543014 0.10600496 3.9760897
-2.9985535 -0.047181405 3.9391351
-3.0487366 -0.19740102 3.9053459
-3.0999255 -0.35865134 3.8733764
-2.8632209 0.10261505 4.0333428
-2.9034777 -0.051585499 3.9962945
-2.9564435 -0.20401107 3.9745216
-3.0056515 -0.36525047 3.9415152
-2.7710848 0.099167272 4.0935755
-2.8132699 -0.056098294 4.0605459
-2.8593535 -0.20944029 4.0326257
-2.9015813 -0.37068671 3.9984877
-2.6828725 0.095661499 4.1578822
-2.7181234 -0.061574578 4.121686
-2.7592828 -0.21486217 4.089673
-2.8072741 -0.37832189 4.0686078
-2.5878866 0.092347682 4.210062
-2.6259725 -0.066040263 4.1829004
-2.6689668 -0.2204833 4.159904
-2.708132 -0.38481236 4.1296549
-2.4928672 0.087997846 4.2642226
-2.5318592 -0.070476964 4.2420783
-2.5708768 -0.2259161 4.217989
-2.6099713 -0.39131731 4.1917205
-2.4075983 0.084448576 4.3315845
-2.4416516 -0.074989744 4.3063297
-2.473753 -0.23238131 4.2780743
-2.5137351 -0.3978875 4.257822
-2.3155184 0.08105506 4.3888187
-2.3436139 -0.079368427 4.3614335
-2.3795316 -0.23792635 4.3432317
-2.4154804 -0.40448293 4.3248863
-2.223382 0.077607282 4.4490519
-2.252373 -0.084920809 4.4276476
-2.283329 -0.24346049 4.407352
-2.314358 -0.41096246 4.3848958
-2.1312459 0.07415951 4.509285
-2.161128 -0.089473352 4.4938788
-2.1851678 -0.24996549 4.469418
-2.2161071 -0.4185577 4.4519415
-2.0371137 0.069704711 4.5694623
-2.060147 -0.093808539 4.5459275
-2.0898902 -0.25556839 4.5375552
-2.1158717 -0.42514223 4.5179682
-1.9439963 0.066271462 4.6286769
-1.9697376 -0.099520139 4.6211572
-1.9926921 -0.26210594 4.6016388
-2.012749 -0.43162897 4.57794
-1.8508041 0.062765829 4.6918898
-1.8716623 -0.103935 4.6782603
-1.8925462 -0.26760018 4.6626854
-1.9154385 -0.43827507 4.6480217
-0.9346661 0.0022933073 2.5199072
-1.7706105 -0.10934238 4.7342896
-1.794273 -0.2742137 4.7307496
-1.8121513 -0.4459244 4.7169733
-0.82718915 -0.0037123561 2.385741
-1.675254 -0.11401781 4.8064442
-1.6891656 -0.2796897 4.7897019
-1.7050858 -0.45237127 4.7738714
-0.78526443 -0.0057637841 2.4349356
-1.5722586 -0.1193781 4.8594365
-1.5850807 -0.28614384 4.8476562
-1.6036338 -0.4611761 4.8518391
-0.71502328 -0.0093124397 2.3945425
-1.4700757 -0.12491569 4.9224448
-1.484602 -0.2929635 4.9266782
-1.4944038 -0.46879271 4.9176779
-0.64034867 -0.013336202 2.3240478
-1.369668 -0.13066317 4.9974861
-1.3793302 -0.29960215 4.9946103
-1.386174 -0.4764058 4.9835367
-0.55567622 -0.018440383 2.2003284
-1.267298 -0.13638166 5.0704908
-1.2701713 -0.30614659 5.0564694
-1.2787189 -0.48423231 5.0614095
-0.49922273 -0.021137945 2.1712127
-1.1611347 -0.1419155 5.1324244
-1.1647494 -0.31292993 5.1323986
-1.1674147 -0.49192846 5.1312103
-0.44012937 -0.024502421 2.123029
-1.0538028 -0.14761576 5.2033358
-1.0543513 -0.32071298 5.2072163
-1.0539837 -0.50075829 5.207953
-0.94992125 0.024812788 5.2695327
-0.94544876 -0.15233785 5.2752457
-0.94109964 -0.32736224 5.2739983
-0.93849659 -0.50964952 5.2876568
-1.4353628 0.077287287 9.178896
-1.4085288 -0.22884205 9.1218367
-1.3883702 -0.52923667 9.0810108
-1.3627567 -0.83414555 9.0119915
-1.1738939 0.061470792 8.7785788
-1.143114 -0.22956693 8.7157164
-1.1171559 -0.51373255 8.6610718
-1.0914007 -0.80171669 8.5963583
-0.93851364 0.046882585 8.4267883
-0.90569758 -0.23014659 8.3631411
