# .PCD v0.7 - Point Cloud Data file format
VERSION 0.7
FIELDS x y z
SIZE 4 4 4
TYPE F F F
COUNT 1 1 1
WIDTH 1410
HEIGHT 1
VIEWPOINT 0 0 0 1 0 0 0
POINTS 1410
DATA ascii
-1.2851644 0.23829529 0.32299399
-1.251068 0.2059169 0.28075561
-1.2338516 0.17950812 0.24394307
-1.1976913 0.14906797 0.20470214
-1.2716691 0.23576054 0.34970456
-1.2813796 0.21239386 0.31645238
-0.02611593 -0.059798401 0.050936799
-0.02611593 -0.059798401 0.050936799
-0.02611593 -0.059798401 0.050936799
-1.2887673 0.21484321 0.34864593
-1.2606472 0.18346815 0.30753797
-1.2693657 0.15809821 0.27423096
-1.3232486 0.25064564 0.42296433
-1.2951777 0.21630722 0.37980297
-1.2909439 0.18892716 0.34421635
-0.02611593 -0.059798401 0.050936799
-3.0503538 0.66822791 0.99304724
-1.3502738 0.22869198 0.42607427
-1.329179 0.19536047 0.38406211
-0.02611593 -0.059798401 0.050936799
-3.0191915 0.66398114 1.0554081
-3.1074283 0.61331522 1.0001249
-1.3255806 0.19477084 0.41599488
-0.02611593 -0.059798401 0.050936799
-3.0068753 0.66467518 1.1252137
-3.1030169 0.61394745 1.0750792
-3.1058202 0.54242861 0.99281007
-1.3247625 0.16282697 0.41240054
-2.9767087 0.66143173 1.1876115
-3.1720421 0.63037223 1.1777034
-3.1023932 0.54204655 1.0687647
-3.1141691 0.46752441 0.98861003
-2.9415662 0.65718871 1.2488974
-3.2122047 0.64180231 1.2736946
-3.1694162 0.55444664 1.172279
-3.1027372 0.46409598 1.06536
-2.8975039 0.65198588 1.3059977
-3.2701612 0.65711534 1.3800927
-3.2363412 0.56775635 1.2808095
-3.1667762 0.47248611 1.1687458
-2.8633795 0.64776456 1.3663028
-3.2804463 0.66252923 1.4704139
-3.3031874 0.58199328 1.3933568
-3.2346945 0.48278165 1.2782407
-2.8282888 0.64457566 1.424608
-3.24014 0.65710562 1.5405849
-3.3828175 0.59807771 1.5171806
-3.3044808 0.4929578 1.3947709
-2.8010952 0.64332461 1.4880977
-3.1652086 0.64388335 1.5919603
-3.4801629 0.61897254 1.6554279
-3.3820894 0.50499946 1.5204843
-2.7729208 0.64208812 1.5505689
-3.137809 0.6424334 1.6664462
-3.6199403 0.64851373 1.8226359
-3.4803979 0.52084452 1.6616594
-2.7417655 0.64085889 1.6119844
-3.0995169 0.63803488 1.7356732
-3.5992024 0.64676327 1.9152474
-4.2737594 0.65305638 2.157073
-2.7026944 0.63767368 1.6692145
-3.0888927 0.64044625 1.8215472
-3.5516956 0.64011574 1.9962653
-4.2545905 0.65089709 2.2727141
-2.6744971 0.63741893 1.7327036
-3.0407228 0.63412064 1.8845522
-3.518043 0.63639128 2.0845978
-4.323411 0.66315007 2.4402812
-2.6344635 0.63426626 1.7879157
-3.022156 0.63655758 1.9672766
-3.4972265 0.63556832 2.1812258
-4.7203288 0.73109365 2.8080659
-2.5963924 0.63108468 1.8451648
-3.0045557 0.6379621 2.0520012
-3.4912043 0.63861758 2.2882044
-4.546545 0.70359081 2.8533304
-2.5681913 0.63182974 1.9086719
-2.8074417 0.59792757 2.0105724
-3.4179757 0.62913042 2.3546844
-3.3627465 0.5051325 2.230365
-2.5320742 0.63061875 1.9679939
-2.8874483 0.62445295 2.1656029
-2.629786 0.47305769 1.9079527
-4.3543038 0.67566055 3.0292852
-2.4812002 0.62557185 2.014966
-2.8185747 0.61532384 2.2131641
-3.258795 0.60736334 2.4733505
-2.6098883 0.38074827 1.9199145
-2.4460418 0.62532812 2.076324
-2.8117466 0.62156808 2.3091822
-3.2930329 0.61988872 2.6182673
-2.789422 0.41425997 2.152961
-2.4050233 0.62318981 2.1305358
-2.7674518 0.61814779 2.3783143
-3.2720177 0.62188435 2.724946
-2.4506667 0.35890034 1.9875612
-1.8914993 0.48392883 1.7542746
-2.3280346 0.51748866 2.0961707
-3.2322419 0.62102938 2.8192177
-2.3977036 0.35275584 2.0394759
-1.8409852 0.47822568 1.7822351
-1.8695732 0.40864563 1.7645057
-1.894244 0.34214112 1.741757
-2.3457174 0.34759668 2.0924273
-1.8415039 0.48683828 1.8594269
-1.8151199 0.40198252 1.7893741
-1.8416966 0.33539474 1.7716613
-1.870262 0.26679638 1.7549495
-2.0036385 0.54599512 2.1086171
-1.9283279 0.43890443 1.9852281
-1.8539135 0.343761 1.8650728
-1.8176734 0.26101366 1.7868711
-2.177145 0.611615 2.3901479
-2.1127887 0.49649271 2.2708201
-2.0257871 0.38764873 2.131175
-1.9484828 0.28858566 2.0058932
-2.1360626 0.61142206 2.4473948
-2.4544179 0.59915954 2.753237
-2.2452867 0.4444437 2.4684262
-2.1495352 0.3297855 2.3165078
-2.0793021 0.606462 2.488256
-2.427635 0.60436827 2.8468614
-3.2724025 0.69132751 3.7555587
-3.3124096 0.55294341 3.7287955
-2.0323184 0.60533828 2.5403736
-2.3695297 0.60107869 2.9057343
-3.1664314 0.67995751 3.808387
-3.2229702 0.54519951 3.8060071
-1.9824135 0.60327613 2.5884182
-2.3055048 0.59684008 2.9604774
-3.0702968 0.67147815 3.8694544
-3.1217802 0.53664792 3.8699796
-1.9295659 0.60125762 2.6334076
-2.251256 0.59643769 3.0264766
-2.9673357 0.66213655 3.9213755
-3.0216086 0.52811807 3.932971
-1.8864235 0.6020031 2.6936338
-2.1882267 0.59320259 3.0812566
-2.8633938 0.65280962 3.9722779
-2.9223957 0.52055538 3.9979987
-1.8296366 0.59902459 2.7355309
-2.1241791 0.58994573 3.1370173
-2.7789977 0.64813745 4.0466385
-2.8241825 0.51299626 4.0630455
-1.7738307 0.59603173 2.7784464
-2.0582252 0.58677214 3.1877422
-2.6847985 0.64161062 4.1107783
-2.7259846 0.50645512 4.12711
-1.7189833 0.59400594 2.8233981
-2.00386 0.58726108 3.2597575
-2.5625539 0.62786746 4.125246
-2.6287632 0.50089937 4.1922112
-1.6631736 0.59201276 2.8663321
-1.9397485 0.58594966 3.3185537
-2.4829392 0.62601382 4.2107506
-2.5295613 0.49535441 4.2562757
-1.6015037 0.58812511 2.9021189
-1.869814 0.58277977 3.3682039
-2.3955359 0.62333059 4.2850909
-2.4274385 0.48887128 4.3162665
-1.5533772 0.58987051 2.9612696
-1.8008422 0.57957745 3.4198718
-2.2955251 0.61696321 4.3391213
-2.3311384 0.48424646 4.3854036
-1.4897827 0.58604801 2.9930205
-1.7250999 0.57556707 3.4593949
-2.2032764 0.61340678 4.4053531
-2.2337971 0.48058182 4.4565387
-1.4309734 0.5840441 3.0358977
-1.6560866 0.57332832 3.5130804
-2.1080661 0.60987592 4.4695282
-2.1297042 0.47612727 4.5145288
-1.3759871 0.58389145 3.0878832
-1.592738 0.57480288 3.583945
-2.0099492 0.60642475 4.5286489
-2.0304382 0.4725278 4.5816278
-1.310449 0.58011597 3.1165974
-1.5025799 0.56628233 3.593106
-1.9079727 0.60108608 4.5806603
-1.928154 0.46889943 4.6496706
-0.99521041 0.44672972 2.513078
-0.98275566 0.36591393 2.4993782
-0.97320575 0.29003567 2.4898236
-0.9597916 0.21326989 2.4731781
-0.91139442 0.42647743 2.4531221
-0.89698833 0.34770834 2.4364219
-0.885427 0.27482244 2.4268835
-0.87194091 0.20200165 2.4133093
-0.83349448 0.40817401 2.3973136
-0.81517494 0.33148065 2.375576
-0.80448931 0.26148927 2.3721087
-0.78905189 0.19071521 2.3555338
-0.76141715 0.39172888 2.3506508
-0.7439881 0.318948 2.3340025
-0.72379887 0.24739136 2.3043196
-0.70729375 0.17955898 2.2907791
-0.68960989 0.37353733 2.2899566
-0.66921079 0.30278158 2.2712884
-0.65366018 0.23691624 2.2598019
-0.63428271 0.17019953 2.2392256
-0.62450063 0.36009878 2.2444792
-0.60311669 0.29035732 2.2248104
-0.58565611 0.22557513 2.2083063
-0.56805658 0.16266593 2.1988354
-0.5604741 0.34473652 2.1949856
-0.54188263 0.27982408 2.1854603
-0.52051651 0.21511793 2.1638825
-0.50104052 0.15432787 2.1474125
-0.50316846 0.33314541 2.1596911
-0.48165244 0.26829457 2.1461105
-0.45938691 0.20669287 2.1185701
-0.43983221 0.14683028 2.106117
-0.44790372 0.32059786 2.1224167
-0.42355287 0.25689885 2.0998011
-0.40395284 0.19899975 2.0893834
-0.38242805 0.14116582 2.0749292
-0.39369112 0.30910802 2.0821805
-0.3711783 0.24827096 2.0676534
-0.35057059 0.1923679 2.0572529
-0.32711715 0.13559896 2.0387807
-0.3432827 0.29945123 2.0520518
-0.31970602 0.240556 2.0405412
-0.29632747 0.18385942 2.0180702
-0.27632546 0.13259733 2.0277717
-0.29585499 0.28978717 2.0229793
-0.27286139 0.23651463 2.0325882
-0.25455165 0.18696995 2.058358
-0.23418997 0.13636398 2.0870712
-0.25440922 0.29020566 2.0462184
-0.23281524 0.24137875 2.0869448
-0.21239348 0.19171835 2.118675
-0.18893877 0.14101119 2.1523299
-0.21535891 0.2960732 2.1006122
-0.19159287 0.24807611 2.1503155
-0.16810071 0.19733277 2.1859701
-0.14245917 0.14643756 2.2295842
-0.17497875 0.30462915 2.172035
-0.14731489 0.25470847 2.2166293
-0.23295993 0.51367879 4.8478093
-0.1977087 0.49305281 5.9291425
-0.13175285 0.31231922 2.2353861
-0.16402763 0.53000998 4.1485772
-0.11978646 0.51007479 4.8566275
-0.056019112 0.49285918 5.964498
-0.1215247 0.54501164 3.6398799
-0.070273094 0.52993441 4.1878338
-0.0072452575 0.50913018 4.8845134
0.085469879 0.4827407 5.8846393
-0.043074824 0.54327959 3.6633878
0.02296022 0.52634794 4.200027
0.1060445 0.50641745 4.8993483
0.25853091 0.5478431 6.618825
0.036416229 0.54250765 3.6888943
0.11608513 0.52386975 4.2062407
0.21930465 0.50574058 4.9122195
0.39667547 0.51783133 6.3115921
0.11604227 0.54260898 3.7214162
0.21126193 0.52033037 4.2153978
0.33302078 0.50056744 4.8969917
0.52835459 0.49539962 6.0846438
0.19716543 0.53917408 3.7278376
0.30780995 0.52044296 4.2436018
0.44810423 0.49804652 4.9007931
0.65826392 0.4798196 5.9218745
0.27953967 0.53750008 3.7472718
0.40501294 0.51887798 4.253757
0.56549859 0.49822846 4.9206047
0.77811497 0.46332991 5.7562761
0.36281621 0.53491306 3.7616706
0.5056203 0.51992184 4.2849026
0.68237185 0.49489957 4.9133539
-0.02611593 -0.059798401 0.050936799
0.45030972 0.53511226 3.7870448
-0.02611593 -0.059798401 0.050936799
-0.02611593 -0.059798401 0.050936799
1.0030829 0.43516842 5.438447
-0.02611593 -0.059798401 0.050936799
0.16871114 0.093092397 1.1814381
-0.02611593 -0.059798401 0.050936799
0.26684973 0.064652912 1.4061623
0.16882804 0.11807006 1.182888
-0.02611593 -0.059798401 0.050936799
0.27111658 0.094488747 1.4146249
1.2024271 0.41075566 5.1401725
-0.02611593 -0.059798401 0.050936799
0.27436495 0.12434624 1.4221069
-0.02611593 -0.059798401 0.050936799
1.2926027 0.39908344 4.9912219
0.27353519 0.15329063 1.4256471
-0.02611593 -0.059798401 0.050936799
1.2840451 0.49600023 4.9431195
1.3809514 0.38825536 4.8513246
-0.02611593 -0.059798401 0.050936799
-0.02611593 -0.059798401 0.050936799
1.377071 0.4855065 4.8391523
1.4718169 0.37993118 4.7384343
-0.02611593 -0.059798401 0.050936799
1.2159979 0.50785059 4.3003898
1.4627494 0.4723638 4.7172694
1.5523058 0.37100482 4.605721
1.0673293 0.51976401 3.838232
1.3368647 0.51358664 4.3442454
1.5414101 0.45926446 4.5945177
-0.02611593 -0.059798401 0.050936799
1.1690006 0.52274954 3.8723941
1.4702693 0.52277249 4.4159379
-0.02611593 -0.059798401 0.050936799
0.40028864 0.042404473 1.1131622
1.2557296 0.51967305 3.8577094
1.5601916 0.51544207 4.3591027
0.38265797 0.058132216 1.0767645
0.50566638 0.059833057 1.2885638
1.3538761 0.51815867 3.8648469
-0.02611593 -0.059798401 0.050936799
0.50078034 0.083828837 1.2900901
1.845343 0.34139299 4.1315384
-0.02611593 -0.059798401 0.050936799
0.49798349 0.10672715 1.2965587
1.8391788 0.41989809 4.1610842
1.9154114 0.33596274 4.0290937
0.4628534 0.11898693 1.2344172
1.8206187 0.49280918 4.1707535
1.9040787 0.40963149 4.0506458
1.9814657 0.33156481 3.9257421
0.51792735 0.1267786 1.2895457
1.8897762 0.48127502 4.0742173
1.9670991 0.401263 3.946279
2.0465536 0.32613447 3.8243911
1.7884917 0.5270108 3.9448969
1.9539155 0.46977687 3.9767754
2.0312169 0.39380041 3.84691
2.1107805 0.3225807 3.7300923
1.8798521 0.5212605 3.9110713
2.0108652 0.45748499 3.8694506
2.0924325 0.38725799 3.7526135
2.1741054 0.31993994 3.6408286
1.9765083 0.51922017 3.8922184
2.0731664 0.44884884 3.7800975
2.1568203 0.38154179 3.6672754
2.2312403 0.3165018 3.5416632
2.0430031 0.50737131 3.8137324
2.1365428 0.44013673 3.6947243
2.2139995 0.37504992 3.5710549
2.2926216 0.31381395 3.455436
2.1043642 0.49466693 3.7283249
2.196882 0.43147165 3.6074085
2.2723136 0.36942756 3.4818313
2.3519886 0.31215119 3.3682649
2.161613 0.48208565 3.6369944
2.2541993 0.42183548 3.5191309
2.330725 0.36471459 3.3976235
2.4093556 0.31049562 3.2811313
2.2241538 0.47221446 3.5606186
2.3074832 0.41324973 3.4289474
2.3860767 0.3590669 3.3104558
2.4627011 0.30787265 3.1930552
2.2805386 0.46050999 3.4763229
2.3639061 0.40652633 3.345741
2.4445484 0.35529956 3.2292652
2.5181475 0.30715171 3.1099761
2.3288116 0.44894269 3.3861792
2.4194038 0.39973399 3.2665524
2.4969838 0.35158989 3.1461885
2.5726128 0.3064163 3.027915
2.3853204 0.44012901 3.3079355
2.4717901 0.39306101 3.1814222
2.5494375 0.34786218 3.064111
2.6271384 0.30662641 2.9488714
2.4398253 0.43032283 3.2297111
2.5232511 0.38631928 3.1003091
2.603951 0.34507281 2.985013
2.6816602 0.30583674 2.8698094
2.4892185 0.42064303 3.1455827
2.5778089 0.38047621 3.0241563
2.6523871 0.34137753 2.9020114
2.7311115 0.30613717 2.7868607
2.5448024 0.41176072 3.0713563
2.6303527 0.37565818 2.9470592
2.7039201 0.33858082 2.8239694
2.7846744 0.30631471 2.7098351
2.5953343 0.40395033 2.9942427
2.6788182 0.36992702 2.8660209
2.7605724 0.33765733 2.7518675
2.8331861 0.30756432 2.6299224
2.6438446 0.3951655 2.9161489
2.7273438 0.36514151 2.7879992
2.8039756 0.33501601 2.6669784
2.871542 0.30699483 2.5421643
2.6954138 0.38731542 2.8410161
2.7799437 0.36026922 2.713901
2.8484726 0.33228064 2.5870688
2.9770112 0.31513762 2.5113263
2.7439692 0.38049397 2.7649577
2.8295105 0.3564437 2.6378782
2.912281 0.33318698 2.5228686
3.0316379 0.31725699 2.4373169
2.7904646 0.37273419 2.68592
2.8791146 0.35258204 2.5638542
2.9994528 0.33666652 2.477284
3.0771317 0.31853542 2.3564608
2.8380573 0.36588019 2.6118801
2.9642603 0.35408723 2.5172715
3.0388985 0.33500323 2.3944871
3.1297405 0.32068005 2.2814894
2.8836133 0.35906956 2.5358779
3.0149057 0.35118559 2.4452467
3.0965958 0.3360396 2.3244019
3.1803346 0.32384977 2.2055736
2.9799964 0.35930029 2.5020664
3.0644915 0.34734201 2.370223
3.1461782 0.33621344 2.2484512
3.2288876 0.32606298 2.1276782
3.0346706 0.35434848 2.4319293
3.1181629 0.34641117 2.2991774
3.1907015 0.33545965 2.1695774
3.2784634 0.32925442 2.0507815
3.0792117 0.34855935 2.3549647
3.1616747 0.34266147 2.2202682
3.2534771 0.33740553 2.1034145
4.4285598 0.46177652 2.6048338
3.1166382 0.34190401 2.2721152
3.2173643 0.34170538 2.1501844
4.4626803 0.47666904 2.7145014
4.5371528 0.47175497 2.5269549
3.1774127 0.33883989 2.2068996
3.2649395 0.33988672 2.0742352
4.4256215 0.46670562 2.5539606
4.5961494 0.47647113 2.4188988
3.223995 0.33400723 2.1319151
4.4182863 0.46914539 2.6421721
4.6625524 0.48795986 2.5439057
4.649107 0.48024505 2.3089385
3.266499 0.32826146 2.0529883
4.4773498 0.46677226 2.5389884
4.6053581 0.47619519 2.3767071
4.7424359 0.48953077 2.2173278
4.4622269 0.45598963 2.6411111
4.7789063 0.492199 2.5608099
4.6704359 0.47779983 2.2734828
4.9194102 0.50891984 2.1573448
4.5829315 0.45678183 2.5708416
4.6186562 0.46577987 2.3412578
4.9080324 0.50037581 2.2454333
4.9682603 0.51381654 2.0414793
4.6500044 0.45236227 2.4684711
4.7019334 0.46612111 2.2486734
4.8953452 0.49498171 2.1035252
4.9707384 0.51322305 1.9073769
4.6413445 0.43990076 2.3293607
5.0080996 0.49290958 2.2494259
5.0923872 0.51322675 2.0471468
4.9883943 0.51541233 1.7820435
4.7225718 0.43728587 2.2347605
4.9026017 0.4735899 2.0679901
5.1451864 0.51514578 1.9291528
5.0070729 0.51857984 1.6577089
4.9762292 0.45171538 2.2112644
5.1822519 0.4969607 2.0421684
5.2050486 0.51898515 1.8140626
5.0378284 0.52263176 1.5371655
4.9453821 0.43851388 2.0625529
5.3065443 0.5031538 1.9489217
5.2618928 0.52285326 1.6980289
5.045505 0.52483892 1.4130197
5.572659 0.49016297 2.1677785
5.3935099 0.50578791 1.8393039
5.3066378 0.52485526 1.5771866
5.0572033 0.52801353 1.2898163
5.7642097 0.49786192 2.0873044
5.465343 0.50760251 1.7229525
5.3402905 0.52698725 1.4515524
5.0528593 0.52928191 1.1648781
5.8962226 0.5002802 1.9798399
5.5411196 0.50945711 1.6035267
5.3538647 0.52726358 1.3222594
5.0896811 0.53625757 1.0472752
6.0080457 0.50095153 1.8627186
5.6219368 0.51225734 1.4860244
5.416678 0.53314602 1.2041497
5.0954185 0.53941739 0.92618376
6.1368489 0.50257969 1.7442963
5.6805811 0.51329976 1.3599026
5.3890524 0.52875137 1.0655404
5.0800767 0.54072541 0.8014524
6.2736187 0.50521511 1.6237425
5.7512693 0.51626259 1.2355905
5.4608903 0.53658307 0.9482975
5.1209202 0.54866838 0.68479186
6.3621001 0.50429487 1.4890237
5.8389611 0.52116406 1.1109952
5.4614482 0.53692424 0.81824911
5.1327014 0.5537703 0.56562322
6.4796257 0.50623393 1.3558131
5.9055376 0.52424967 0.98076034
5.4990902 0.54105955 0.69157618
5.0843725 0.5521791 0.44245753
6.589036 0.50731033 1.216737
5.965055 0.52641493 0.8476401
5.5247145 0.54525602 0.56412911
5.0761347 0.55637091 0.32264698
6.7053928 0.50941575 1.0745485
6.0415397 0.53055495 0.71223706
5.8989949 0.58765411 0.46085358
3.5571311 0.37625915 0.1587732
6.8437538 0.5134418 0.9319824
6.1270337 0.53766221 0.57671905
-0.02611593 -0.059798401 0.050936799
3.5355766 0.37683252 0.076159127
6.9589052 0.51574981 0.77881622
5.9870825 0.52196091 0.42400348
3.5304308 0.33086675 0.13044241
2.9938588 0.31328329 0.0021269079
6.1130939 0.44126803 0.54522568
3.5663791 0.28666314 0.18898959
3.5449007 0.33429232 0.048205569
2.9445786 0.31068629 -0.065020174
5.9730964 0.4236033 0.3904748
3.5327699 0.28231657 0.10451159
3.0232811 0.27759776 -0.022077678
2.9203241 0.31098098 -0.1315833
-0.02611593 -0.059798401 0.050936799
3.0320094 0.23370813 0.024980938
3.0559652 0.28375924 -0.093602404
2.6543112 0.28084192 -0.17716345
-0.02611593 -0.059798401 0.050936799
3.05268 0.23591329 -0.046390377
2.91273 0.2694293 -0.15520075
2.7060862 0.29186198 -0.24495646
3.0504835 0.18195626 0.0066927122
3.0852962 0.23912953 -0.12096814
2.6547272 0.24226102 -0.20087717
2.7178826 0.29699042 -0.31010664
3.0871058 0.18214056 -0.067014605
2.6873131 0.20142941 -0.16221276
2.7214582 0.25226358 -0.27096936
2.9980597 0.33783475 -0.41764992
3.0817091 0.18049401 -0.14096841
2.6381748 0.19668803 -0.22139859
1.9348665 0.16450641 -0.22481406
2.3375206 0.25457028 -0.37077314
2.7167327 0.15069218 -0.18368866
2.7507744 0.2086518 -0.29931676
2.3379774 0.21298029 -0.33852309
2.3604167 0.26156846 -0.43109566
2.7534189 0.15282187 -0.25436091
2.3614299 0.17130777 -0.30670521
2.3588805 0.21696807 -0.39786243
2.3882406 0.2696209 -0.49549279
2.7841027 0.15397325 -0.32493851
2.362344 0.17234975 -0.36472315
2.3966799 0.22400287 -0.46346512
2.6600673 0.3118374 -0.62186134
2.3608778 0.12165996 -0.32659969
2.3961511 0.17638132 -0.42930508
2.4912157 0.23810323 -0.54500771
2.5891953 0.30692172 -0.66663849
2.4006574 0.12368844 -0.39233005
2.4219408 0.18045969 -0.49473631
2.6702924 0.26336703 -0.65394038
2.4775319 0.29593715 -0.69875741
2.4274392 0.12576355 -0.45781615
2.7245502 0.21172965 -0.63088244
2.5585768 0.25343657 -0.6890403
2.0815237 0.24428546 -0.63225484
2.6145461 0.13992813 -0.56309873
2.6496041 0.20690072 -0.67958313
2.4509165 0.24343745 -0.72121644
2.4265265 0.30006632 -0.80576402
2.8163922 0.15529193 -0.68264049
2.5259616 0.19594112 -0.71047693
2.3841414 0.23941681 -0.76105237
-0.02611593 -0.059798401 0.050936799
2.6478436 0.14240374 -0.70772642
2.4034166 0.18588732 -0.73637319
2.4137924 0.24662505 -0.83450204
0.19239679 -0.027073922 -0.036592059
2.4963558 0.13139994 -0.73009676
2.4380214 0.19111413 -0.81195217
-0.02611593 -0.059798401 0.050936799
-0.02611593 -0.059798401 0.050936799
2.703886 0.14804956 -0.86672741
-0.02611593 -0.059798401 0.050936799
0.1833936 -0.033058692 -0.035531387
0.16538996 -0.029976515 -0.036138769
3.0234537 0.17323288 -1.0573196
0.18739197 -0.038090285 -0.034696989
-0.02611593 -0.059798401 0.050936799
-0.02611593 -0.059798401 0.050936799
-0.02611593 -0.059798401 0.050936799
-0.02611593 -0.059798401 0.050936799
0.15143992 -0.036997437 -0.032003187
0.14338221 -0.032897048 -0.035779431
0.1853313 -0.04404591 -0.036766838
0.17227843 -0.038927749 -0.040431116
-0.02611593 -0.059798401 0.050936799
-0.02611593 -0.059798401 0.050936799
-0.02611593 -0.059798401 0.050936799
-0.02611593 -0.059798401 0.050936799
0.13836348 -0.037878253 -0.035775572
0.12339672 -0.034843016 -0.034439992
0.16030928 -0.045937762 -0.037332781
0.14729387 -0.040855773 -0.038997728
-0.02611593 -0.059798401 0.050936799
-0.02611593 -0.059798401 0.050936799
-0.02611593 -0.059798401 0.050936799
-0.02611593 -0.059798401 0.050936799
0.11837799 -0.039824221 -0.034436133
0.10841034 -0.036806934 -0.03319452
0.1373096 -0.046855044 -0.036918614
0.12334264 -0.043823399 -0.035601825
-0.02611593 -0.059798401 0.050936799
-0.02611593 -0.059798401 0.050936799
-0.02611593 -0.059798401 0.050936799
-0.02611593 -0.059798401 0.050936799
0.10437663 -0.040773805 -0.034191083
0.098370798 -0.037734695 -0.03502395
0.11634301 -0.048815511 -0.034560718
0.1113074 -0.043744151 -0.037375666
-0.02611593 -0.059798401 0.050936799
-0.02611593 -0.059798401 0.050936799
-0.02611593 -0.059798401 0.050936799
-0.02611593 -0.059798401 0.050936799
0.091393806 -0.04174507 -0.032965172
0.086369053 -0.038691461 -0.034816481
0.10232293 -0.049747013 -0.035315335
0.097302109 -0.045693569 -0.037148636
-0.02611593 -0.059798401 0.050936799
-0.02611593 -0.059798401 0.050936799
-0.02611593 -0.059798401 0.050936799
-0.02611593 -0.059798401 0.050936799
0.079392076 -0.042701833 -0.032757703
0.076366961 -0.039655402 -0.034646597
0.090325125 -0.049703941 -0.03508985
0.085300379 -0.046650328 -0.036941163
-0.02611593 -0.059798401 0.050936799
-0.02611593 -0.059798401 0.050936799
-0.02611593 -0.059798401 0.050936799
-0.02611593 -0.059798401 0.050936799
0.068404958 -0.044680107 -0.031587381
0.069330804 -0.039594099 -0.03651439
0.078323387 -0.050660707 -0.034882382
0.078245491 -0.046570942 -0.039808616
-0.02611593 -0.059798401 0.050936799
-0.02611593 -0.059798401 0.050936799
-0.02611593 -0.059798401 0.050936799
-0.02611593 -0.059798401 0.050936799
0.061387517 -0.044636894 -0.032455511
0.058362406 -0.04159046 -0.034344401
0.07128723 -0.050599404 -0.036750175
0.069243215 -0.04753847 -0.039657522
-0.02611593 -0.059798401 0.050936799
-0.02611593 -0.059798401 0.050936799
-0.02611593 -0.059798401 0.050936799
-0.02611593 -0.059798401 0.050936799
0.057313353 -0.04455018 -0.036378995
0.051363688 -0.041565336 -0.034212869
0.06130385 -0.051581435 -0.035580624
0.056316551 -0.048564002 -0.035432618
-0.02611593 -0.059798401 0.050936799
-0.02611593 -0.059798401 0.050936799
-0.02611593 -0.059798401 0.050936799
-0.02611593 -0.059798401 0.050936799
0.049310889 -0.0455213 -0.036246691
0.043379944 -0.042554542 -0.033080895
0.053286593 -0.051534634 -0.03642996
0.052242391 -0.048477288 -0.039356101
-0.02611593 -0.059798401 0.050936799
-0.02611593 -0.059798401 0.050936799
-0.02611593 -0.059798401 0.050936799
-0.02611593 -0.059798401 0.050936799
0.038402587 -0.046572097 -0.031059697
0.039324503 -0.042485919 -0.036004726
0.043340664 -0.052552842 -0.033261079
0.040334277 -0.049524501 -0.034150321
-0.02611593 -0.059798401 0.050936799
-0.02611593 -0.059798401 0.050936799
-0.02611593 -0.059798401 0.050936799
-0.02611593 -0.059798401 0.050936799
0.035346974 -0.046507061 -0.034002312
0.034306694 -0.042449884 -0.036910433
0.038304131 -0.052498721 -0.035166461
0.036278836 -0.049455874 -0.037074145
-0.02611593 -0.059798401 0.050936799
-0.02611593 -0.059798401 0.050936799
-0.02611593 -0.059798401 0.050936799
-0.02611593 -0.059798401 0.050936799
0.02838177 -0.047517948 -0.03188948
0.026375199 -0.044493191 -0.032797497
0.031324137 -0.052491687 -0.034035262
0.031261027 -0.049419843 -0.037979852
-0.02611593 -0.059798401 0.050936799
-0.02611593 -0.059798401 0.050936799
-0.02611593 -0.059798401 0.050936799
-0.02611593 -0.059798401 0.050936799
-0.02611593 -0.059798401 0.050936799
0.022338483 -0.044442661 -0.034721665
0.02628761 -0.052437562 -0.035940636
-0.02611593 -0.059798401 0.050936799
-0.02611593 -0.059798401 0.050936799
-0.02611593 -0.059798401 0.050936799
-0.02611593 -0.059798401 0.050936799
-0.02611593 -0.059798401 0.050936799
-0.02611593 -0.059798401 0.050936799
-0.02611593 -0.059798401 0.050936799
0.021284591 -0.053419448 -0.0358647
-0.02611593 -0.059798401 0.050936799
-0.02611593 -0.059798401 0.050936799
-0.02611593 -0.059798401 0.050936799
-0.02611593 -0.059798401 0.050936799
-0.02611593 -0.059798401 0.050936799
-0.02611593 -0.059798401 0.050936799
0.014265056 -0.04434159 -0.038569987
0.016229341 -0.053347237 -0.038769733
-0.02611593 -0.059798401 0.050936799
-0.02611593 -0.059798401 0.050936799
-0.02611593 -0.059798401 0.050936799
-0.02611593 -0.059798401 0.050936799
-0.02611593 -0.059798401 0.050936799
-0.02611593 -0.059798401 0.050936799
-0.02611593 -0.059798401 0.050936799
-0.02611593 -0.059798401 0.050936799
-0.02611593 -0.059798401 0.050936799
-0.02611593 -0.059798401 0.050936799
-0.02611593 -0.059798401 0.050936799
-0.02611593 -0.059798401 0.050936799
-0.02611593 -0.059798401 0.050936799
-0.02611593 -0.059798401 0.050936799
-0.02611593 -0.059798401 0.050936799
-0.02611593 -0.059798401 0.050936799
-0.02611593 -0.059798401 0.050936799
-0.02611593 -0.059798401 0.050936799
-0.02611593 -0.059798401 0.050936799
-0.02611593 -0.059798401 0.050936799
-0.02611593 -0.059798401 0.050936799
-0.02611593 -0.059798401 0.050936799
-0.02611593 -0.059798401 0.050936799
-0.02611593 -0.059798401 0.050936799
-0.02611593 -0.059798401 0.050936799
-0.02611593 -0.059798401 0.050936799
-0.02611593 -0.059798401 0.050936799
-0.02611593 -0.059798401 0.050936799
-0.02611593 -0.059798401 0.050936799
-0.02611593 -0.059798401 0.050936799
-0.02611593 -0.059798401 0.050936799
-0.02611593 -0.059798401 0.050936799
-0.02611593 -0.059798401 0.050936799
-0.02611593 -0.059798401 0.050936799
-0.02611593 -0.059798401 0.050936799
-0.02611593 -0.059798401 0.050936799
-0.02611593 -0.059798401 0.050936799
-0.02611593 -0.059798401 0.050936799
-0.02611593 -0.059798401 0.050936799
-0.02611593 -0.059798401 0.050936799
-0.02611593 -0.059798401 0.050936799
-0.02611593 -0.059798401 0.050936799
-0.02611593 -0.059798401 0.050936799
-0.02611593 -0.059798401 0.050936799
-0.02611593 -0.059798401 0.050936799
-0.02611593 -0.059798401 0.050936799
-0.02611593 -0.059798401 0.050936799
-0.02611593 -0.059798401 0.050936799
-0.02611593 -0.059798401 0.050936799
-0.02611593 -0.059798401 0.050936799
-0.02611593 -0.059798401 0.050936799
-0.02611593 -0.059798401 0.050936799
-0.02611593 -0.059798401 0.050936799
-0.02611593 -0.059798401 0.050936799
-0.02611593 -0.059798401 0.050936799
-0.02611593 -0.059798401 0.050936799
-0.02611593 -0.059798401 0.050936799
-0.02611593 -0.059798401 0.050936799
-0.02611593 -0.059798401 0.050936799
-0.02611593 -0.059798401 0.050936799
-0.02611593 -0.059798401 0.050936799
-0.02611593 -0.059798401 0.050936799
-0.02611593 -0.059798401 0.050936799
-0.02611593 -0.059798401 0.050936799
-0.02611593 -0.059798401 0.050936799
-0.02611593 -0.059798401 0.050936799
-0.02611593 -0.059798401 0.050936799
-0.02611593 -0.059798401 0.050936799
-0.02611593 -0.059798401 0.050936799
-0.02611593 -0.059798401 0.050936799
-0.02611593 -0.059798401 0.050936799
-0.02611593 -0.059798401 0.050936799
-0.02611593 -0.059798401 0.050936799
-0.02611593 -0.059798401 0.050936799
-0.02611593 -0.059798401 0.050936799
-0.02611593 -0.059798401 0.050936799
-0.02611593 -0.059798401 0.050936799
-0.02611593 -0.059798401 0.050936799
-0.02611593 -0.059798401 0.050936799
-0.02611593 -0.059798401 0.050936799
-0.02611593 -0.059798401 0.050936799
-0.02611593 -0.059798401 0.050936799
-0.02611593 -0.059798401 0.050936799
-0.02611593 -0.059798401 0.050936799
-0.02611593 -0.059798401 0.050936799
-0.02611593 -0.059798401 0.050936799
-0.02611593 -0.059798401 0.050936799
-0.02611593 -0.059798401 0.050936799
-0.02611593 -0.059798401 0.050936799
-0.02611593 -0.059798401 0.050936799
-0.02611593 -0.059798401 0.050936799
-0.02611593 -0.059798401 0.050936799
-0.02611593 -0.059798401 0.050936799
-0.02611593 -0.059798401 0.050936799
-0.02611593 -0.059798401 0.050936799
-0.02611593 -0.059798401 0.050936799
-0.02611593 -0.059798401 0.050936799
-0.02611593 -0.059798401 0.050936799
-0.02611593 -0.059798401 0.050936799
-0.02611593 -0.059798401 0.050936799
-0.02611593 -0.059798401 0.050936799
-0.02611593 -0.059798401 0.050936799
-0.02611593 -0.059798401 0.050936799
-0.02611593 -0.059798401 0.050936799
-0.02611593 -0.059798401 0.050936799
-0.02611593 -0.059798401 0.050936799
-0.02611593 -0.059798401 0.050936799
-0.02611593 -0.059798401 0.050936799
-0.02611593 -0.059798401 0.050936799
-0.02611593 -0.059798401 0.050936799
-0.02611593 -0.059798401 0.050936799
-0.02611593 -0.059798401 0.050936799
-0.02611593 -0.059798401 0.050936799
-0.02611593 -0.059798401 0.050936799
-0.02611593 -0.059798401 0.050936799
-0.02611593 -0.059798401 0.050936799
-0.02611593 -0.059798401 0.050936799
-0.02611593 -0.059798401 0.050936799
-0.02611593 -0.059798401 0.050936799
-0.02611593 -0.059798401 0.050936799
-0.02611593 -0.059798401 0.050936799
-0.02611593 -0.059798401 0.050936799
-0.02611593 -0.059798401 0.050936799
-0.02611593 -0.059798401 0.050936799
-0.02611593 -0.059798401 0.050936799
-0.02611593 -0.059798401 0.050936799
-0.02611593 -0.059798401 0.050936799
-0.02611593 -0.059798401 0.050936799
-0.02611593 -0.059798401 0.050936799
-0.02611593 -0.059798401 0.050936799
-0.02611593 -0.059798401 0.050936799
-0.02611593 -0.059798401 0.050936799
-0.02611593 -0.059798401 0.050936799
-0.02611593 -0.059798401 0.050936799
-0.02611593 -0.059798401 0.050936799
-0.02611593 -0.059798401 0.050936799
-0.02611593 -0.059798401 0.050936799
-0.02611593 -0.059798401 0.050936799
-0.02611593 -0.059798401 0.050936799
-0.02611593 -0.059798401 0.050936799
-0.02611593 -0.059798401 0.050936799
-0.02611593 -0.059798401 0.050936799
-0.02611593 -0.059798401 0.050936799
-0.02611593 -0.059798401 0.050936799
-0.02611593 -0.059798401 0.050936799
-0.02611593 -0.059798401 0.050936799
-0.02611593 -0.059798401 0.050936799
-0.02611593 -0.059798401 0.050936799
-0.02611593 -0.059798401 0.050936799
-0.02611593 -0.059798401 0.050936799
-0.02611593 -0.059798401 0.050936799
-0.02611593 -0.059798401 0.050936799
-0.069776662 -0.049003094 -0.039080992
-0.02611593 -0.059798401 0.050936799
-0.02611593 -0.059798401 0.050936799
-0.02611593 -0.059798401 0.050936799
-0.02611593 -0.059798401 0.050936799
-0.02611593 -0.059798401 0.050936799
-0.02611593 -0.059798401 0.050936799
-0.02611593 -0.059798401 0.050936799
-0.02611593 -0.059798401 0.050936799
-0.02611593 -0.059798401 0.050936799
-0.02611593 -0.059798401 0.050936799
-0.02611593 -0.059798401 0.050936799
-0.02611593 -0.059798401 0.050936799
-0.074730434 -0.047021668 -0.036951683
-0.02611593 -0.059798401 0.050936799
-0.02611593 -0.059798401 0.050936799
-0.079733454 -0.048003554 -0.036875747
-0.02611593 -0.059798401 0.050936799
-0.02611593 -0.059798401 0.050936799
-0.02611593 -0.059798401 0.050936799
-0.02611593 -0.059798401 0.050936799
-0.078692265 -0.047043487 -0.034877196
-0.076669976 -0.046068925 -0.033897098
-0.084665507 -0.050057624 -0.032819189
-0.085732356 -0.047982018 -0.036763005
-0.02611593 -0.059798401 0.050936799
-0.02611593 -0.059798401 0.050936799
-0.02611593 -0.059798401 0.050936799
-0.02611593 -0.059798401 0.050936799
-0.02611593 -0.059798401 0.050936799
-0.080613084 -0.046108834 -0.03082294
-0.091697745 -0.048996493 -0.034668956
-0.089675456 -0.048021931 -0.033688858
-0.02611593 -0.059798401 0.050936799
-0.02611593 -0.059798401 0.050936799
-0.02611593 -0.059798401 0.050936799
-0.02611593 -0.059798401 0.050936799
-0.087597005 -0.047101632 -0.029709775
-0.084612355 -0.046094481 -0.030747779
-0.0976592 -0.049011141 -0.032556895
-0.098726049 -0.046935532 -0.036500711
-0.02611593 -0.059798401 0.050936799
-0.02611593 -0.059798401 0.050936799
-0.02611593 -0.059798401 0.050936799
-0.02611593 -0.059798401 0.050936799
-0.09564779 -0.046018824 -0.032540418
-0.092644408 -0.045029767 -0.032578774
-0.10158359 -0.04906914 -0.028483078
-0.10368768 -0.046953764 -0.034407429
-0.02611593 -0.059798401 0.050936799
-0.02611593 -0.059798401 0.050936799
-0.02611593 -0.059798401 0.050936799
-0.02611593 -0.059798401 0.050936799
-0.10164669 -0.045997292 -0.032427672
-0.099643126 -0.045004643 -0.032447241
-0.11265253 -0.047957476 -0.032257017
-0.11170102 -0.045907136 -0.035238747
-0.02611593 -0.059798401 0.050936799
-0.02611593 -0.059798401 0.050936799
-0.02611593 -0.059798401 0.050936799
-0.02611593 -0.059798401 0.050936799
-0.11065983 -0.044947073 -0.033240203
-0.10666057 -0.04496143 -0.033315364
-0.11557709 -0.048019066 -0.028201994
-0.11969955 -0.045878425 -0.035088424
-0.02611593 -0.059798401 0.050936799
-0.02611593 -0.059798401 0.050936799
-0.02611593 -0.059798401 0.050936799
-0.02611593 -0.059798401 0.050936799
-0.11155124 -0.046051845 -0.027241457
-0.11262202 -0.044976078 -0.031203296
-0.12862301 -0.04591848 -0.030920662
-0.12767544 -0.044867974 -0.033920422
-0.02611593 -0.059798401 0.050936799
-0.02611593 -0.059798401 0.050936799
-0.02611593 -0.059798401 0.050936799
-0.02611593 -0.059798401 0.050936799
-0.12258275 -0.044976365 -0.02901607
-0.11758367 -0.04499431 -0.029110026
-0.13558429 -0.045929536 -0.028789811
-0.13665506 -0.044853762 -0.03275165
-0.02611593 -0.059798401 0.050936799
-0.02611593 -0.059798401 0.050936799
-0.02611593 -0.059798401 0.050936799
-0.02611593 -0.059798401 0.050936799
-0.1325957 -0.043922555 -0.029809799
-0.13063352 -0.043893557 -0.031846713
-0.14655963 -0.044908319 -0.027565431
-0.14968228 -0.042771269 -0.034470651
-0.02611593 -0.059798401 0.050936799
-0.02611593 -0.059798401 0.050936799
-0.02611593 -0.059798401 0.050936799
-0.02611593 -0.059798401 0.050936799
-0.14157534 -0.043908343 -0.02864103
-0.13355808 -0.043955144 -0.02779169
-0.1625863 -0.042815056 -0.029228061
-0.15458776 -0.042843767 -0.029378388
-0.02611593 -0.059798401 0.050936799
-0.02611593 -0.059798401 0.050936799
-0.02611593 -0.059798401 0.050936799
-0.02611593 -0.059798401 0.050936799
-0.15660611 -0.042818502 -0.030340474
-0.14657049 -0.042890567 -0.028529059
-0.17959404 -0.040736295 -0.029872254
-0.17565097 -0.040696383 -0.0329464
-0.02611593 -0.059798401 0.050936799
-0.02611593 -0.059798401 0.050936799
-0.02611593 -0.059798401 0.050936799
-0.02611593 -0.059798401 0.050936799
-0.1665629 -0.041818962 -0.028135229
-0.16160126 -0.041800722 -0.030228503
-0.19960126 -0.038646773 -0.030460075
-0.1886072 -0.039686076 -0.030684788
-0.02611593 -0.059798401 0.050936799
-0.02611593 -0.059798401 0.050936799
-0.02611593 -0.059798401 0.050936799
-0.02611593 -0.059798401 0.050936799
-0.1835746 -0.040740028 -0.028797425
-0.17256179 -0.041797426 -0.028022487
-0.2226079 -0.036546476 -0.030991513
-0.21061404 -0.037589371 -0.031235017
-0.02611593 -0.059798401 0.050936799
-0.02611593 -0.059798401 0.050936799
-0.02611593 -0.059798401 0.050936799
-0.02611593 -0.059798401 0.050936799
-0.20558143 -0.038643323 -0.029347662
-0.18452217 -0.041790538 -0.025797673
-0.25059104 -0.033446498 -0.030411322
-0.23861979 -0.035471134 -0.031672504
-0.02611593 -0.059798401 0.050936799
-0.02611593 -0.059798401 0.050936799
-0.02611593 -0.059798401 0.050936799
-0.02611593 -0.059798401 0.050936799
-0.23260608 -0.036510587 -0.030803606
-0.21357997 -0.038614616 -0.029197339
-0.96035326 0.050126139 -0.23968187
-0.26660287 -0.032371152 -0.031092316
-0.02611593 -0.059798401 0.050936799
-0.02611593 -0.059798401 0.050936799
-0.97499084 0.050836101 -0.22038844
-0.02611593 -0.059798401 0.050936799
-0.25655639 -0.034460969 -0.028317273
-0.24158965 -0.037496205 -0.029652853
-0.98561043 0.051513631 -0.20017047
-0.97909558 0.047941413 -0.22536562
-0.02611593 -0.059798401 0.050936799
-0.02611593 -0.059798401 0.050936799
-0.99621141 0.052173071 -0.17895289
-0.99875093 0.048687425 -0.2069779
-0.98321193 0.042047236 -0.23039687
-0.26250696 -0.036493365 -0.02524158
-1.0037941 0.052803647 -0.15679199
-0.9952873 0.047224592 -0.18206075
-0.99784958 0.042757209 -0.21110344
-0.02611593 -0.059798401 0.050936799
-1.0214084 0.054506134 -0.13642451
-1.0079105 0.046909466 -0.16182326
-1.0044403 0.04138454 -0.18899736
-0.99897838 0.033852775 -0.21624511
-1.0360234 0.056197841 -0.11611339
-1.024525 0.04860837 -0.14147456
-1.0140306 0.040022641 -0.16683495
-1.0106056 0.032534231 -0.19604443
-1.0415877 0.056803156 -0.092990428
-1.0431434 0.049314603 -0.12110629
-1.0286533 0.039714694 -0.14655986
-1.0141822 0.030132877 -0.17301309
-1.0591834 0.058487553 -0.071623273
-1.0406983 0.047873463 -0.097170025
-1.0392394 0.039356213 -0.12436061
-1.0368222 0.029871728 -0.15358736
-1.0747421 0.060128581 -0.048294388
-1.0542798 0.048525568 -0.074896403
-1.0458262 0.038983375 -0.10223655
-1.0504305 0.028542273 -0.13234942
-1.0883236 0.0607807 -0.026020758
-1.079874 0.050238673 -0.053378925
-1.0533981 0.037596207 -0.079112038
-1.0499889 0.026108481 -0.10839359
-1.105878 0.063428745 -0.0026362687
-1.0884417 0.049854927 -0.03021761
-1.0689832 0.037255671 -0.056818835
-1.0565609 0.024717726 -0.085287876
-1.1194222 0.064044677 0.021636683
-1.110018 0.05153558 -0.0077756271
-1.0815502 0.036886279 -0.03358236
-1.0791636 0.024420399 -0.063862815
-1.1329437 0.065642357 0.046927314
-1.1265428 0.0521442 0.017553356
-1.1061299 0.037577875 -0.011102036
-1.083721 0.022004539 -0.039813027
-1.1484648 0.067247219 0.072255537
-1.1270746 0.051695563 0.042563677
-1.119674 0.038193811 0.01317092
-1.0992727 0.020628 -0.015538529
-1.1499925 0.06780199 0.09730266
-1.157589 0.054354075 0.068191759
-1.1322035 0.037788238 0.038406719
-1.1188385 0.020283731 0.0078294948
-1.1694901 0.07040295 0.12372372
-1.1531445 0.052905753 0.092090443
-1.1417377 0.036372069 0.063568145
-1.1553783 0.020982206 0.032534622
-1.1919687 0.072996564 0.1512008
-1.1816217 0.055520929 0.11968028
-1.1692566 0.03802 0.089121833
-0.02611593 -0.059798401 0.050936799
-1.1894635 0.072500981 0.17815408
-1.1911106 0.056068234 0.14687705
-1.1677738 0.03654626 0.11507621
-1.156435 0.017067358 0.083500862
-1.2049247 0.075051412 0.20649928
-1.1946043 0.055594184 0.17394306
-1.1862648 0.036126044 0.14242408
-1.161955 0.014618914 0.10956876
-1.2153717 0.076565966 0.23573218
-1.2170305 0.057133719 0.20440111
-1.1917396 0.035641089 0.17052734
-1.2014008 0.01523772 0.13932857
-1.2397751 0.07909441 0.2672455
-1.2225052 0.056648761 0.23250437
-1.2131886 0.036195293 0.19994892
-0.02611593 -0.059798401 0.050936799
-0.02611593 -0.059798401 0.050936799
-1.2289569 0.057149123 0.2616441
-0.02611593 -0.059798401 0.050936799
-0.02611593 -0.059798401 0.050936799
-0.02611593 -0.059798401 0.050936799
-0.02611593 -0.059798401 0.050936799
-1.2201239 0.034193099 0.2570619
-0.02611593 -0.059798401 0.050936799
-0.02611593 -0.059798401 0.050936799
-1.3135244 0.064117819 0.33737913
-1.2813666 0.03770946 0.2972858
-1.213321 0.0082628438 0.25146359
-1.353987 0.094906442 0.41371953
-1.2910496 0.06156889 0.36292094
-0.02611593 -0.059798401 0.050936799
-0.02611593 -0.059798401 0.050936799
-3.1260586 0.30282712 0.97284806
-1.3690675 0.068946593 0.41453254
-0.02611593 -0.059798401 0.050936799
-0.02611593 -0.059798401 0.050936799
-3.0789139 0.29954085 1.0339267
-3.130388 0.23792486 0.96775335
-1.3712186 0.039994895 0.41204828
-1.2784029 0.0056583858 0.35466999
-3.1341083 0.30704352 1.129128
-3.0712948 0.2316322 1.0265532
-3.1277344 0.16899818 0.96245509
-0.02611593 -0.059798401 0.050936799
-3.2021198 0.31742951 1.2336247
-3.1364205 0.23709874 1.125905
-3.0775647 0.16266549 1.0254226
-3.1231315 0.092083789 0.95597535
-3.2680759 0.32775408 1.3410827
-3.2084281 0.24348174 1.2314044
-3.1446869 0.16412181 1.1257396
-3.0809267 0.084743783 1.0210745
-3.3428576 0.33894801 1.4577249
-3.2654428 0.24881104 1.3366039
-3.2087307 0.1664948 1.2300169
-3.1361046 0.082193889 1.1190946
-3.4324229 0.35199639 1.5856812
-3.3461642 0.25595477 1.4572854
-3.2776427 0.16875914 1.3413858
-3.2120492 0.080502123 1.2295234
-3.4970939 0.36304587 1.7081333
-3.4347305 0.26398236 1.5861324
-3.3523848 0.17088221 1.4618645
-3.2799585 0.078745462 1.3418012
-4.7391372 0.51788151 2.4334345
-3.4993429 0.27096015 1.7125113
-3.4369717 0.17389628 1.5905463
-3.3576784 0.076843798 1.4642634
-4.6228037 0.50813156 2.5051045
-4.7355504 0.38879868 2.4360332
-3.4926646 0.17489706 1.7136489
-3.4372668 0.074822687 1.5937607
-4.5975685 0.50889599 2.6236858
-4.6003866 0.37512594 2.4992766
-4.7200046 0.25469169 2.4373167
-4.8428016 0.12239689 2.3681993
-3.4194586 0.36640391 2.0598598
-4.6196632 0.37859908 2.6437492
-4.5937524 0.2439784 2.5047817
-4.6926541 0.10968822 2.4301794
-3.2712638 0.35060394 2.0718033
-3.426573 0.26517487 2.0731664
-4.6475849 0.24414352 2.6738503
-4.5871172 0.098778948 2.5130339
-3.2209847 0.34818015 2.1398411
-4.5995951 0.37766048 2.9134479
-3.423739 0.16094662 2.0842319
-4.7418303 0.097243018 2.7429807
-3.1717057 0.3457599 2.2078979
-3.1816106 0.24325342 2.1262014
-4.5661182 0.23150906 2.9131773
-3.4120016 0.046742033 2.0919487
-2.633131 0.27970332 1.9265242
-4.3700218 0.35826182 3.0518458
-3.1836176 0.14089805 2.1453938
-4.5504494 0.076206625 2.9250789
-4.1781268 0.48622772 3.1796112
-2.6272347 0.19146156 1.9378213
-4.3384323 0.21200897 3.0576108
-4.4360266 0.065373585 3.0017664
-4.0759106 0.47965407 3.2446005
-4.1475606 0.33899677 3.1843772
-2.6233039 0.102191 1.9511374
-3.2774184 0.027773689 2.3381693
-3.9727359 0.47211331 3.3075535
-4.0532107 0.33232525 3.2565145
-2.7635126 0.10910638 2.152956
-2.6153831 0.0058891997 1.9652519
-2.388104 0.26181632 2.0886679
-3.941098 0.32380655 3.3162816
-4.0185518 0.18498947 3.2662039
-2.7358179 0.0039152205 2.1565359
-1.8968278 0.19819084 1.7382002
-2.379122 0.17147367 2.1048713
-3.9211926 0.17628944 3.3392482
-3.9887989 0.027546711 3.2828043
-1.8433439 0.19451274 1.7641412
-1.8838961 0.12393971 1.7486185
-1.9146377 0.053511672 1.7229114
-2.4139471 -0.011264645 2.0962145
-1.8409053 0.19713371 1.8401687
-1.8313559 0.12021092 1.7775772
-1.864026 0.048717882 1.7558882
-1.8997033 -0.024764057 1.7342197
-2.0002227 0.22433949 2.0857267
-1.9132975 0.12961969 1.9393363
-1.8222549 0.045811318 1.7970675
-1.8461108 -0.029550524 1.7661405
-2.1984005 0.25762033 2.3911428
-2.0871942 0.14844649 2.2090242
-1.986567 0.054965746 2.0463939
-1.8976109 -0.03176257 1.9001101
-3.3065832 0.42763564 3.7434249
-3.3667305 0.28143311 3.7108951
-2.1857977 0.065217935 2.3534138
-2.0695863 -0.032939531 2.1694
-3.2154546 0.42219177 3.8036406
-3.2627614 0.27408767 3.7628334
-3.3218632 0.12984505 3.7323203
-3.3722191 -0.021211606 3.6895161
-3.1242886 0.41671172 3.8658557
-3.1725202 0.26853886 3.8290656
-3.2276082 0.12326398 3.7994592
-3.2769265 -0.027832434 3.7586358
-3.0321786 0.41128239 3.9250529
-3.082279 0.26299009 3.8952985
-3.1235645 0.11584615 3.8553963
-3.1806195 -0.035474777 3.8287179
-2.945008 0.40681654 3.9873612
-2.9822724 0.25562283 3.949311
-3.0332673 0.11024311 3.9246275
-3.077482 -0.042979434 3.889672
-2.8539355 0.401427 4.0445781
-2.8920834 0.25112811 4.0125628
-2.9361253 0.10375981 3.9857121
-2.9773777 -0.049437329 3.9487009
-2.7638402 0.39702272 4.1028314
-2.8019171 0.24565169 4.0747962
-2.8409824 0.097283691 4.0468345
-2.8840289 -0.056105241 4.0208569
-2.674726 0.39260396 4.1621027
-2.7049062 0.23929501 4.1288834
-2.746798 0.091774821 4.109993
-2.7848682 -0.0626138 4.0829039
-2.5787895 0.38632321 4.2122102
-2.6156607 0.23474964 4.1951532
-2.6486747 0.085306033 4.1700592
-2.6837642 -0.069075279 4.1419139
-2.4925396 0.38278848 4.278554
-2.5215516 0.22931311 4.2543125
-2.5515511 0.078840815 4.230144
-2.5884156 -0.075750373 4.2140322
-2.4043467 0.37930083 4.3418612
-2.4264421 0.22387302 4.3134532
-2.4583254 0.074299179 4.2953386
-2.4892509 -0.081259102 4.2760968
-2.3083687 0.37398374 4.3939853
-2.3381407 0.21927693 4.382741
-2.3611641 0.067797795 4.3574228
-2.3890865 -0.086771429 4.3381433
-2.2201757 0.37049603 4.4572926
-2.2430463 0.21485475 4.4408998
-2.2649767 0.063281566 4.4205618
-2.2928128 -0.093377762 4.4062438
-2.1281178 0.36612076 4.5135093
-2.1460123 0.20947981 4.4960046
-2.1688116 0.057783604 4.4826827
-2.1935358 -0.09899503 4.4743066
-2.0350232 0.36170578 4.5717058
-2.0537636 0.20592353 4.5622354
-2.0744357 0.053093672 4.5558558
-2.0904467 -0.10444576 4.5322981
-1.9437933 0.35817116 4.6369557
-1.9566363 0.20045814 4.6223383
-1.973384 0.047686286 4.6118851
-1.9911326 -0.1100992 4.6023602
-0.98466599 0.15804332 2.4906509
-0.99000996 0.075093478 2.4882495
-1.8731259 0.042083524 4.6789298
-1.8878562 -0.11573084 4.6703477
-0.89981097 0.14778571 2.4308565
-0.90795511 0.067665227 2.4385622
-0.93520004 -0.009234339 2.4936998
-1.7817639 -0.1201925 4.7283001
-0.82283807 0.13844812 2.3772283
-0.82512528 0.060450457 2.3768599
-0.83513719 -0.014772216 2.3906913
-1.6793565 -0.12594716 4.8033047
-0.75268751 0.1309725 2.3327644
-0.75206107 0.055054184 2.3273776
-0.76757336 -0.017617799 2.367367
-1.5741329 -0.13053186 4.8682733
-0.67982626 0.12175778 2.2732134
-0.68195891 0.049632486 2.2799511
-0.69916338 -0.021322073 2.3360085
-1.4648951 -0.13614884 4.9341488
-0.61469358 0.11431818 2.227844
-0.61574364 0.044116616 2.2385976
-0.62058306 -0.025269754 2.2604403
-1.3556387 -0.14178391 5.0010242
-0.55256027 0.10688936 2.1825309
-0.54881334 0.037868667 2.1822121
-0.54886663 -0.028319091 2.1920192
-1.247131 -0.14565088 5.0809493
-0.49521622 0.10027934 2.1483262
-0.48859298 0.033374138 2.1409895
-1.1424286 0.0098855048 5.1408229
-1.1328342 -0.15034024 5.1497483
-0.43800327 0.093795925 2.1071239
-0.45954147 0.035304859 2.2495172
-1.0329809 0.0050693825 5.2177124
-1.0203122 -0.15523949 5.2305799
-0.38565436 0.088203683 2.0730309
-0.41663173 0.034267757 2.2977114
-0.92069852 0.0014050975 5.2855673
-0.90309083 -0.15986726 5.2953238
-0.33438021 0.082687378 2.0349584
-0.36378431 0.031204667 2.2896638
-1.3442824 0.03659822 9.0304031
-1.293012 -0.23495731 8.9365005
-0.28774151 0.078844979 2.0160091
-0.30733469 0.02750729 2.2605302
-1.0808355 0.024810046 8.6281214
-1.0263237 -0.23293951 8.5444107
-0.24877095 0.078767791 2.0672956
-0.25213218 0.023048811 2.2184017
-0.83988988 0.01463376 8.2522993
-0.78260827 -0.22985744 8.1537704
-0.20872177 0.079614498 2.1225798
-0.19970055 0.019383866 2.1883435
-0.62006021 0.0036862344 7.9238739
-0.55991143 -0.22663723 7.8155446
-0.16653794 0.081327245 2.1848421
-0.15390371 0.018444534 2.2304833
-0.41607004 -0.0053489059 7.6037827
-0.35774261 -0.22379386 7.5027051
-0.35431397 0.42320108 7.5083461
-0.28861436 0.19935197 7.4280396
-0.23046932 -0.012895048 7.3160734
-0.17021535 -0.22124037 7.2091408
-0.18505071 0.39701352 7.2596192
-0.11974633 0.18257895 7.1564827
-0.060262665 -0.019962803 7.0606723
0.00078698993 -0.21807823 6.9409051
-0.027571425 0.37266976 7.0221496
0.03950581 0.16747966 6.9051428
0.099945828 -0.02699466 6.80546
0.15946576 -0.21552067 6.7089024
0.12108587 0.35019505 6.7938824
0.18721344 0.15298918 6.6780381
0.24883839 -0.032634996 6.5864954
0.31122068 -0.21301033 6.481029
0.26091725 0.32858983 6.5747995
0.32837951 0.14008929 6.4750929
0.3888489 -0.037351742 6.3737168
0.45025888 -0.21072468 6.2683954
0.39314714 0.3076331 6.3768778
0.45962626 0.12815279 6.2763524
0.51985705 -0.043036014 6.1610894
0.5814147 -0.20751899 6.0619273
0.51765245 0.28945142 6.1931553
0.58494902 0.11616546 6.0817232
0.64436114 -0.047165807 5.9746199
0.7046656 -0.20437507 5.8606086
0.63294959 0.27050114 5.9985886
0.70152068 0.10497512 5.9002762
0.76088548 -0.051284991 5.7893009
0.82141942 -0.20269425 5.6863942
0.74278766 0.25506529 5.8321962
0.81123263 0.095682949 5.7259955
0.8739574 -0.054914579 5.6330657
-0.02611593 -0.059798401 0.050936799
0.84975344 0.23851371 5.6728401
-0.02611593 -0.059798401 0.050936799
-0.02611593 -0.059798401 0.050936799
0.19561675 -0.088615358 1.1576391
-0.02611593 -0.059798401 0.050936799
1.0183929 0.077439569 5.4166818
1.0812023 -0.061196163 5.3259678
0.22038749 -0.088488005 1.1451735
1.047161 0.21103644 5.3785472
0.26839438 -0.02724818 1.3994687
0.28378594 -0.061847422 1.3735458
0.24082196 -0.088020705 1.1147891
0.27431697 0.0059236567 1.3889543
1.2037295 0.060112186 5.116797
1.266601 -0.067543499 5.0272803
0.26346204 -0.087759554 1.0953634
1.2257032 0.18350074 5.091609
1.2922812 0.053102531 4.986968
-0.02611593 -0.059798401 0.050936799
0.29360631 -0.088011935 1.1027969
1.3112916 0.17144844 4.9647455
1.3747587 0.046186745 4.8532534
0.36354628 -0.062961988 1.3070098
0.31634003 -0.087841243 1.0883695
1.3898107 0.16049343 4.834033
1.45754 0.03998138 4.7355518
1.5204289 -0.073640496 4.6442881
0.34646559 -0.088075534 1.0948033
1.4707037 0.14916945 4.7232761
1.536378 0.033736102 4.6209235
-0.02611593 -0.059798401 0.050936799
0.37653494 -0.088255554 1.0982383
1.5475637 0.13889582 4.6106133
-0.02611593 -0.059798401 0.050936799
0.42257616 -0.064299144 1.2018448
0.41390261 -0.088750124 1.1175364
-0.02611593 -0.059798401 0.050936799
0.42978936 -0.038437225 1.2081797
1.7458652 -0.079212442 4.293848
1.8046007 -0.17460597 4.1909876
0.42981657 -0.01236929 1.2046494
1.7570342 0.016930729 4.2843742
1.810613 -0.080299795 4.1735749
1.8725324 -0.17186756 4.0797276
1.7582495 0.11005602 4.2780342
1.8229537 0.01165957 4.1740079
