# .PCD v0.7 - Point Cloud Data file format
VERSION 0.7
FIELDS x y z
SIZE 4 4 4
TYPE F F F
COUNT 1 1 1
WIDTH 1419
HEIGHT 1
VIEWPOINT 0 0 0 1 0 0 0
POINTS 1419
DATA ascii
-1.556513 0.63172555 1.0834489
-1.6895108 0.63226569 1.1379672
-1.8334731 0.63180929 1.1946735
-2.0239875 0.63812244 1.2743816
-1.5339029 0.63004982 1.1160064
-1.6687655 0.63147038 1.1775777
-1.8136156 0.63090903 1.2403009
-2.0000033 0.6360814 1.3269134
-1.5112931 0.62837416 1.1485637
-1.6430852 0.6287117 1.2140595
-1.7878001 0.62902349 1.2837982
-1.9770378 0.63406181 1.3784646
-1.4886792 0.62769824 1.1811391
-1.6174235 0.62597108 1.2495414
-1.7669426 0.62811965 1.329407
-1.95205 0.633017 1.4309956
-1.4660653 0.62702233 1.2137145
-1.5936977 0.62518311 1.2880962
-1.7362108 0.62428892 1.3687755
-1.9280806 0.63199383 1.4825457
-1.4395162 0.62438673 1.2431798
-1.5640929 0.62248248 1.320504
-1.7103916 0.62340331 1.4122909
-1.9011157 0.62996006 1.5340215
-1.4149443 0.62274003 1.2737004
-1.5413481 0.6216799 1.360077
-1.6845723 0.62251765 1.4558061
-1.8672496 0.62699187 1.5803496
-1.3913306 0.62206054 1.3062569
-1.5117247 0.61896116 1.3934845
-1.6558138 0.62067568 1.496248
-1.8392811 0.62595433 1.6318246
-1.3667132 0.62237728 1.3388127
-1.4811202 0.61625683 1.4258736
-1.6387901 0.62364072 1.5500013
-1.8191266 0.62878203 1.6925189
-1.3392017 0.61977422 1.3662599
-1.452474 0.61452341 1.4603176
-1.6070135 0.62176996 1.5913864
-1.7842381 0.62679183 1.7398458
-1.312626 0.61912018 1.3967609
-1.4238238 0.61378986 1.4947796
-1.5674369 0.61705184 1.6225706
-1.7385545 0.62094378 1.7768972
-1.2851106 0.61751693 1.424226
-1.391257 0.61111456 1.5251317
-1.5317585 0.61425728 1.6588645
-1.6997457 0.61801183 1.8201323
-1.2575579 0.61587745 1.4536905
-1.3625882 0.61036289 1.5605934
-1.4950989 0.61147714 1.6941398
-1.6579784 0.61410552 1.8612934
-1.2280427 0.61426711 1.481118
-1.3309798 0.60865486 1.5929816
-1.461356 0.61063516 1.7335061
-1.6162075 0.61119896 1.9024729
-1.199505 0.61364204 1.5095822
-1.3003488 0.60793215 1.6264066
-1.425655 0.60882235 1.7708175
-1.5753762 0.60924155 1.9466879
-1.1680318 0.6110608 1.5349548
-1.2716346 0.60914397 1.6639035
-1.388954 0.60700595 1.8081102
-1.5365219 0.60827303 1.9919583
-1.1414297 0.61238831 1.5664914
-1.2361059 0.60649413 1.6921998
-1.3493098 0.60523301 1.8423474
-1.4898494 0.60443926 2.0280273
-1.1090165 0.60885793 1.5888282
-1.20349 0.60678214 1.7246054
-1.3145859 0.60440552 1.8806955
-1.4538518 0.60635436 2.0804057
-1.0775542 0.60829449 1.6132371
-1.1689385 0.60511762 1.7539384
-1.2778584 0.60457069 1.9190238
-1.4032547 0.60257852 2.112401
-1.0440999 0.6057241 1.6375725
-1.1343455 0.60441673 1.7852887
-1.2381915 0.60377955 1.9542787
-1.3594575 0.6016463 2.1545784
-1.0126377 0.60516059 1.6619817
-1.0997674 0.60473377 1.8156573
-1.2004415 0.60492277 1.993606
-1.3156377 0.6016959 2.1977735
-0.98405445 0.60649902 1.692481
-1.0651332 0.60499656 1.8490249
-1.1539977 0.60030615 2.0176609
-1.2630599 0.59793091 2.2287314
-0.94961536 0.6049431 1.715816
-1.024699 0.6024192 1.8722291
-1.1084894 0.59763855 2.04477
-1.214376 0.59708935 2.264817
-0.91617596 0.60339063 1.7391697
-0.9852646 0.59984541 1.8954521
-1.0658605 0.59687275 2.0779691
-1.1704546 0.5990482 2.3130465
-0.88366848 0.60478705 1.7655954
-0.94674742 0.59920251 1.9227285
-1.0251859 0.59807765 2.1132414
-1.110227 0.59258062 2.3258064
-0.84733111 0.60131466 1.7838585
-0.90822625 0.59955949 1.9500232
-0.97773433 0.59545714 2.1373136
-1.0575852 0.59076107 2.3597991
-0.81382376 0.60270751 1.8102652
-0.86393166 0.5950948 1.9661185
-0.93412048 0.59570563 2.1695125
-1.0087959 0.59282857 2.4009373
-0.77648264 0.60023141 1.8285276
-0.82541043 0.59545171 1.993413
-0.88566512 0.59408134 2.1935842
-0.95426673 0.59111035 2.4288945
-0.74011874 0.59874058 1.8478262
-0.78107452 0.59195065 2.0115256
-0.83527017 0.59150428 2.214601
-0.89681697 0.58845389 2.4527791
-0.70465308 0.59916258 1.8721781
-0.74059117 0.5923366 2.0367832
-0.79059243 0.59369463 2.2498162
-0.81291908 0.56511164 2.3977673
-0.66634572 0.59771883 1.8884403
-0.69910794 0.59271896 2.062022
-0.74119347 0.59212101 2.27087
-0.73119324 0.54093951 2.3337781
-0.62989902 0.59815532 1.9117737
-0.65764344 0.59311938 2.086261
-0.69079459 0.59054375 2.2919052
-0.65908623 0.52245861 2.2890787
-0.59348983 0.59862792 1.9331077
-0.61048055 0.58877057 2.0953023
-0.62643498 0.57385612 2.2603877
-0.58435524 0.49931145 2.2252395
-0.55228442 0.59526426 1.9442793
-0.56891453 0.59108019 2.1245763
-0.56032699 0.55539668 2.2158008
-0.51731837 0.48192063 2.1766529
-0.51389813 0.59474802 1.964558
-0.52262729 0.5896259 2.1396883
-0.49536148 0.53406799 2.164181
-0.45512289 0.46640274 2.1361942
-0.47264746 0.59334779 1.977765
-0.47450206 0.58530957 2.1467113
-0.43524846 0.51662993 2.119725
-0.39590424 0.45187733 2.0968094
-0.43329892 0.59286416 1.9960256
-0.42101628 0.57155222 2.1214528
-0.37985665 0.50295597 2.0894303
-0.33874142 0.43741339 2.0544631
-0.39302927 0.59144944 2.010251
-0.36592495 0.55315048 2.0760729
-0.32569718 0.48750296 2.0471225
-0.28447652 0.42486942 2.0172076
-0.3526957 0.5919801 2.0275111
-0.31459644 0.53754544 2.0428185
-0.27518034 0.4767378 2.0229738
-0.24238846 0.43570727 2.0726345
-0.30866328 0.58776855 2.0296113
-0.26784241 0.52957708 2.0307949
-0.23498648 0.4904919 2.0834904
-0.19916162 0.44841453 2.1350763
-0.26657432 0.58350998 2.0347481
-0.22858827 0.54428023 2.0943475
-0.19265802 0.50511187 2.1509855
-0.15272154 0.46291167 2.2084937
-0.22597767 0.58880472 2.065094
-0.18743202 0.55806684 2.1528459
-0.14734879 0.51973933 2.2174244
-0.11604488 0.56783283 2.6498547
-0.181964 0.5846113 2.0661945
-0.14399834 0.57559246 2.2253747
-0.10321921 0.57280546 2.4266286
-0.053887717 0.56744754 2.6576867
-0.13870975 0.58420366 2.0793817
-0.09542188 0.58087647 2.2545705
-0.048060764 0.57244527 2.4345925
0.0091155507 0.56620342 2.6574843
-0.096368641 0.5867269 2.0966406
-0.046442632 0.57770115 2.2535958
0.0070188493 0.57115763 2.438539
0.071179092 0.56590855 2.6603181
-0.051272392 0.58445716 2.101757
0.0037354492 0.57734078 2.2626529
0.062139846 0.57083362 2.4445033
0.13308501 0.56375879 2.6551182
-0.0070932209 0.58411837 2.1109269
0.052955076 0.57794768 2.273746
0.11812175 0.56863296 2.4434149
0.19708809 0.56251121 2.6548975
0.036984488 0.58187032 2.1150622
0.10285532 0.57384127 2.2687356
0.17420511 0.56834155 2.4473608
0.25902057 0.56234288 2.6507332
0.082065932 0.58061856 2.1191971
0.15289842 0.5726077 2.2707772
0.23131093 0.5690282 2.452306
-0.02611593 -0.059798401 0.050936799
0.1281472 0.57936323 2.1233127
0.20404281 0.57327986 2.2778344
-0.02611593 -0.059798401 0.050936799
0.1531588 0.21114784 1.182865
0.17434865 0.57999891 2.1334627
-0.02611593 -0.059798401 0.050936799
0.14828055 0.23714328 1.1844273
0.44668269 0.56095785 2.6311882
0.21927246 0.57689226 2.1295643
0.14337966 0.26215699 1.1849717
0.21680771 0.29676032 1.4133003
0.26324099 0.2750923 1.440048
-0.02611593 -0.059798401 0.050936799
0.35808557 0.57165492 2.2789211
0.25202295 0.30043507 1.4237108
0.57025898 0.55889297 2.6078293
0.31466398 0.58017075 2.148844
0.24987334 0.33976972 1.4614754
0.28939548 0.30595756 1.4421172
0.63198155 0.55792391 2.5926511
0.36055017 0.57709658 2.1429272
0.28069133 0.33782163 1.4518601
0.32335573 0.30687153 1.4394971
0.69270831 0.55795819 2.5775094
0.26696539 0.3687219 1.4606788
0.51504207 0.57210946 2.2749891
0.359492 0.30961519 1.4458723
0.75237507 0.55705059 2.5593698
0.45978725 0.57950568 2.1541166
0.56373656 0.56820554 2.2590017
0.38803643 0.30492803 1.422245
0.81092584 0.55525517 2.5352328
0.50449723 0.57459819 2.1391857
0.61557335 0.56716383 2.2500091
0.42309403 0.30674782 1.4246224
0.87057787 0.55536544 2.5161116
0.55240959 0.57349843 2.1342671
0.67060852 0.56892997 2.2510109
0.45277721 0.30393004 1.40801
-0.02611593 -0.059798401 0.050936799
0.60140067 0.57332259 2.1333463
0.71928829 0.56604397 2.2340417
0.47824728 0.299326 1.3804406
0.39474452 0.19550002 1.0550156
0.64919287 0.57033175 2.1223938
0.77212876 0.56599844 2.2250485
0.38179493 0.21256185 1.0545666
0.5326196 0.26054278 1.300694
0.69916892 0.57117027 2.1204727
-0.02611593 -0.059798401 0.050936799
0.51775014 0.28355652 1.3033897
1.0997491 0.55425525 2.4167671
0.74908495 0.57106316 2.1155343
0.39590839 0.23247206 1.0566632
1.0104364 0.5598281 2.2934983
1.1562293 0.55353928 2.3886871
-0.02611593 -0.059798401 0.050936799
0.52965796 0.30367288 1.2945275
1.0650895 0.55995631 2.274471
1.2075939 0.55194986 2.3546853
0.40403378 0.250386 1.0598361
0.98336762 0.56794274 2.1821141
1.1176678 0.56016403 2.2514825
1.2651193 0.55319381 2.3286219
0.5272975 0.31707579 1.2728069
1.0287553 0.56233943 2.1501522
1.1681638 0.55845165 2.2244968
1.3164693 0.55262238 2.2936382
0.95364332 0.572725 2.089726
1.0804688 0.56342399 2.1341982
1.2217233 0.55867392 2.20049
1.3699017 0.55397105 2.2626519
1.000286 0.56988245 2.0707948
1.1300813 0.56260651 2.1132474
1.2691076 0.55708086 2.167563
1.4233114 0.55433804 2.2306476
1.0469097 0.56705797 2.050864
1.1838132 0.56366581 2.0982556
1.3247308 0.55924124 2.1465535
1.4746464 0.55478454 2.1946826
1.0945561 0.56521171 2.0319321
1.2344255 0.56284469 2.077286
1.3762531 0.55950683 2.120585
1.5198625 0.55336142 2.1527958
1.1484044 0.56716222 2.0229561
1.2881051 0.5649581 2.0593128
1.4195218 0.55703688 2.081717
1.5691608 0.55385131 2.1148686
1.1950135 0.56535566 2.0020437
1.3345606 0.56229633 2.0303853
1.4678911 0.55645818 2.0477893
1.6195 0.55530119 2.0789404
1.2425851 0.56358165 1.9791133
1.3810239 0.56163436 2.0014937
1.51938 0.55775976 2.0198393
1.662683 0.55492127 2.03511
1.2984179 0.56654298 1.969118
1.437703 0.56373698 1.9834644
1.5657347 0.55820608 1.9849677
1.7089255 0.55547613 1.9942405
1.3459707 0.56478715 1.9451879
1.4841474 0.56309301 1.953573
1.6130854 0.55764908 1.9500593
1.7551492 0.55604911 1.9523712
1.3996651 0.56588262 1.9281965
1.5305547 0.56248528 1.9216822
1.6635224 0.56000835 1.9191471
1.7942767 0.55573785 1.9056172
1.4492441 0.56610113 1.9052646
1.5820997 0.56373262 1.8967314
1.7047392 0.55859959 1.8773358
1.8415456 0.55827069 1.8657646
1.4977819 0.56535959 1.8803339
1.6284879 0.56314296 1.8638411
1.7520977 0.56004214 1.8424634
1.8806771 0.55895925 1.8190285
1.5514202 0.56650931 1.8603437
1.6748803 0.56355315 1.8309687
1.7953595 0.56058967 1.80265
1.9198047 0.55864799 1.7722745
1.5988834 0.56584364 1.8314332
1.7273917 0.56583291 1.8040178
1.8375801 0.56017721 1.7608378
1.9599586 0.56031466 1.7265373
1.6452866 0.56423604 1.7995245
1.7676461 0.56439155 1.7642244
1.8788276 0.56174988 1.7200801
1.9980754 0.56202465 1.6788385
1.6998911 0.56641823 1.7775341
1.8150008 0.56483436 1.729334
1.9271523 0.5642249 1.6832075
2.0341702 0.56276017 1.6301594
1.7493391 0.56676334 1.7476046
1.8725417 0.5700776 1.7033427
1.9582174 0.56199694 1.6335689
2.0722866 0.56447023 1.5824606
1.7977495 0.56714827 1.7156943
1.9076769 0.56676304 1.6576095
1.9994271 0.56360573 1.5908118
2.1033258 0.56527793 1.5308766
1.8410784 0.56562376 1.6798432
1.954002 0.56924528 1.6207745
2.0396185 0.56523633 1.5470741
2.1333466 0.56610727 1.4783117
1.8935336 0.56795782 1.6498933
1.9982824 0.56977111 1.5819418
2.07775 0.5659284 1.5003569
2.1664083 0.56788957 1.4277078
1.9388285 0.56746215 1.6120234
2.026284 0.56560856 1.5293244
2.1128821 0.56663132 1.453696
2.1994698 0.56967181 1.3771038
1.983101 0.56598848 1.5731547
2.0725715 0.56812686 1.4904902
2.1510179 0.56832325 1.4069967
2.2294946 0.57150096 1.3245571
2.0344815 0.56839842 1.5392249
2.1127591 0.56875759 1.4467344
2.1932166 0.5719462 1.3632574
2.2574968 0.57235563 1.2710301
2.0848207 0.56984836 1.5032964
2.1559687 0.57035917 1.4039398
2.2242746 0.57273591 1.3126731
2.282485 0.57423902 1.2165779
2.1290448 0.57042849 1.4614646
2.196141 0.57200783 1.3592024
2.2563138 0.57353997 1.2610703
2.3044472 0.57415146 1.1611462
2.1772869 0.5709762 1.4205576
2.2352726 0.57269639 1.3124664
2.2823126 0.57340193 1.2075628
2.3304393 0.57703108 1.1066933
2.2235148 0.57254905 1.3787063
2.2703485 0.57345355 1.2628065
2.3103337 0.57423848 1.1550355
2.3443239 0.5760448 1.0473955
2.2656605 0.57220888 1.3328954
2.3074431 0.57418543 1.2141088
2.3413768 0.57604605 1.1034695
2.3673122 0.57793534 0.99298072
2.3098094 0.57286131 1.2870651
2.3516042 0.57783741 1.1683325
2.3653424 0.57695127 1.0480185
2.390286 0.58084381 0.9375844
2.3559852 0.57548827 1.2422329
2.3785839 0.57771397 1.1138065
2.3963671 0.5787769 0.99545276
2.405216 0.58181739 0.88030303
2.4000967 0.57617694 1.1944034
2.4166448 0.57947826 1.0631087
2.4203553 0.58066374 0.9410193
2.422168 0.58376563 0.82400179
2.4391534 0.57693785 1.1436687
2.4416063 0.57937998 1.0076208
2.4392807 0.58062321 0.88364476
2.4391201 0.58571386 0.76770061
2.4781914 0.57771683 1.0919343
2.4756303 0.58119488 0.95499879
2.4592285 0.58156085 0.8272692
2.450032 0.58671993 0.70949483
2.5121658 0.57656831 1.0372589
2.5096166 0.58304584 0.90037739
2.4831982 0.58346581 0.77183604
2.4609442 0.58772606 0.65128887
2.5531888 0.57835805 0.98450541
2.5305228 0.58301628 0.84196568
2.5031309 0.58542138 0.71447879
2.4678378 0.58876455 0.59215856
2.6113217 0.58499551 0.93652076
2.5615101 0.58487803 0.78740072
2.5200458 0.58740574 0.65617824
2.4767728 0.59075963 0.53500801
2.6230786 0.58012569 0.87119037
2.5874231 0.58683014 0.72893101
2.5389788 0.58936489 0.59883976
2.4867077 0.59275103 0.47783867
2.663049 0.58297306 0.81547463
2.6103141 0.58781123 0.66950005
2.5528901 0.59036022 0.54057759
2.4916205 0.59377861 0.41974562
2.6999564 0.58388579 0.75678027
2.6291828 0.587825 0.60912657
2.5677865 0.59236985 0.48131496
2.5015593 0.59676993 0.36259425
2.7237868 0.5839178 0.69431353
2.6540775 0.58979875 0.549676
2.5736351 0.59144855 0.42016804
2.4994507 0.59684098 0.303615
2.7526395 0.58491361 0.63277042
2.683979 0.59375429 0.49016753
2.5865357 0.5944652 0.36096102
2.5103931 0.60082847 0.2464629
2.7935162 0.58784783 0.57203758
2.7028332 0.59478593 0.42881241
2.5964332 0.59649289 0.30179232
2.4822474 0.59501183 0.18686445
2.8162949 0.58893746 0.50660866
2.7186546 0.59686434 0.36553234
2.5511694 0.58382893 0.23738888
2.4601457 0.59113723 0.1291886
2.8440912 0.58999109 0.44208544
2.7384937 0.59891039 0.30317676
2.4698806 0.56329554 0.17351775
2.4630818 0.59315377 0.072150782
2.863848 0.59010977 0.3756952
2.7422681 0.59806848 0.2380688
2.4648099 0.56334114 0.11659421
2.4550345 0.59419185 0.0163013
2.8986173 0.59417397 0.30909514
2.7680993 0.60311055 0.1746549
2.4637203 0.56339049 0.058595851
2.4289896 0.59027743 -0.038300388
2.9173405 0.59533221 0.2407424
2.7698739 0.60227591 0.10958451
2.4586685 0.56341803 0.002671971
2.3159604 0.56258869 -0.086701438
2.9450476 0.59747618 0.17123887
2.7786362 0.60343391 0.04341897
2.4315975 0.55752546 -0.052946623
-0.02611593 -0.059798401 0.050936799
2.958734 0.5986886 0.10098073
2.7974463 0.60751933 -0.020881096
1.233716 0.2577827 -0.030933663
1.0869901 0.23896125 -0.064538412
2.9744015 0.59991187 0.029685363
2.3181419 0.49415892 -0.063972414
1.1532028 0.2385073 -0.053782649
1.0795234 0.23943859 -0.089398399
2.9110546 0.5843854 -0.038432557
1.2244816 0.23596342 -0.03915824
1.1417103 0.23701747 -0.07960318
2.3958619 0.5993517 -0.31260899
2.9477189 0.5905506 -0.1110321
1.2149323 0.23452064 -0.068015344
2.3344958 0.54276973 -0.26746824
-0.02611593 -0.059798401 0.050936799
1.2782223 0.22497047 -0.051367402
2.3639932 0.5080564 -0.23463732
2.4073248 0.5636946 -0.33447602
-0.02611593 -0.059798401 0.050936799
2.7342355 0.5425595 -0.23194422
2.4707463 0.53494871 -0.30717415
2.3324294 0.54777718 -0.3783766
1.0576961 0.24228294 -0.18697137
2.4843309 0.48816821 -0.26726115
2.5145268 0.54699731 -0.37479883
2.2476211 0.52980536 -0.41712695
2.2830634 0.58938116 -0.51174498
2.5131319 0.49523535 -0.33269474
2.2610419 0.48920479 -0.38710248
2.2815011 0.54279917 -0.47954741
-0.02611593 -0.059798401 0.050936799
2.3293869 0.45549604 -0.36298367
2.2809381 0.49621373 -0.44736865
2.3093596 0.55483288 -0.54287279
1.04134 0.24565692 -0.25962874
2.288404 0.44756368 -0.41337693
2.3137732 0.50724763 -0.51180565
2.4357774 0.59301335 -0.63558048
1.0378616 0.24813767 -0.2855275
2.3172278 0.45561248 -0.4777928
2.3664739 0.5233537 -0.5845257
2.4834497 0.61117315 -0.71016979
1.0294323 0.24858244 -0.3083694
2.3489985 0.46470466 -0.54524606
2.4609485 0.55056036 -0.67183191
2.4116404 0.59817201 -0.75007403
0.21055754 0.0098370928 -0.035263941
2.4832792 0.49696594 -0.64421016
2.4677312 0.55672473 -0.7378698
2.365741 0.5921849 -0.79633868
0.19454476 0.0058951927 -0.035035364
2.4999852 0.50316674 -0.71443456
2.3999057 0.54472715 -0.77883089
-0.02611593 -0.059798401 0.050936799
-0.02611593 -0.059798401 0.050936799
2.4261196 0.49022701 -0.75730014
-0.02611593 -0.059798401 0.050936799
0.18551891 -0.0010713143 -0.034992378
0.16850723 7.6207798e-06 -0.035654586
2.3722141 0.48226896 -0.80345052
0.19052102 -0.0051066633 -0.034158751
-0.02611593 -0.059798401 0.050936799
-0.02611593 -0.059798401 0.050936799
-0.02611593 -0.059798401 0.050936799
-0.02611593 -0.059798401 0.050936799
0.15851903 -0.0069914795 -0.033593491
0.14849126 -0.0049197506 -0.035368867
0.18744183 -0.011040609 -0.037209477
0.16844922 -0.0099725928 -0.036834437
-0.02611593 -0.059798401 0.050936799
-0.02611593 -0.059798401 0.050936799
-0.02611593 -0.059798401 0.050936799
-0.02611593 -0.059798401 0.050936799
0.13451856 -0.012922415 -0.032250963
0.12749419 -0.0098616257 -0.034064692
0.1584423 -0.016953601 -0.035772994
0.14841847 -0.013882041 -0.037530359
-0.02611593 -0.059798401 0.050936799
-0.02611593 -0.059798401 0.050936799
-0.02611593 -0.059798401 0.050936799
-0.02611593 -0.059798401 0.050936799
0.12245281 -0.015824569 -0.035078518
0.11248121 -0.013807108 -0.033854909
0.13346468 -0.021899205 -0.033394005
0.12742139 -0.018823918 -0.036226191
-0.02611593 -0.059798401 0.050936799
-0.02611593 -0.059798401 0.050936799
-0.02611593 -0.059798401 0.050936799
-0.02611593 -0.059798401 0.050936799
0.10547765 -0.019799054 -0.032831833
0.10143792 -0.015731111 -0.035683583
0.119418 -0.02481227 -0.035184313
0.11141253 -0.021765981 -0.035979599
-0.02611593 -0.059798401 0.050936799
-0.02611593 -0.059798401 0.050936799
-0.02611593 -0.059798401 0.050936799
-0.02611593 -0.059798401 0.050936799
0.088525146 -0.022791801 -0.029567465
0.087462224 -0.019716363 -0.033493258
0.10342786 -0.02777243 -0.03393805
0.10036925 -0.023689987 -0.037808258
-0.02611593 -0.059798401 0.050936799
-0.02611593 -0.059798401 0.050936799
-0.02611593 -0.059798401 0.050936799
-0.02611593 -0.059798401 0.050936799
0.078515194 -0.0257554 -0.029433616
0.07942231 -0.020651311 -0.035360284
0.092388511 -0.028696604 -0.035748709
0.087382495 -0.025661077 -0.036600359
-0.02611593 -0.059798401 0.050936799
-0.02611593 -0.059798401 0.050936799
-0.02611593 -0.059798401 0.050936799
-0.02611593 -0.059798401 0.050936799
0.074422307 -0.0256506 -0.034356758
0.068449989 -0.023647498 -0.033208311
0.079397827 -0.031667523 -0.034558818
0.076376654 -0.027621262 -0.0364297
-0.02611593 -0.059798401 0.050936799
-0.02611593 -0.059798401 0.050936799
-0.02611593 -0.059798401 0.050936799
-0.02611593 -0.059798401 0.050936799
0.068367243 -0.0255748 -0.037243001
0.062413651 -0.023589786 -0.035094898
0.071357928 -0.032602467 -0.03642584
0.066389337 -0.029603124 -0.035278171
-0.02611593 -0.059798401 0.050936799
-0.02611593 -0.059798401 0.050936799
-0.02611593 -0.059798401 0.050936799
-0.02611593 -0.059798401 0.050936799
0.053485341 -0.029646913 -0.030035585
0.053426158 -0.025575234 -0.033962157
0.059389707 -0.034595236 -0.034237064
0.058364231 -0.03155598 -0.036163542
-0.02611593 -0.059798401 0.050936799
-0.02611593 -0.059798401 0.050936799
-0.02611593 -0.059798401 0.050936799
-0.02611593 -0.059798401 0.050936799
0.04646397 -0.030603528 -0.030921731
0.047423329 -0.02655353 -0.03386743
0.054349255 -0.035540946 -0.036160458
0.049399395 -0.032559685 -0.034013122
-0.02611593 -0.059798401 0.050936799
-0.02611593 -0.059798401 0.050936799
-0.02611593 -0.059798401 0.050936799
-0.02611593 -0.059798401 0.050936799
0.043408349 -0.030538494 -0.033864342
0.038450636 -0.0295569 -0.031753052
0.04339958 -0.037555393 -0.032990802
0.045325235 -0.032472979 -0.037936606
-0.02611593 -0.059798401 0.050936799
-0.02611593 -0.059798401 0.050936799
-0.02611593 -0.059798401 0.050936799
-0.02611593 -0.059798401 0.050936799
0.036405701 -0.031513199 -0.033750825
0.034413923 -0.029506367 -0.033677209
0.039344139 -0.037486769 -0.035914633
0.039303683 -0.033433184 -0.038841546
-0.02611593 -0.059798401 0.050936799
-0.02611593 -0.059798401 0.050936799
-0.02611593 -0.059798401 0.050936799
-0.02611593 -0.059798401 0.050936799
0.032350261 -0.031444579 -0.036674649
0.026482424 -0.03154967 -0.029564276
0.032360215 -0.03847957 -0.034801461
0.03524825 -0.033364564 -0.041765362
-0.02611593 -0.059798401 0.050936799
-0.02611593 -0.059798401 0.050936799
-0.02611593 -0.059798401 0.050936799
-0.02611593 -0.059798401 0.050936799
0.024418766 -0.033487882 -0.032561712
0.025374196 -0.030437715 -0.035525441
0.027342407 -0.038443536 -0.035707168
0.026316933 -0.03540428 -0.037633643
-0.02611593 -0.059798401 0.050936799
-0.02611593 -0.059798401 0.050936799
-0.02611593 -0.059798401 0.050936799
-0.02611593 -0.059798401 0.050936799
0.022310723 -0.032372344 -0.038504086
0.019408809 -0.031452186 -0.033431385
0.022287156 -0.038371325 -0.038612198
0.021317843 -0.035386335 -0.037539687
-0.02611593 -0.059798401 0.050936799
-0.02611593 -0.059798401 0.050936799
-0.02611593 -0.059798401 0.050936799
-0.02611593 -0.059798401 0.050936799
0.017345158 -0.033390407 -0.036428828
-0.02611593 -0.059798401 0.050936799
-0.02611593 -0.059798401 0.050936799
-0.02611593 -0.059798401 0.050936799
-0.02611593 -0.059798401 0.050936799
-0.02611593 -0.059798401 0.050936799
-0.02611593 -0.059798401 0.050936799
-0.02611593 -0.059798401 0.050936799
-0.02611593 -0.059798401 0.050936799
-0.02611593 -0.059798401 0.050936799
0.012266335 -0.039317176 -0.039441973
0.0122446 -0.035281681 -0.041369218
-0.02611593 -0.059798401 0.050936799
-0.02611593 -0.059798401 0.050936799
-0.02611593 -0.059798401 0.050936799
-0.02611593 -0.059798401 0.050936799
-0.02611593 -0.059798401 0.050936799
-0.02611593 -0.059798401 0.050936799
-0.02611593 -0.059798401 0.050936799
0.0072603114 -0.036281653 -0.040293623
-0.02611593 -0.059798401 0.050936799
-0.02611593 -0.059798401 0.050936799
-0.02611593 -0.059798401 0.050936799
-0.02611593 -0.059798401 0.050936799
-0.02611593 -0.059798401 0.050936799
-0.02611593 -0.059798401 0.050936799
-0.02611593 -0.059798401 0.050936799
-0.02611593 -0.059798401 0.050936799
-0.02611593 -0.059798401 0.050936799
-0.02611593 -0.059798401 0.050936799
-0.02611593 -0.059798401 0.050936799
-0.02611593 -0.059798401 0.050936799
-0.02611593 -0.059798401 0.050936799
-0.02611593 -0.059798401 0.050936799
-0.02611593 -0.059798401 0.050936799
-0.02611593 -0.059798401 0.050936799
-0.02611593 -0.059798401 0.050936799
-0.02611593 -0.059798401 0.050936799
-0.02611593 -0.059798401 0.050936799
-0.02611593 -0.059798401 0.050936799
-0.02611593 -0.059798401 0.050936799
-0.02611593 -0.059798401 0.050936799
-0.02611593 -0.059798401 0.050936799
-0.02611593 -0.059798401 0.050936799
-0.02611593 -0.059798401 0.050936799
-0.02611593 -0.059798401 0.050936799
-0.02611593 -0.059798401 0.050936799
-0.02611593 -0.059798401 0.050936799
-0.02611593 -0.059798401 0.050936799
-0.02611593 -0.059798401 0.050936799
-0.02611593 -0.059798401 0.050936799
-0.02611593 -0.059798401 0.050936799
-0.02611593 -0.059798401 0.050936799
-0.02611593 -0.059798401 0.050936799
-0.02611593 -0.059798401 0.050936799
-0.02611593 -0.059798401 0.050936799
-0.02611593 -0.059798401 0.050936799
-0.02611593 -0.059798401 0.050936799
-0.02611593 -0.059798401 0.050936799
-0.02611593 -0.059798401 0.050936799
-0.02611593 -0.059798401 0.050936799
-0.02611593 -0.059798401 0.050936799
-0.02611593 -0.059798401 0.050936799
-0.02611593 -0.059798401 0.050936799
-0.02611593 -0.059798401 0.050936799
-0.02611593 -0.059798401 0.050936799
-0.02611593 -0.059798401 0.050936799
-0.02611593 -0.059798401 0.050936799
-0.02611593 -0.059798401 0.050936799
-0.02611593 -0.059798401 0.050936799
-0.02611593 -0.059798401 0.050936799
-0.02611593 -0.059798401 0.050936799
-0.02611593 -0.059798401 0.050936799
-0.02611593 -0.059798401 0.050936799
-0.02611593 -0.059798401 0.050936799
-0.02611593 -0.059798401 0.050936799
-0.02611593 -0.059798401 0.050936799
-0.02611593 -0.059798401 0.050936799
-0.02611593 -0.059798401 0.050936799
-0.02611593 -0.059798401 0.050936799
-0.02611593 -0.059798401 0.050936799
-0.02611593 -0.059798401 0.050936799
-0.02611593 -0.059798401 0.050936799
-0.02611593 -0.059798401 0.050936799
-0.02611593 -0.059798401 0.050936799
-0.02611593 -0.059798401 0.050936799
-0.02611593 -0.059798401 0.050936799
-0.02611593 -0.059798401 0.050936799
-0.02611593 -0.059798401 0.050936799
-0.02611593 -0.059798401 0.050936799
-0.02611593 -0.059798401 0.050936799
-0.02611593 -0.059798401 0.050936799
-0.02611593 -0.059798401 0.050936799
-0.02611593 -0.059798401 0.050936799
-0.02611593 -0.059798401 0.050936799
-0.02611593 -0.059798401 0.050936799
-0.02611593 -0.059798401 0.050936799
-0.02611593 -0.059798401 0.050936799
-0.02611593 -0.059798401 0.050936799
-0.02611593 -0.059798401 0.050936799
-0.02611593 -0.059798401 0.050936799
-0.02611593 -0.059798401 0.050936799
-0.02611593 -0.059798401 0.050936799
-0.02611593 -0.059798401 0.050936799
-0.02611593 -0.059798401 0.050936799
-0.02611593 -0.059798401 0.050936799
-0.02611593 -0.059798401 0.050936799
-0.02611593 -0.059798401 0.050936799
-0.02611593 -0.059798401 0.050936799
-0.02611593 -0.059798401 0.050936799
-0.02611593 -0.059798401 0.050936799
-0.02611593 -0.059798401 0.050936799
-0.02611593 -0.059798401 0.050936799
-0.02611593 -0.059798401 0.050936799
-0.02611593 -0.059798401 0.050936799
-0.02611593 -0.059798401 0.050936799
-0.02611593 -0.059798401 0.050936799
-0.02611593 -0.059798401 0.050936799
-0.02611593 -0.059798401 0.050936799
-0.02611593 -0.059798401 0.050936799
-0.02611593 -0.059798401 0.050936799
-0.02611593 -0.059798401 0.050936799
-0.02611593 -0.059798401 0.050936799
-0.02611593 -0.059798401 0.050936799
-0.02611593 -0.059798401 0.050936799
-0.02611593 -0.059798401 0.050936799
-0.02611593 -0.059798401 0.050936799
-0.02611593 -0.059798401 0.050936799
-0.02611593 -0.059798401 0.050936799
-0.02611593 -0.059798401 0.050936799
-0.02611593 -0.059798401 0.050936799
-0.02611593 -0.059798401 0.050936799
-0.02611593 -0.059798401 0.050936799
-0.02611593 -0.059798401 0.050936799
-0.02611593 -0.059798401 0.050936799
-0.02611593 -0.059798401 0.050936799
-0.02611593 -0.059798401 0.050936799
-0.02611593 -0.059798401 0.050936799
-0.02611593 -0.059798401 0.050936799
-0.02611593 -0.059798401 0.050936799
-0.02611593 -0.059798401 0.050936799
-0.02611593 -0.059798401 0.050936799
-0.02611593 -0.059798401 0.050936799
-0.02611593 -0.059798401 0.050936799
-0.02611593 -0.059798401 0.050936799
-0.02611593 -0.059798401 0.050936799
-0.065734185 -0.038019318 -0.03895795
-0.062708162 -0.036048517 -0.037978623
-0.02611593 -0.059798401 0.050936799
-0.02611593 -0.059798401 0.050936799
-0.02611593 -0.059798401 0.050936799
-0.02611593 -0.059798401 0.050936799
-0.02611593 -0.059798401 0.050936799
-0.02611593 -0.059798401 0.050936799
-0.070710622 -0.037019633 -0.037846319
-0.02611593 -0.059798401 0.050936799
-0.02611593 -0.059798401 0.050936799
-0.02611593 -0.059798401 0.050936799
-0.02611593 -0.059798401 0.050936799
-0.02611593 -0.059798401 0.050936799
-0.02611593 -0.059798401 0.050936799
-0.064677291 -0.033059936 -0.036887329
-0.074672438 -0.037041459 -0.035771832
-0.0727024 -0.035012797 -0.037772704
-0.02611593 -0.059798401 0.050936799
-0.02611593 -0.059798401 0.050936799
-0.02611593 -0.059798401 0.050936799
-0.02611593 -0.059798401 0.050936799
-0.02611593 -0.059798401 0.050936799
-0.070690982 -0.032020483 -0.037756227
-0.079667598 -0.036023688 -0.035659857
-0.076664217 -0.035034623 -0.035698216
-0.02611593 -0.059798401 0.050936799
-0.02611593 -0.059798401 0.050936799
-0.02611593 -0.059798401 0.050936799
-0.02611593 -0.059798401 0.050936799
-0.075608239 -0.035092477 -0.032718029
-0.07361947 -0.033081904 -0.03371923
-0.086681113 -0.034980644 -0.036509976
-0.083677731 -0.033991579 -0.036548328
-0.02611593 -0.059798401 0.050936799
-0.02611593 -0.059798401 0.050936799
-0.02611593 -0.059798401 0.050936799
-0.02611593 -0.059798401 0.050936799
-0.080603398 -0.034074701 -0.032606054
-0.078618556 -0.033063959 -0.033625279
-0.090624213 -0.035020553 -0.033435829
-0.087639555 -0.034013398 -0.03447384
-0.02611593 -0.059798401 0.050936799
-0.02611593 -0.059798401 0.050936799
-0.02611593 -0.059798401 0.050936799
-0.02611593 -0.059798401 0.050936799
-0.02611593 -0.059798401 0.050936799
-0.082599103 -0.033067692 -0.032550454
-0.094567314 -0.035060465 -0.030361675
-0.091582663 -0.034053311 -0.031399693
-0.02611593 -0.059798401 0.050936799
-0.02611593 -0.059798401 0.050936799
-0.02611593 -0.059798401 0.050936799
-0.02611593 -0.059798401 0.050936799
-0.091578737 -0.03305348 -0.031381674
-0.087579466 -0.033067837 -0.031456836
-0.10666568 -0.031909373 -0.036080107
-0.1026812 -0.030905809 -0.037136909
-0.02611593 -0.059798401 0.050936799
-0.02611593 -0.059798401 0.050936799
-0.02611593 -0.059798401 0.050936799
-0.02611593 -0.059798401 0.050936799
-0.096555166 -0.032053795 -0.030270036
-0.096644849 -0.03096352 -0.035250328
-0.1085569 -0.033010557 -0.030062567
-0.10864266 -0.030920452 -0.03502484
-0.02611593 -0.059798401 0.050936799
-0.02611593 -0.059798401 0.050936799
-0.02611593 -0.059798401 0.050936799
-0.02611593 -0.059798401 0.050936799
-0.10558704 -0.030985486 -0.032082234
-0.10058796 -0.03100343 -0.032176189
-0.12163635 -0.029873965 -0.034762546
-0.11256704 -0.030978454 -0.030951034
-0.02611593 -0.059798401 0.050936799
-0.02611593 -0.059798401 0.050936799
-0.02611593 -0.059798401 0.050936799
-0.02611593 -0.059798401 0.050936799
-0.1085116 -0.031047076 -0.02802721
-0.10453106 -0.031043343 -0.029102039
-0.1285937 -0.028885195 -0.032613676
-0.12361333 -0.028885052 -0.033707287
-0.02611593 -0.059798401 0.050936799
-0.02611593 -0.059798401 0.050936799
-0.02611593 -0.059798401 0.050936799
-0.02611593 -0.059798401 0.050936799
-0.12057644 -0.028931994 -0.031764343
-0.11457753 -0.02895353 -0.031877086
-0.13453251 -0.027918097 -0.029483922
-0.13158529 -0.026874766 -0.032521266
-0.02611593 -0.059798401 0.050936799
-0.02611593 -0.059798401 0.050936799
-0.02611593 -0.059798401 0.050936799
-0.02611593 -0.059798401 0.050936799
-0.12450082 -0.028989997 -0.027690526
-0.11850584 -0.030011356 -0.027821291
-0.14955543 -0.024828594 -0.031147342
-0.14156081 -0.025857136 -0.031315684
-0.02611593 -0.059798401 0.050936799
-0.02611593 -0.059798401 0.050936799
-0.02611593 -0.059798401 0.050936799
-0.02611593 -0.059798401 0.050936799
-0.13550967 -0.026932767 -0.02844746
-0.12953342 -0.027936041 -0.029577874
-0.15547551 -0.023879588 -0.027017929
-0.15255095 -0.023817997 -0.031072952
-0.02611593 -0.059798401 0.050936799
-0.02611593 -0.059798401 0.050936799
-0.02611593 -0.059798401 0.050936799
-0.02611593 -0.059798401 0.050936799
-0.14448144 -0.024918895 -0.027242642
-0.13952374 -0.025900491 -0.029353932
-0.16846135 -0.02083344 -0.026719593
-0.16452217 -0.021793362 -0.029811759
-0.02611593 -0.059798401 0.050936799
-0.02611593 -0.059798401 0.050936799
-0.02611593 -0.059798401 0.050936799
-0.02611593 -0.059798401 0.050936799
-0.14535414 -0.026041759 -0.020244244
-0.14748089 -0.024908129 -0.027186271
-0.18846069 -0.016744256 -0.027271375
-0.1774893 -0.018765301 -0.028513763
-0.02611593 -0.059798401 0.050936799
-0.02611593 -0.059798401 0.050936799
-0.02611593 -0.059798401 0.050936799
-0.02611593 -0.059798401 0.050936799
-0.16640948 -0.021894718 -0.023776215
-0.15238637 -0.024980629 -0.022094015
-0.21147428 -0.011626383 -0.028748419
-0.20253997 -0.013604078 -0.03195256
-0.02611593 -0.059798401 0.050936799
-0.02611593 -0.059798401 0.050936799
-0.02611593 -0.059798401 0.050936799
-0.02611593 -0.059798401 0.050936799
-0.18744607 -0.017765764 -0.026308518
-0.16940893 -0.021883952 -0.023719843
-0.23946433 -0.0055088238 -0.02911384
-0.22653465 -0.0085007045 -0.032411151
-0.02611593 -0.059798401 0.050936799
-0.02611593 -0.059798401 0.050936799
-0.02611593 -0.059798401 0.050936799
-0.02611593 -0.059798401 0.050936799
-0.2164921 -0.011590349 -0.029654134
-0.19142662 -0.017769497 -0.025233697
-0.26539856 0.0005472863 -0.026517846
-0.2464404 -0.0045019598 -0.027964622
-0.02611593 -0.059798401 0.050936799
-0.02611593 -0.059798401 0.050936799
-0.02611593 -0.059798401 0.050936799
-0.02611593 -0.059798401 0.050936799
-0.24246772 -0.0064978879 -0.029075488
-0.22550918 -0.01153996 -0.030484676
-0.97336119 0.17768431 -0.21112123
-0.02611593 -0.059798401 0.050936799
-0.02611593 -0.059798401 0.050936799
-0.02611593 -0.059798401 0.050936799
-0.98298097 0.17835823 -0.1909221
-0.96953523 0.17181566 -0.21930179
-0.27042422 -0.001416334 -0.027459592
-0.24845181 -0.0074942708 -0.027981095
-0.99459642 0.18003915 -0.17066734
-0.9861685 0.17353265 -0.19995275
-0.02611593 -0.059798401 0.050936799
-0.02611593 -0.059798401 0.050936799
-1.0041976 0.18069503 -0.14946854
-0.99880654 0.17423545 -0.18069693
-0.98033607 0.16463928 -0.20722529
-0.96492124 0.15510812 -0.23669629
-1.0188086 0.18338658 -0.12913939
-1.0083888 0.17487319 -0.15849842
-0.9929741 0.16534206 -0.18796945
-0.97454888 0.15378243 -0.21653318
-1.0073543 0.17989537 -0.10440864
-1.0139946 0.17451485 -0.1373928
-1.0005608 0.16497281 -0.16582656
-0.98515368 0.15344203 -0.19533361
-1.0259607 0.1836011 -0.083986312
-1.0205815 0.17414202 -0.11526872
-1.0091658 0.16462524 -0.14466457
-0.99777681 0.1531269 -0.17509609
-1.0235343 0.18217805 -0.061049715
-1.020136 0.17270805 -0.091294885
-1.0167564 0.16325617 -0.12253971
-1.0043716 0.15075439 -0.15300807
-0.02611593 -0.059798401 0.050936799
-1.0357507 0.17440337 -0.07096497
-1.0223434 0.16287975 -0.10043444
-1.0019492 0.14833151 -0.13008949
-1.0787241 0.19465324 -0.019776754
-1.0603521 0.17913045 -0.050411902
-1.0369436 0.16355354 -0.079141676
-1.017553 0.14800906 -0.10879596
-1.093279 0.19729052 0.0035513714
-1.0729113 0.18076071 -0.027139381
-1.0525209 0.16521266 -0.05681245
-1.0181301 0.14559695 -0.085820995
-1.1018201 0.19888836 0.027748387
-1.0904844 0.18342686 -0.0047545508
-1.0771073 0.16892183 -0.035277724
-1.0397438 0.14731377 -0.065378353
-1.1103613 0.20048617 0.051945403
-1.1000252 0.18502825 0.019461256
-1.0866749 0.16854167 -0.012097619
-1.0703479 0.15106256 -0.044730552
-1.1228979 0.20309818 0.076235607
-1.1165609 0.18765463 0.04382661
-1.0972197 0.16914685 0.012118965
-1.0838921 0.1516785 -0.020457588
-1.1384258 0.20772064 0.10061821
-1.1291013 0.1892668 0.068098798
-1.1067646 0.16974843 0.036316749
-1.0954592 0.15130553 0.0027601048
-1.1659064 0.2143496 0.12726167
-1.1396421 0.1908718 0.092333399
-1.1153097 0.17034641 0.060495753
-1.1129987 0.15293565 0.027126227
-0.02611593 -0.059798401 0.050936799
-1.1481459 0.19243345 0.11852974
-1.1438204 0.1739976 0.086104274
-1.1155154 0.15147628 0.05315578
-1.1978539 0.22248968 0.18202561
-1.1626447 0.19501646 0.14485684
-1.1423566 0.17254195 0.111059
-1.1310591 0.15209939 0.077466309
-0.02611593 -0.059798401 0.050936799
-1.1791017 0.1985703 0.17323887
-1.1648313 0.17613541 0.1385541
-1.163532 0.15572874 0.10514932
-1.2287457 0.23057194 0.23976976
-1.1945627 0.20112072 0.20158407
-1.1783153 0.1776969 0.16584405
-0.02611593 -0.059798401 0.050936799
-0.02611593 -0.059798401 0.050936799
-0.02611593 -0.059798401 0.050936799
-1.1857857 0.17821895 0.19400291
-1.1755185 0.15479858 0.15937528
-1.2774832 0.24359129 0.30493987
-1.2403876 0.21120219 0.2626451
-1.2131805 0.18275782 0.22560863
-0.02611593 -0.059798401 0.050936799
-1.2570306 0.24006781 0.32950151
-1.2507933 0.21368039 0.29389536
-0.02611593 -0.059798401 0.050936799
-1.2193822 0.1598918 0.21930897
-0.02611593 -0.059798401 0.050936799
-1.2900579 0.22215313 0.33179659
-1.2728865 0.19378082 0.29294872
-0.02611593 -0.059798401 0.050936799
-0.02611593 -0.059798401 0.050936799
-1.3203468 0.22961178 0.36851105
-1.2813005 0.19425222 0.32412535
-1.27309 0.16587603 0.2874459
-2.9646292 0.66311061 0.9253267
-1.3366727 0.23303902 0.40389073
-1.3095789 0.19968595 0.36176583
-1.250627 0.16032761 0.31293359
-2.9573264 0.66484046 0.99424464
-1.3559526 0.2384405 0.44136208
-1.3010452 0.197133 0.39056963
-0.02611593 -0.059798401 0.050936799
-2.9371128 0.66359645 1.0588655
-3.0829093 0.62677443 1.0249177
-3.1373904 0.56818694 0.95785522
-0.02611593 -0.059798401 0.050936799
-2.9079649 0.66037476 1.1202823
-3.1281462 0.63829482 1.1170043
-3.085278 0.55688399 1.0186957
-1.3582895 0.17654866 0.4352842
-2.8837712 0.65913451 1.1838285
-3.1782954 0.65276027 1.2132375
-3.1314659 0.56635404 1.1137639
-3.0806749 0.47996965 1.012216
-2.8486843 0.65494585 1.2421156
-3.2154434 0.6631617 1.310154
-3.200443 0.58072484 1.2193512
-3.1318326 0.48742175 1.1093416
-2.8056819 0.64880103 1.2962176
-3.1940432 0.66173321 1.3847528
-3.2653499 0.59400916 1.3288438
-3.2007878 0.49775705 1.2168559
-2.7805068 0.64757526 1.3587453
-3.1766005 0.66128278 1.4614441
-3.341074 0.61016959 1.4475942
-3.2567344 0.506028 1.3250897
-2.7533698 0.64637852 1.4192362
-3.1274345 0.65395379 1.5244123
-3.4246354 0.62921357 1.5745461
-3.34831 0.5211013 1.4521198
-2.7272134 0.64516729 1.4807453
-3.0674136 0.64371252 1.5801221
-3.4882205 0.64318657 1.7010323
-3.4357743 0.53605181 1.585073
-2.6950996 0.6429708 1.5401245
-3.0469902 0.64326942 1.6557574
-3.5012243 0.64833987 1.8064047
-3.5062721 0.54795986 1.7166529
-2.6629858 0.64077443 1.5995035
-3.0206094 0.64184111 1.7292626
-3.4607306 0.64273536 1.8865724
-4.0993986 0.65100747 2.1217592
-2.6318865 0.63959944 1.6579199
-2.988271 0.63942754 1.8006376
-3.4637401 0.64685291 1.9917388
-4.0852442 0.64988405 2.2365129
-2.5898762 0.63545793 1.7120768
-2.9579282 0.63802111 1.8720683
-3.4222281 0.64122671 2.0728874
-3.4687545 0.54250872 2.0109518
-2.568651 0.63720983 1.7767329
-2.921628 0.63562948 1.9413688
-3.3727922 0.63564426 2.1498868
-4.0538259 0.64651793 2.4719434
-2.5404727 0.6369732 1.8392223
-2.8843505 0.6322524 2.0096331
-3.1604936 0.595375 2.1181729
-4.5215373 0.73163146 2.9013853
-2.4856782 0.63098425 1.8821026
-2.6547832 0.58358938 1.9404311
-3.3084707 0.63220549 2.3266802
-3.1317465 0.48912612 2.1247151
-2.4693134 0.63462722 1.9538865
-2.826503 0.63230497 2.1606019
-2.5984182 0.48663649 1.9246168
-4.2572775 0.69132775 3.0267513
-2.4145191 0.62863833 1.9967668
-2.7586291 0.62317955 2.2081823
-2.9287291 0.56273621 2.2692945
-3.2360711 0.5131616 2.4232042
-2.3695838 0.62455845 2.0468686
-2.7213025 0.6227659 2.2784998
-3.186636 0.62408292 2.5843396
-2.7816255 0.43554372 2.1912131
-2.3335009 0.62438345 2.1042094
-2.6770825 0.61941797 2.3436334
-3.1380987 0.62041318 2.6663923
-3.9747698 0.65481305 3.2708843
-1.8722123 0.49562347 1.7671294
-1.9037733 0.42803571 1.7504921
-2.3433619 0.4526259 2.0912826
-3.8694649 0.6421212 3.341707
-1.8226979 0.48992383 1.7951088
-1.8483052 0.42035115 1.7763233
-1.8729571 0.35382852 1.7545742
-1.9025413 0.28525186 1.7368816
-1.9192756 0.52914619 1.970686
-1.8311318 0.42317155 1.8380737
-1.8243303 0.34802401 1.7885702
-1.8508962 0.2794185 1.7718209
-2.0920253 0.59499764 2.2392025
-1.9981544 0.47722048 2.0942655
-1.9277176 0.37805593 1.9761127
-1.8601254 0.28477448 1.8651222
-2.1214914 0.6167568 2.3701921
-2.2157714 0.54716885 2.4227164
-2.111191 0.4276239 2.2625415
-2.0349433 0.32360145 2.1351893
-2.0608895 0.60992742 2.4029453
-2.3878331 0.60633391 2.7291119
-2.8120887 0.60248554 3.1461267
-2.2534034 0.37132204 2.4762583
-2.0100636 0.60693443 2.4469543
-2.3219993 0.60126919 2.773803
-3.2454882 0.71945149 3.798578
-3.2717714 0.57827079 3.7575026
-1.9621549 0.60587937 2.4950547
-2.2678711 0.59897578 2.8337681
-3.1434565 0.7090413 3.8544986
-3.1744688 0.56962508 3.827548
-1.9113107 0.60286814 2.5400634
-2.2137051 0.59664613 2.8957329
-2.6286733 0.59553826 3.3806467
-3.0801613 0.5619899 3.8976681
-1.8692057 0.60365337 2.598309
-2.1517503 0.59348691 2.9465332
-2.9452856 0.69115168 3.9715044
-2.9770505 0.55250371 3.9575863
-1.8163953 0.60167098 2.641299
-2.099483 0.59307367 3.0135698
-2.8491657 0.68369025 4.0315905
-2.876894 0.54499173 4.0195966
-1.762589 0.5986852 2.684252
-2.037468 0.59085995 3.0673871
-2.7452421 0.67438132 4.0814929
-2.7816017 0.53837091 4.0887156
-1.7107185 0.59765202 2.7302778
-1.9754763 0.58766454 3.1201863
-2.6559224 0.66976357 4.1517611
-2.6843617 0.53279692 4.1548166
-1.6530479 0.59377861 2.7661402
-1.9173032 0.58732021 3.182112
-2.5520699 0.66152686 4.1976833
-2.5842011 0.52628481 4.216845
-1.6040418 0.59362942 2.8192379
-1.8532889 0.58509934 3.2358913
-2.4559648 0.6550833 4.2567868
-2.4840405 0.51977265 4.2788725
-1.5472883 0.5916869 2.8591537
-1.7863352 0.58192223 3.2865975
-2.3627014 0.65050548 4.3239813
-2.3858159 0.51521307 4.3439736
-1.4856746 0.58785349 2.891942
-1.7193737 0.58074474 3.3373399
-2.2742946 0.64881843 4.3983202
-2.2846704 0.50971526 4.4050012
-1.4346837 0.58871502 2.9440205
-1.6466538 0.57576346 3.3759015
-2.1713779 0.6425308 4.4472966
-2.1901934 0.50693452 4.4832082
-1.3769305 0.58676893 2.9839177
-1.5776739 0.5745607 3.4276056
-2.0838358 0.64172053 4.5286708
-2.0880213 0.50341457 4.5452518
-1.3190982 0.58575034 3.0278313
-1.5068333 0.57147771 3.4722388
-1.9004264 0.60739255 4.3955708
-1.9819851 0.49900725 4.6002059
-1.2564622 0.58289504 3.0616183
-1.0330864 0.39055002 2.5307767
-1.0264275 0.31357419 2.5272586
-1.0149609 0.23576146 2.5136316
-0.96354467 0.45395741 2.4936092
-0.94528204 0.37230116 2.4697819
-0.93470967 0.29740104 2.4612262
-0.92218989 0.22354785 2.4496522
-0.87884891 0.43181038 2.4276006
-0.86341643 0.35501927 2.4119172
-0.84896791 0.28223112 2.3963246
-0.83541781 0.21135575 2.3857853
-0.80485076 0.41443062 2.3768837
-0.78642964 0.33964652 2.3601801
-0.76906753 0.26893774 2.3395689
-0.75541598 0.19997154 2.334064
-0.7338106 0.3980253 2.3282404
-0.70873177 0.32254183 2.2933931
-0.69506842 0.2565752 2.2879424
-0.67660111 0.18877181 2.2723649
-0.6629656 0.37980118 2.2695644
-0.64348376 0.31097633 2.2549496
-0.62500846 0.24517263 2.239408
-0.60557097 0.17940146 2.2218485
-0.59976256 0.36627936 2.2291226
-0.57837057 0.29853761 2.2094903
-0.55702704 0.23284975 2.1868944
-0.53941971 0.17194021 2.17746
-0.54057735 0.35279 2.1877565
-0.51535475 0.28519666 2.1590519
-0.49578515 0.22431611 2.1475801
-0.47521591 0.163432 2.13609
-0.48146716 0.33937293 2.1423917
-0.45896614 0.27553645 2.1278107
-0.43658435 0.21482605 2.1062863
-0.41504088 0.15697402 2.0928316
-0.42710084 0.32873821 2.1101704
-0.40184766 0.26412627 2.0825193
-0.38116506 0.20815083 2.0761178
-0.35681325 0.14946909 2.0525923
-0.37483168 0.31720123 2.0729706
-0.34941301 0.25644389 2.0533891
-0.32688448 0.19960615 2.0389342
-0.30429196 0.14471388 2.0275145
-0.32450208 0.30661699 2.0388253
-0.29986548 0.24866375 2.0303128
-0.27725029 0.1947532 2.0199108
-0.25871193 0.14599128 2.0576944
-0.27872127 0.30063382 2.0278563
-0.25647622 0.2491294 2.0505157
-0.23714796 0.19956303 2.0772662
-0.21563278 0.14980862 2.113976
-0.24074961 0.30557746 2.0782518
-0.21646754 0.25402969 2.1028731
-0.19389245 0.20521721 2.1425807
-0.1702466 0.15532899 2.1862504
-0.20069951 0.31144139 2.1326265
-0.17509148 0.26158223 2.1742592
-0.14948343 0.21172297 2.2158921
-0.26431167 0.49363652 5.5782814
-0.15855223 0.31820756 2.1919799
-0.12887003 0.26826164 2.237536
-0.18061414 0.51398766 4.6527686
-0.02611593 -0.059798401 0.050936799
-0.16545239 0.55004311 3.5367584
-0.12385443 0.5356313 4.0498929
-0.070899986 0.5138908 4.6897249
-0.02611593 -0.059798401 0.050936799
-0.089215949 0.54651761 3.5492716
-0.03342548 0.53387439 4.0721755
0.0372409 0.51134074 4.6966572
0.13963382 0.49425757 5.677763
-0.012803167 0.54482895 3.5708175
0.057830848 0.53127676 4.0854249
0.14557293 0.50960958 4.7136025
0.27475765 0.48756653 5.6310959
0.062651172 0.54410756 3.5943999
0.14910591 0.52866107 4.0996733
0.25479245 0.50798345 4.7245321
0.4061147 0.48267257 5.5965366
0.14108625 0.54339343 3.6169262
0.24136597 0.52705973 4.1129212
0.36728141 0.50809288 4.7494364
0.5731805 0.51233631 5.9120526
0.22140077 0.54078114 3.6333809
0.33699304 0.52810341 4.1451612
0.47581118 0.50311857 4.7243061
0.69841295 0.4974665 5.7663894
0.30052429 0.5373534 3.6398396
0.42732319 0.51937526 4.1103001
0.58924764 0.50427866 4.7462106
-0.02611593 -0.059798401 0.050936799
0.38397717 0.53660327 3.6632714
0.52943683 0.52494437 4.1675076
-0.02611593 -0.059798401 0.050936799
0.17465742 0.050969478 1.1865664
0.46737391 0.53590739 3.6837046
-0.02611593 -0.059798401 0.050936799
-0.02611593 -0.059798401 0.050936799
1.0481055 0.46103007 5.3810525
-0.02611593 -0.059798401 0.050936799
-0.02611593 -0.059798401 0.050936799
-0.02611593 -0.059798401 0.050936799
0.2798413 0.072641082 1.4040627
-0.02611593 -0.059798401 0.050936799
-0.02611593 -0.059798401 0.050936799
0.28407073 0.10251307 1.4105262
1.2370239 0.433052 5.0609007
-0.02611593 -0.059798401 0.050936799
0.28627792 0.13141051 1.4160094
-0.02611593 -0.059798401 0.050936799
1.3305399 0.42204314 4.9299064
0.28338841 0.15941653 1.4165703
-0.02611593 -0.059798401 0.050936799
-0.02611593 -0.059798401 0.050936799
1.4169865 0.41213167 4.795063
-0.02611593 -0.059798401 0.050936799
-0.02611593 -0.059798401 0.050936799
1.4024774 0.50199884 4.7509456
1.5047176 0.40294504 4.6752138
-0.02611593 -0.059798401 0.050936799
1.2121336 0.51062179 4.14746
1.4906203 0.49241421 4.6530881
1.5885469 0.39468217 4.5604558
1.0714679 0.52455074 3.7382073
1.3172683 0.51110011 4.1535029
1.5767035 0.4818913 4.5522518
-0.02611593 -0.059798401 0.050936799
1.1625595 0.52311581 3.7424772
1.4287729 0.51521242 4.1784978
-0.02611593 -0.059798401 0.050936799
0.485735 0.066867471 1.2910652
1.2589657 0.52537292 3.7627199
-0.02611593 -0.059798401 0.050936799
0.46188855 0.084833488 1.2428203
1.8109356 0.37210581 4.2107654
1.3488064 0.52217698 3.7539771
0.38769513 0.082164466 1.0741038
1.7984916 0.45090377 4.2254281
1.8767536 0.36492538 4.0953641
-0.02611593 -0.059798401 0.050936799
0.50579965 0.11289641 1.2855203
1.8622942 0.43973124 4.1099925
1.9437249 0.35859659 3.9879589
0.50217158 0.13563551 1.3010048
1.8365178 0.50986701 4.1087432
1.9293474 0.43031257 4.0075321
2.0108352 0.35414079 3.8875875
-0.02611593 -0.059798401 0.050936799
1.9099629 0.50004685 4.027163
1.9955022 0.42280653 3.9101248
2.0739236 0.34871757 3.7862742
-0.02611593 -0.059798401 0.050936799
1.9782741 0.48937133 3.9386609
2.0576766 0.41529688 3.8137922
2.1340349 0.34428692 3.6860347
1.8784083 0.53168797 3.8322601
2.0353026 0.47800696 3.8353527
2.1178696 0.4077763 3.7184966
2.2015128 0.34248695 3.6047111
1.9584447 0.52428502 3.7816105
2.0945029 0.46747231 3.7410216
2.1842761 0.40203488 3.6341209
2.2556441 0.33805972 3.505584
2.0498879 0.52046198 3.7518191
2.15482 0.45782542 3.6526878
2.2363997 0.3956151 3.5349953
2.3128765 0.33553094 3.4114347
2.1216369 0.51135945 3.6862891
2.2203529 0.45096111 3.5753105
2.2947512 0.38995659 3.4477711
2.3723183 0.33379582 3.3282621
2.1872334 0.50142324 3.6128561
2.2725778 0.4414334 3.4821289
2.3511217 0.38428721 3.3615837
2.4317598 0.33206066 3.24509
2.2374241 0.48792145 3.5186403
2.3299959 0.43370649 3.3988857
2.4115927 0.38051271 3.2803557
2.4820683 0.3294847 3.1550705
2.2989838 0.47803578 3.4432833
2.382318 0.42508808 3.3107204
2.4598713 0.37496245 3.1893206
2.5416491 0.32962257 3.078932
2.3482571 0.46646491 3.353121
2.4398756 0.41923425 3.2345111
2.5194588 0.3720828 3.1141274
2.5940547 0.32794881 2.9938915
2.4037616 0.45665506 3.2748778
2.4953547 0.41246009 3.1543226
2.568872 0.36740217 3.0300891
2.6475577 0.32718077 2.9138489
2.4593267 0.44779077 3.1996517
2.5457971 0.40574002 3.0722287
2.6244042 0.36459112 2.951972
2.7000461 0.32743427 2.8328433
2.511817 0.43900964 3.1204832
2.5972996 0.39996195 2.9931333
2.6769598 0.36277261 2.874929
2.7546504 0.32857189 2.7578158
2.5602672 0.42927918 3.0393724
2.6529176 0.39506084 2.9199786
2.7254367 0.36004096 2.7939446
2.8031359 0.32783991 2.6768677
2.6148546 0.42140031 2.965183
2.6963053 0.38842016 2.8350172
2.7708921 0.35633838 2.7119987
2.8536656 0.32906422 2.5979168
2.6664429 0.41353214 2.8910499
2.7509272 0.38452244 2.7618992
2.8255262 0.35544011 2.6389346
2.9052703 0.33021262 2.5229461
2.7118969 0.40481222 2.8100135
2.7994716 0.37971878 2.6848774
2.8689857 0.35274455 2.5570447
