# .PCD v0.7 - Point Cloud Data file format
VERSION 0.7
FIELDS x y z
SIZE 4 4 4
TYPE F F F
COUNT 1 1 1
WIDTH 1393
HEIGHT 1
VIEWPOINT 0 0 0 1 0 0 0
POINTS 1393
DATA ascii
-0.02611593 -0.059798401 0.050936799
0.37048382 -0.087179914 1.0953702
0.394467 -0.11435191 1.099431
-0.02611593 -0.059798401 0.050936799
0.37763691 -0.062263556 1.098688
0.4100157 -0.088844299 1.1236094
0.43079743 -0.11480671 1.1167485
0.38073456 -0.037278574 1.0990821
0.48003417 -0.063911408 1.278802
0.44525269 -0.089205071 1.1359473
1.8420361 -0.27460724 4.1264558
0.48311007 -0.034890935 1.277269
1.8002675 -0.076876029 4.2078424
1.8541421 -0.17539582 4.113019
1.90692 -0.26980412 4.012289
1.8065162 0.020212561 4.2024798
1.8642138 -0.08015842 4.0985484
1.9180665 -0.17464271 4.0017982
1.9781734 -0.26638418 3.917985
1.8674434 0.011941776 4.093152
1.9262165 -0.083487913 3.9922915
1.9822344 -0.17412476 3.903573
2.0412407 -0.26275465 3.8138344
1.9285243 0.0045261309 3.9918401
1.9904622 -0.087059736 3.8989921
2.0474396 -0.1736466 3.8073282
2.1044433 -0.25825188 3.7166996
1.9949077 -0.0021970868 3.9064467
2.0546892 -0.090613469 3.8046937
2.1117384 -0.17325528 3.7161005
2.1697726 -0.25488275 3.626507
2.0520494 -0.0086528212 3.8082266
2.114996 -0.093225375 3.7144866
2.1751125 -0.17293271 3.62889
2.229032 -0.25041991 3.5324464
2.1133773 -0.01530382 3.719928
2.1752837 -0.09581919 3.6232798
2.2323003 -0.17240775 3.531796
2.285213 -0.24687377 3.4344254
2.1727288 -0.020965893 3.6326852
2.234684 -0.098517954 3.5380902
2.2865639 -0.17194436 3.4387567
2.3476927 -0.24363859 3.3522863
2.2260022 -0.027533911 3.5415378
2.2889316 -0.1020539 3.444979
2.3521619 -0.17184606 3.3635051
2.4070978 -0.24032027 3.2662051
2.2783549 -0.03317086 3.4544263
2.3443747 -0.10377465 3.3618817
2.4014077 -0.17134665 3.2695603
2.4615269 -0.23600227 3.1812351
2.3358185 -0.03893429 3.3732188
2.4018877 -0.10657477 3.2827275
2.4578805 -0.17008959 3.1874979
2.516933 -0.23266962 3.0952291
2.3892646 -0.044665281 3.2910864
2.4511962 -0.1091472 3.1927271
2.5133872 -0.16986495 3.1074355
2.571414 -0.22940573 3.0132401
2.4417481 -0.05042886 3.2109723
2.5077884 -0.11101626 3.1176083
2.5658193 -0.1695572 3.0234311
2.6259365 -0.22517817 2.9332685
2.4983058 -0.056279149 3.1347821
2.5592091 -0.1137044 3.0335681
2.6193075 -0.16930729 2.9424064
2.6824319 -0.22293937 2.8522241
2.5497894 -0.062039137 3.0546865
2.6107419 -0.11650107 2.9555266
2.6738744 -0.1681335 2.86538
2.7329364 -0.21867937 2.771328
2.6003149 -0.066831872 2.9766273
2.6663342 -0.11836654 2.8804266
2.7182705 -0.16776085 2.7795265
2.7743301 -0.21427856 2.6846032
2.6529334 -0.071722239 2.9035289
2.7118347 -0.12010568 2.8005161
2.7637639 -0.1664824 2.6986706
2.8278861 -0.21108343 2.6066318
2.698422 -0.076460868 2.8235645
2.7644274 -0.12196037 2.7254725
2.8194242 -0.16540265 2.6266234
2.8774245 -0.20785587 2.5277359
2.7408512 -0.082134292 2.7406394
2.8058727 -0.12363088 2.6426382
2.8638954 -0.16510236 2.5447686
2.9767549 -0.20658182 2.4908867
2.795563 -0.087122284 2.6725018
2.8554664 -0.12547481 2.5676508
2.9621992 -0.16580629 2.5069025
3.0211816 -0.20322776 2.4060869
2.8390334 -0.091835633 2.5915754
2.9233372 -0.12765469 2.5073204
3.0168371 -0.16570468 2.4338565
3.0757937 -0.20009048 2.3310959
2.8845971 -0.096646622 2.5156093
3.0054073 -0.13108361 2.4577048
3.0623496 -0.16444433 2.3540001
3.1233175 -0.19583783 2.251256
2.979938 -0.1023932 2.4807086
3.0499682 -0.13187359 2.38083
3.1099365 -0.1632635 2.2781048
3.1891334 -0.192939 2.1870544
3.0275617 -0.10626578 2.407722
3.0863955 -0.13350807 2.2970903
3.1635742 -0.16315831 2.2050776
3.2295647 -0.18857078 2.1023479
3.0700881 -0.11102982 2.3298132
3.1552436 -0.13667327 2.235723
3.2081053 -0.16191246 2.1262398
3.283196 -0.18544801 2.0283749
3.1288404 -0.11506853 2.2636178
3.1987672 -0.13742349 2.1568682
3.258673 -0.16072431 2.0492885
4.7226048 -0.23187457 2.7368255
3.1713488 -0.11981446 2.1847093
3.2473421 -0.13924573 2.0808997
4.7024565 -0.20250979 2.7767477
4.7945247 -0.22713278 2.6245267
3.2158937 -0.12460376 2.1077626
4.6671872 -0.17598212 2.8108995
4.7694221 -0.20080382 2.6674879
4.5848231 -0.21278588 2.3736277
3.2756231 -0.12962779 2.0405307
4.7361927 -0.17833689 2.7045286
4.7949495 -0.19751669 2.5350242
4.7507896 -0.21040876 2.3165441
4.7082829 -0.1652301 2.7603073
4.8062167 -0.18071336 2.5991392
4.7317672 -0.19220847 2.3652456
4.9933147 -0.21086483 2.2889857
4.7691803 -0.17146504 2.6490166
4.7157049 -0.17900003 2.4128013
4.774549 -0.19023547 2.2464402
5.0823851 -0.20532891 2.1843827
4.6857076 -0.17383043 2.4654746
4.7635679 -0.18013489 2.2988462
5.0412073 -0.19392188 2.2263741
5.1452169 -0.19946454 2.0672727
4.742662 -0.1801053 2.3572581
5.0121021 -0.18764751 2.2730484
5.1222076 -0.1923023 2.1188502
13.573864 -0.40920773 4.9866614
4.7935424 -0.18628627 2.2451556
5.0911245 -0.19005623 2.1674895
13.503313 -0.40126285 5.1161699
13.780454 -0.39474252 4.6939559
5.0612073 -0.19801107 2.2269258
5.1549621 -0.19223028 2.0522158
13.691847 -0.39671326 4.8226228
13.971821 -0.38000649 4.3895364
5.121067 -0.20420623 2.1136546
13.601256 -0.40972918 4.9541278
13.878252 -0.39202988 4.5221157
14.178265 -0.36439672 4.0888515
13.501978 -0.45312378 5.108254
13.796803 -0.41625714 4.66325
14.07971 -0.3874546 4.2243257
14.380578 -0.34864604 3.7812445
13.691538 -0.47068259 4.8202901
13.986158 -0.42358249 4.3624701
14.265984 -0.38264459 3.9168208
14.567647 -0.33360615 3.4609053
13.886061 -0.48822317 4.530232
14.186555 -0.42998368 4.0635014
14.479229 -0.37891322 3.6077909
14.576978 -0.31317198 3.1019788
14.075375 -0.50654662 4.2292542
14.375826 -0.4352189 3.7577596
14.568928 -0.37118018 3.2701371
13.652027 -0.27803332 2.574753
14.277722 -0.52495289 3.9300313
14.561868 -0.44122612 3.4400597
14.001087 -0.34949312 2.8010018
12.988733 -0.25049114 2.1345208
14.469007 -0.54124779 3.6270525
14.410614 -0.43769008 3.0548248
13.276372 -0.32633319 2.3398333
12.368306 -0.2249497 1.7404653
14.275384 -0.5472337 3.2244327
13.579103 -0.41637141 2.5526087
12.625462 -0.30523103 1.9212596
11.807559 -0.20128912 1.3822705
13.46274 -0.52987397 2.7157893
12.893828 -0.39880282 2.1156082
12.063452 -0.28633085 1.5499979
11.30939 -0.18042958 1.0548639
12.762251 -0.51505208 2.2680206
12.296391 -0.38437825 1.7229218
11.536048 -0.26914948 1.2110684
6.0141745 -0.11561363 0.44396996
12.157752 -0.50254774 1.8724306
11.740678 -0.37080628 1.3684516
6.1194568 -0.1674255 0.52108771
6.0515656 -0.10822558 0.30335587
11.598859 -0.49180171 1.5089657
11.22756 -0.35696405 1.0451994
5.9646173 -0.16009495 0.37006813
6.0439086 -0.10062174 0.16058838
11.106743 -0.48105243 1.1862645
6.0207834 -0.21963915 0.4429642
6.0060105 -0.15673865 0.23030649
3.8831375 -0.08078517 0.03035849
6.1151948 -0.29662436 0.53183407
6.0621386 -0.22126392 0.30211276
6.0813751 -0.15448612 0.088888258
6.2096033 -0.085100025 -0.12633035
5.9672918 -0.29528177 0.37857553
6.0364571 -0.22059432 0.15955736
6.170681 -0.15222956 -0.055792015
3.6219506 -0.07071276 -0.13862647
6.0106463 -0.3019309 0.23859613
3.8727984 -0.16271724 0.028069228
3.6355963 -0.11153044 -0.096606061
-0.02611593 -0.059798401 0.050936799
6.0769773 -0.30864456 0.097184844
3.8081398 -0.16188104 -0.059734829
3.64097 -0.10898198 -0.18369009
-0.02611593 -0.059798401 0.050936799
-0.02611593 -0.059798401 0.050936799
3.6106148 -0.15665866 -0.13996936
3.7691638 -0.10872991 -0.28111866
3.8107722 -0.055400208 -0.41897976
3.6252871 -0.2145675 -0.093275741
-0.02611593 -0.059798401 0.050936799
3.8623114 -0.10729814 -0.38087058
1.9368708 -0.055340312 -0.23583212
3.6486337 -0.21808261 -0.18080612
-0.02611593 -0.059798401 0.050936799
3.8555937 -0.10461617 -0.47272742
4.2560635 -0.043512575 -0.67618895
-0.02611593 -0.059798401 0.050936799
3.8063152 -0.16233148 -0.42283189
3.9436114 -0.10303982 -0.57938296
3.4290009 -0.041300692 -0.6186446
-0.02611593 -0.059798401 0.050936799
1.9316292 -0.11229458 -0.23776489
4.0943327 -0.10241806 -0.70223528
3.5180864 -0.036782712 -0.72226596
3.8780711 -0.23667628 -0.47553805
4.2275171 -0.17435363 -0.68002254
3.5743954 -0.094498575 -0.69535506
3.3621716 -0.032304395 -0.77028203
-0.02611593 -0.059798401 0.050936799
3.4493885 -0.1531942 -0.63005424
3.8018031 -0.093863741 -0.83564883
3.4760692 -0.026695417 -0.88435173
4.0757842 -0.25236416 -0.70260048
3.3571365 -0.15063775 -0.69630319
3.5303066 -0.088349164 -0.86047435
2.6358626 -0.031237757 -0.72664952
3.4204409 -0.22343045 -0.66679519
3.4113169 -0.15210165 -0.79337698
3.7495058 -0.08848647 -1.0116321
2.5371957 -0.028217088 -0.7617594
3.888762 -0.24975508 -0.86210585
3.5002623 -0.15447395 -0.90312237
2.6081209 -0.07759019 -0.75697887
2.4286387 -0.026268892 -0.79070157
3.4619634 -0.23127976 -0.85077697
2.6492198 -0.13203566 -0.74172807
2.4518018 -0.074686967 -0.77300507
-0.02611593 -0.059798401 0.050936799
3.7408037 -0.24835819 -1.0183634
2.5594766 -0.12897494 -0.7810058
2.432723 -0.072573371 -0.83062911
-0.02611593 -0.059798401 0.050936799
3.6454921 -0.2467365 -1.0875729
2.4479241 -0.12601614 -0.80987346
-0.02611593 -0.059798401 0.050936799
0.17634198 -0.056065839 -0.033814963
2.0348611 -0.16642888 -0.64181387
-0.02611593 -0.059798401 0.050936799
0.18330628 -0.060072191 -0.035018235
-0.02611593 -0.059798401 0.050936799
3.4610763 -0.24271385 -1.2150908
0.19126645 -0.065081961 -0.036258303
-0.02611593 -0.059798401 0.050936799
0.15034674 -0.055972528 -0.03332641
-0.02611593 -0.059798401 0.050936799
-0.02611593 -0.059798401 0.050936799
0.15731104 -0.05997888 -0.034529682
-0.02611593 -0.059798401 0.050936799
0.1753059 -0.070077948 -0.033048771
0.17319486 -0.064945005 -0.039918728
-0.02611593 -0.059798401 0.050936799
0.13233131 -0.055889837 -0.033987846
-0.02611593 -0.059798401 0.050936799
-0.02611593 -0.059798401 0.050936799
0.13829578 -0.059892599 -0.035172313
-0.02611593 -0.059798401 0.050936799
0.14635257 -0.06901022 -0.030486505
0.14920317 -0.063859038 -0.039449736
-0.02611593 -0.059798401 0.050936799
0.11733405 -0.055836003 -0.033705987
-0.02611593 -0.059798401 0.050936799
-0.02611593 -0.059798401 0.050936799
0.11932191 -0.05884267 -0.033797622
-0.02611593 -0.059798401 0.050936799
0.13229898 -0.068905704 -0.033222418
0.12526374 -0.063827172 -0.035999775
-0.02611593 -0.059798401 0.050936799
0.097393893 -0.055818491 -0.030331191
-0.02611593 -0.059798401 0.050936799
-0.02611593 -0.059798401 0.050936799
0.10728666 -0.058763422 -0.035571456
-0.02611593 -0.059798401 0.050936799
0.1172682 -0.067815877 -0.034921858
0.1112515 -0.062759012 -0.036718357
-0.02611593 -0.059798401 0.050936799
0.088358089 -0.055750012 -0.032161396
-0.02611593 -0.059798401 0.050936799
-0.02611593 -0.059798401 0.050936799
0.090345941 -0.058756679 -0.032253031
-0.02611593 -0.059798401 0.050936799
0.10227095 -0.06776204 -0.034639999
0.098235168 -0.062694266 -0.037473738
-0.02611593 -0.059798401 0.050936799
0.081303202 -0.055670626 -0.035028845
-0.02611593 -0.059798401 0.050936799
-0.02611593 -0.059798401 0.050936799
0.076385953 -0.058742613 -0.029990643
-0.02611593 -0.059798401 0.050936799
0.08829616 -0.066730052 -0.033359263
0.084275164 -0.0626802 -0.035211343
-0.02611593 -0.059798401 0.050936799
0.064418651 -0.055718146 -0.028711442
-0.02611593 -0.059798401 0.050936799
-0.02611593 -0.059798401 0.050936799
0.068368688 -0.058695816 -0.03083998
-0.02611593 -0.059798401 0.050936799
0.080260187 -0.066665165 -0.035208255
0.077220276 -0.062600806 -0.038078796
-0.02611593 -0.059798401 0.050936799
0.060344495 -0.055631433 -0.032634925
-0.02611593 -0.059798401 0.050936799
-0.02611593 -0.059798401 0.050936799
0.059370331 -0.05866351 -0.030670863
-0.02611593 -0.059798401 0.050936799
0.065341748 -0.065683857 -0.030909736
0.06820713 -0.061550591 -0.038891323
-0.02611593 -0.059798401 0.050936799
0.052364677 -0.055620812 -0.031484935
-0.02611593 -0.059798401 0.050936799
-0.02611593 -0.059798401 0.050936799
0.055296179 -0.0585768 -0.034594346
-0.02611593 -0.059798401 0.050936799
0.056343392 -0.065651551 -0.030740622
0.062170789 -0.061492879 -0.040777903
-0.02611593 -0.059798401 0.050936799
0.043403774 -0.05562469 -0.0293165
-0.02611593 -0.059798401 0.050936799
-0.02611593 -0.059798401 0.050936799
0.04925983 -0.058519088 -0.03648093
-0.02611593 -0.059798401 0.050936799
0.047386415 -0.064655602 -0.028554171
0.051210247 -0.061489578 -0.038571883
-0.02611593 -0.059798401 0.050936799
0.038367242 -0.055570569 -0.031221867
-0.02611593 -0.059798401 0.050936799
-0.02611593 -0.059798401 0.050936799
0.039336547 -0.058555555 -0.032294378
-0.02611593 -0.059798401 0.050936799
0.045270514 -0.065539725 -0.034532569
0.043249149 -0.06149704 -0.036422238
-0.02611593 -0.059798401 0.050936799
0.033368155 -0.055552624 -0.031127915
-0.02611593 -0.059798401 0.050936799
-0.02611593 -0.059798401 0.050936799
0.033337653 -0.058534022 -0.032181635
-0.02611593 -0.059798401 0.050936799
0.035351165 -0.064576358 -0.030328002
0.038193896 -0.061424833 -0.039327271
-0.02611593 -0.059798401 0.050936799
-0.02611593 -0.059798401 0.050936799
-0.02611593 -0.059798401 0.050936799
-0.02611593 -0.059798401 0.050936799
-0.02611593 -0.059798401 0.050936799
-0.02611593 -0.059798401 0.050936799
-0.02611593 -0.059798401 0.050936799
0.030251522 -0.061450385 -0.036177963
-0.02611593 -0.059798401 0.050936799
-0.02611593 -0.059798401 0.050936799
-0.02611593 -0.059798401 0.050936799
-0.02611593 -0.059798401 0.050936799
-0.02611593 -0.059798401 0.050936799
-0.02611593 -0.059798401 0.050936799
-0.02611593 -0.059798401 0.050936799
0.026196092 -0.061381768 -0.039101787
-0.02611593 -0.059798401 0.050936799
-0.02611593 -0.059798401 0.050936799
-0.02611593 -0.059798401 0.050936799
-0.02611593 -0.059798401 0.050936799
-0.02611593 -0.059798401 0.050936799
-0.02611593 -0.059798401 0.050936799
-0.02611593 -0.059798401 0.050936799
-0.02611593 -0.059798401 0.050936799
-0.02611593 -0.059798401 0.050936799
-0.02611593 -0.059798401 0.050936799
-0.02611593 -0.059798401 0.050936799
-0.02611593 -0.059798401 0.050936799
-0.02611593 -0.059798401 0.050936799
-0.02611593 -0.059798401 0.050936799
-0.02611593 -0.059798401 0.050936799
-0.02611593 -0.059798401 0.050936799
-0.02611593 -0.059798401 0.050936799
-0.02611593 -0.059798401 0.050936799
-0.02611593 -0.059798401 0.050936799
-0.02611593 -0.059798401 0.050936799
-0.02611593 -0.059798401 0.050936799
-0.02611593 -0.059798401 0.050936799
-0.02611593 -0.059798401 0.050936799
0.011165317 -0.060291924 -0.040801231
-0.02611593 -0.059798401 0.050936799
-0.02611593 -0.059798401 0.050936799
-0.02611593 -0.059798401 0.050936799
-0.02611593 -0.059798401 0.050936799
-0.02611593 -0.059798401 0.050936799
-0.02611593 -0.059798401 0.050936799
-0.02611593 -0.059798401 0.050936799
-0.02611593 -0.059798401 0.050936799
-0.02611593 -0.059798401 0.050936799
-0.02611593 -0.059798401 0.050936799
-0.02611593 -0.059798401 0.050936799
-0.02611593 -0.059798401 0.050936799
-0.02611593 -0.059798401 0.050936799
-0.02611593 -0.059798401 0.050936799
-0.02611593 -0.059798401 0.050936799
-0.02611593 -0.059798401 0.050936799
-0.02611593 -0.059798401 0.050936799
-0.02611593 -0.059798401 0.050936799
-0.02611593 -0.059798401 0.050936799
-0.02611593 -0.059798401 0.050936799
-0.02611593 -0.059798401 0.050936799
-0.02611593 -0.059798401 0.050936799
-0.02611593 -0.059798401 0.050936799
-0.02611593 -0.059798401 0.050936799
-0.02611593 -0.059798401 0.050936799
-0.02611593 -0.059798401 0.050936799
-0.02611593 -0.059798401 0.050936799
-0.02611593 -0.059798401 0.050936799
-0.02611593 -0.059798401 0.050936799
-0.02611593 -0.059798401 0.050936799
-0.02611593 -0.059798401 0.050936799
-0.02611593 -0.059798401 0.050936799
-0.02611593 -0.059798401 0.050936799
-0.02611593 -0.059798401 0.050936799
-0.02611593 -0.059798401 0.050936799
-0.02611593 -0.059798401 0.050936799
-0.02611593 -0.059798401 0.050936799
-0.02611593 -0.059798401 0.050936799
-0.02611593 -0.059798401 0.050936799
-0.02611593 -0.059798401 0.050936799
-0.02611593 -0.059798401 0.050936799
-0.02611593 -0.059798401 0.050936799
-0.02611593 -0.059798401 0.050936799
-0.02611593 -0.059798401 0.050936799
-0.02611593 -0.059798401 0.050936799
-0.02611593 -0.059798401 0.050936799
-0.02611593 -0.059798401 0.050936799
-0.02611593 -0.059798401 0.050936799
-0.02611593 -0.059798401 0.050936799
-0.02611593 -0.059798401 0.050936799
-0.02611593 -0.059798401 0.050936799
-0.02611593 -0.059798401 0.050936799
-0.02611593 -0.059798401 0.050936799
-0.02611593 -0.059798401 0.050936799
-0.02611593 -0.059798401 0.050936799
-0.02611593 -0.059798401 0.050936799
-0.02611593 -0.059798401 0.050936799
-0.02611593 -0.059798401 0.050936799
-0.02611593 -0.059798401 0.050936799
-0.02611593 -0.059798401 0.050936799
-0.02611593 -0.059798401 0.050936799
-0.02611593 -0.059798401 0.050936799
-0.02611593 -0.059798401 0.050936799
-0.02611593 -0.059798401 0.050936799
-0.02611593 -0.059798401 0.050936799
-0.02611593 -0.059798401 0.050936799
-0.02611593 -0.059798401 0.050936799
-0.02611593 -0.059798401 0.050936799
-0.02611593 -0.059798401 0.050936799
-0.02611593 -0.059798401 0.050936799
-0.02611593 -0.059798401 0.050936799
-0.02611593 -0.059798401 0.050936799
-0.02611593 -0.059798401 0.050936799
-0.02611593 -0.059798401 0.050936799
-0.02611593 -0.059798401 0.050936799
-0.02611593 -0.059798401 0.050936799
-0.02611593 -0.059798401 0.050936799
-0.02611593 -0.059798401 0.050936799
-0.02611593 -0.059798401 0.050936799
-0.02611593 -0.059798401 0.050936799
-0.02611593 -0.059798401 0.050936799
-0.02611593 -0.059798401 0.050936799
-0.02611593 -0.059798401 0.050936799
-0.02611593 -0.059798401 0.050936799
-0.02611593 -0.059798401 0.050936799
-0.02611593 -0.059798401 0.050936799
-0.02611593 -0.059798401 0.050936799
-0.02611593 -0.059798401 0.050936799
-0.02611593 -0.059798401 0.050936799
-0.02611593 -0.059798401 0.050936799
-0.02611593 -0.059798401 0.050936799
-0.02611593 -0.059798401 0.050936799
-0.02611593 -0.059798401 0.050936799
-0.02611593 -0.059798401 0.050936799
-0.02611593 -0.059798401 0.050936799
-0.02611593 -0.059798401 0.050936799
-0.02611593 -0.059798401 0.050936799
-0.02611593 -0.059798401 0.050936799
-0.02611593 -0.059798401 0.050936799
-0.02611593 -0.059798401 0.050936799
-0.02611593 -0.059798401 0.050936799
-0.02611593 -0.059798401 0.050936799
-0.02611593 -0.059798401 0.050936799
-0.02611593 -0.059798401 0.050936799
-0.02611593 -0.059798401 0.050936799
-0.02611593 -0.059798401 0.050936799
-0.02611593 -0.059798401 0.050936799
-0.02611593 -0.059798401 0.050936799
-0.02611593 -0.059798401 0.050936799
-0.02611593 -0.059798401 0.050936799
-0.02611593 -0.059798401 0.050936799
-0.02611593 -0.059798401 0.050936799
-0.02611593 -0.059798401 0.050936799
-0.02611593 -0.059798401 0.050936799
-0.02611593 -0.059798401 0.050936799
-0.02611593 -0.059798401 0.050936799
-0.02611593 -0.059798401 0.050936799
-0.02611593 -0.059798401 0.050936799
-0.02611593 -0.059798401 0.050936799
-0.02611593 -0.059798401 0.050936799
-0.02611593 -0.059798401 0.050936799
-0.02611593 -0.059798401 0.050936799
-0.02611593 -0.059798401 0.050936799
-0.02611593 -0.059798401 0.050936799
-0.02611593 -0.059798401 0.050936799
-0.02611593 -0.059798401 0.050936799
-0.02611593 -0.059798401 0.050936799
-0.02611593 -0.059798401 0.050936799
-0.02611593 -0.059798401 0.050936799
-0.02611593 -0.059798401 0.050936799
-0.02611593 -0.059798401 0.050936799
-0.02611593 -0.059798401 0.050936799
-0.02611593 -0.059798401 0.050936799
-0.02611593 -0.059798401 0.050936799
-0.02611593 -0.059798401 0.050936799
-0.02611593 -0.059798401 0.050936799
-0.02611593 -0.059798401 0.050936799
-0.02611593 -0.059798401 0.050936799
-0.02611593 -0.059798401 0.050936799
-0.02611593 -0.059798401 0.050936799
-0.02611593 -0.059798401 0.050936799
-0.02611593 -0.059798401 0.050936799
-0.02611593 -0.059798401 0.050936799
-0.070815749 -0.058997802 -0.039242387
-0.02611593 -0.059798401 0.050936799
-0.02611593 -0.059798401 0.050936799
-0.02611593 -0.059798401 0.050936799
-0.02611593 -0.059798401 0.050936799
-0.02611593 -0.059798401 0.050936799
-0.02611593 -0.059798401 0.050936799
-0.02611593 -0.059798401 0.050936799
-0.02611593 -0.059798401 0.050936799
-0.02611593 -0.059798401 0.050936799
-0.02611593 -0.059798401 0.050936799
-0.02611593 -0.059798401 0.050936799
-0.02611593 -0.059798401 0.050936799
-0.02611593 -0.059798401 0.050936799
-0.02611593 -0.059798401 0.050936799
-0.02611593 -0.059798401 0.050936799
-0.078720674 -0.059059538 -0.03409376
-0.02611593 -0.059798401 0.050936799
-0.02611593 -0.059798401 0.050936799
-0.02611593 -0.059798401 0.050936799
-0.02611593 -0.059798401 0.050936799
-0.079697847 -0.05807421 -0.033057287
-0.02611593 -0.059798401 0.050936799
-0.082671627 -0.061099108 -0.031055637
-0.084719568 -0.059038006 -0.033981014
-0.02611593 -0.059798401 0.050936799
-0.02611593 -0.059798401 0.050936799
-0.02611593 -0.059798401 0.050936799
-0.02611593 -0.059798401 0.050936799
-0.084678203 -0.058074355 -0.031963669
-0.02611593 -0.059798401 0.050936799
-0.086614728 -0.061139017 -0.027981497
-0.093830265 -0.058897171 -0.039809864
-0.02611593 -0.059798401 0.050936799
-0.02611593 -0.059798401 0.050936799
-0.02611593 -0.059798401 0.050936799
-0.02611593 -0.059798401 0.050936799
-0.089658566 -0.058074497 -0.03087005
-0.02611593 -0.059798401 0.050936799
-0.095669255 -0.061052453 -0.030811362
-0.099791721 -0.058911815 -0.037697803
-0.02611593 -0.059798401 0.050936799
-0.087576181 -0.056154367 -0.026872955
-0.02611593 -0.059798401 0.050936799
-0.02611593 -0.059798401 0.050936799
-0.094638929 -0.058074642 -0.029776447
-0.02611593 -0.059798401 0.050936799
-0.097556546 -0.061153807 -0.024775818
-0.10780898 -0.058865014 -0.038547136
-0.02611593 -0.059798401 0.050936799
-0.095630892 -0.056071389 -0.029721618
-0.02611593 -0.059798401 0.050936799
-0.02611593 -0.059798401 0.050936799
-0.10163765 -0.058049519 -0.02964491
-0.02611593 -0.059798401 0.050936799
-0.10559253 -0.06108892 -0.026624817
-0.11173335 -0.058923014 -0.03447333
-0.02611593 -0.059798401 0.050936799
-0.10059253 -0.056089625 -0.02762834
-0.02611593 -0.059798401 0.050936799
-0.02611593 -0.059798401 0.050936799
-0.11169199 -0.057959363 -0.032455992
-0.02611593 -0.059798401 0.050936799
-0.11664668 -0.060995173 -0.029417109
-0.11871335 -0.05891598 -0.033342138
-0.02611593 -0.059798401 0.050936799
-0.10659144 -0.056068093 -0.027515594
-0.02611593 -0.059798401 0.050936799
-0.02611593 -0.059798401 0.050936799
-0.11461654 -0.058020953 -0.028400969
-0.02611593 -0.059798401 0.050936799
-0.12260814 -0.061009817 -0.027305037
-0.1277117 -0.058883682 -0.033173021
-0.02611593 -0.059798401 0.050936799
-0.11357144 -0.056061056 -0.026384402
-0.02611593 -0.059798401 0.050936799
-0.02611593 -0.059798401 0.050936799
-0.12057801 -0.058035597 -0.026288908
-0.02611593 -0.059798401 0.050936799
-0.13462467 -0.060948662 -0.028079212
-0.14074677 -0.05880085 -0.034928065
-0.02611593 -0.059798401 0.050936799
-0.12157388 -0.057032175 -0.026252098
-0.02611593 -0.059798401 0.050936799
-0.02611593 -0.059798401 0.050936799
-0.13465033 -0.057912994 -0.030024476
-0.02611593 -0.059798401 0.050936799
-0.14663726 -0.059887677 -0.028835375
-0.14668952 -0.05883358 -0.031816341
-0.02611593 -0.059798401 0.050936799
-0.13360915 -0.056952931 -0.028025929
-0.02611593 -0.059798401 0.050936799
-0.02611593 -0.059798401 0.050936799
-0.14564832 -0.057873517 -0.029817779
-0.02611593 -0.059798401 0.050936799
-0.15963487 -0.059841022 -0.0285911
-0.16070567 -0.058765247 -0.032552935
-0.02611593 -0.059798401 0.050936799
-0.1436073 -0.056917045 -0.027838022
-0.02611593 -0.059798401 0.050936799
-0.02611593 -0.059798401 0.050936799
-0.15764612 -0.057830449 -0.029592294
-0.02611593 -0.059798401 0.050936799
-0.17361359 -0.059808869 -0.027328365
-0.1787211 -0.058682557 -0.033214364
-0.02611593 -0.059798401 0.050936799
-0.15458657 -0.056895651 -0.026631668
-0.02611593 -0.059798401 0.050936799
-0.02611593 -0.059798401 0.050936799
-0.16960648 -0.057823561 -0.027367488
-0.02611593 -0.059798401 0.050936799
-0.19362865 -0.059719 -0.02795222
-0.19875489 -0.058574602 -0.034837879
-0.02611593 -0.059798401 0.050936799
-0.17162482 -0.057798296 -0.028329574
-0.02611593 -0.059798401 0.050936799
-0.02611593 -0.059798401 0.050936799
-0.19065879 -0.057693928 -0.029971872
-0.02611593 -0.059798401 0.050936799
-0.20958829 -0.059697755 -0.025652245
-0.21167761 -0.058600303 -0.030594956
-0.02611593 -0.059798401 0.050936799
-0.18560356 -0.05776614 -0.027066838
-0.02611593 -0.059798401 0.050936799
-0.02611593 -0.059798401 0.050936799
-0.20358153 -0.057719626 -0.025728952
-0.02611593 -0.059798401 0.050936799
-0.24665642 -0.05949261 -0.028955638
-0.23767285 -0.058506992 -0.030106403
-0.02611593 -0.059798401 0.050936799
-0.20659971 -0.057690773 -0.026672237
-0.02611593 -0.059798401 0.050936799
-0.02611593 -0.059798401 0.050936799
-0.23161384 -0.05758296 -0.027202141
-0.02611593 -0.059798401 0.050936799
-1.0281435 -0.058253095 -0.26038015
-0.26766735 -0.058399323 -0.029542685
-0.02611593 -0.059798401 0.050936799
-0.23463203 -0.057554103 -0.028145421
-1.0407441 -0.05758648 -0.23912494
-0.02611593 -0.059798401 0.050936799
-0.25959 -0.05750056 -0.02567634
-0.02611593 -0.059798401 0.050936799
-1.0503117 -0.057966638 -0.21594486
-1.0426984 -0.05561582 -0.23705202
-0.02611593 -0.059798401 0.050936799
-0.26764864 -0.05841741 -0.028543018
-1.0659115 -0.057289254 -0.19463326
-1.0643386 -0.055880554 -0.21764505
-1.0466789 -0.055619549 -0.23597717
-0.02611593 -0.059798401 0.050936799
-1.0704575 -0.056705616 -0.17052945
-1.0668701 -0.056322012 -0.19259717
-1.0683191 -0.055884287 -0.21657023
-1.0456496 -0.057658978 -0.23403269
-1.076003 -0.056118391 -0.14640683
-1.0644025 -0.056781419 -0.16764322
-1.0618187 -0.057394058 -0.18971013
-1.0682974 -0.059919786 -0.21464297
-1.0975832 -0.055437561 -0.12398286
-1.087005 -0.057078745 -0.14621815
-1.0794263 -0.058709156 -0.16839704
-1.0718514 -0.06133939 -0.19059399
-1.1101463 -0.054807127 -0.10072838
-1.1056082 -0.057390422 -0.12486824
-1.0849757 -0.059121761 -0.14429244
-1.084445 -0.063690357 -0.16839318
-1.1257087 -0.054165922 -0.0774175
-1.1181566 -0.057777904 -0.1006321
-1.1106005 -0.060390063 -0.12382868
-1.0980383 -0.066037737 -0.14617361
-1.1172007 -0.053683206 -0.050558947
-1.1297197 -0.057151057 -0.077396393
-1.1211531 -0.061784551 -0.099648148
-1.1146274 -0.067374513 -0.12387964
-1.1177326 -0.054131847 -0.025548637
-1.1272147 -0.057646636 -0.05044312
-1.1297059 -0.063186213 -0.075505182
-1.1261835 -0.06976524 -0.099698342
-1.135276 -0.053501554 -0.0012005121
-1.1317457 -0.058080919 -0.025357649
-1.1412398 -0.0645952 -0.050306179
-1.1407579 -0.072127111 -0.076460309
-1.1438023 -0.052921645 0.02397814
-1.1432755 -0.058490075 -0.00014062226
-1.1377534 -0.065076277 -0.024371363
-1.1442745 -0.07358291 -0.050411977
-1.167326 -0.052287914 0.049438659
-1.1468067 -0.05892795 0.024926066
-1.1452879 -0.066499628 0.00075247139
-1.1457951 -0.076045699 -0.024419241
-1.1838322 -0.051697385 0.075767308
-1.1703342 -0.059294045 0.05036857
-1.1638203 -0.067883499 0.026083
-0.02611593 -0.059798401 0.050936799
-0.02611593 -0.059798401 0.050936799
-1.1958426 -0.059671044 0.076848306
-1.1933507 -0.069227889 0.051620223
-0.02611593 -0.059798401 0.050936799
-1.2177882 -0.050567009 0.13144237
-1.206339 -0.061119802 0.10402783
-1.2078689 -0.071644023 0.077857234
-0.02611593 -0.059798401 0.050936799
-0.02611593 -0.059798401 0.050936799
-1.221812 -0.061568875 0.13231899
-1.2193463 -0.073107287 0.10605521
-1.2129043 -0.085641786 0.078698583
-1.2227535 -0.050540544 0.18655449
-1.2242872 -0.062064603 0.16036588
-1.2268434 -0.074566804 0.13317837
-1.2164059 -0.088115498 0.10572856
-1.2312049 -0.050032996 0.2157318
-1.2247814 -0.062549412 0.18737552
-1.22132 -0.07509125 0.16107492
-1.2178891 -0.090614475 0.13372061
-1.2326764 -0.049532488 0.24377792
-1.2342366 -0.063038111 0.2165536
-1.2298019 -0.077565104 0.18919849
-1.251333 -0.094034612 0.16429527
-0.02611593 -0.059798401 0.050936799
-1.2277322 -0.063548051 0.2434317
-1.2522212 -0.079043142 0.22060217
-0.02611593 -0.059798401 0.050936799
-0.02611593 -0.059798401 0.050936799
-1.2580899 -0.064051822 0.27800268
-0.02611593 -0.059798401 0.050936799
-1.2871851 -0.10002249 0.22687942
-0.02611593 -0.059798401 0.050936799
-0.02611593 -0.059798401 0.050936799
-1.2770675 -0.083070837 0.28301567
-0.02611593 -0.059798401 0.050936799
-0.02611593 -0.059798401 0.050936799
-1.3406557 -0.066124946 0.35553733
-0.02611593 -0.059798401 0.050936799
-0.02611593 -0.059798401 0.050936799
-1.524457 -0.045469038 0.47039115
-1.521222 -0.067828275 0.43391374
-0.02611593 -0.059798401 0.050936799
-0.02611593 -0.059798401 0.050936799
-3.1049507 -0.028593523 0.9884631
-1.5284904 -0.068505041 0.47305083
-1.5122845 -0.092892498 0.4352935
-1.4094462 -0.11624868 0.37692583
-3.093559 -0.027968343 1.0622861
-3.0971005 -0.08066766 0.9903748
-1.5145991 -0.095550694 0.47230127
-1.4765173 -0.12190823 0.42809653
-3.1606627 -0.026530124 1.1636028
-3.1085854 -0.083086051 1.0715736
-3.0892134 -0.13779521 0.99519539
-6.2240586 -0.33933419 1.8175211
-3.2376142 -0.025200728 1.2731047
-3.1737049 -0.085654326 1.1727806
-3.1086526 -0.14323865 1.0794895
-3.0873458 -0.20491762 1.0009482
-3.30055 -0.023939665 1.3833432
-3.2466543 -0.088356689 1.2831351
-3.1777306 -0.14984615 1.1836987
-3.1276655 -0.21441163 1.0925624
-3.3812573 -0.022831067 1.5059159
-3.3105679 -0.091127545 1.3953195
-3.238754 -0.15653664 1.2907562
-3.1857991 -0.22502175 1.1944935
-3.4668293 -0.020831324 1.6355982
-3.3962569 -0.095036328 1.5198954
-3.3007028 -0.16329588 1.4018316
-3.2547472 -0.23677312 1.3066096
-4.8039556 -0.0060649998 2.3841536
-3.480792 -0.098093584 1.6524676
-3.4012585 -0.17229471 1.5345964
-3.3305855 -0.24960776 1.4248376
-4.6726646 -0.0067979582 2.451705
-5.1122718 -0.12089624 2.5519056
-3.4827993 -0.18137982 1.668004
-3.4211779 -0.26262367 1.5563428
-4.5790858 -0.00766588 2.5349658
-4.924336 -0.12350782 2.6003563
-5.0994315 -0.24724707 2.567385
-3.4987431 -0.27772212 1.6895671
-4.7467432 -0.0051920004 2.7672279
-4.8434639 -0.12661818 2.6998196
-4.9708939 -0.25222185 2.648916
-3.4681804 -0.28536272 1.7738853
-3.4031539 -0.020387389 2.0965703
-4.7537231 -0.1296342 2.7921164
-4.8474078 -0.25612456 2.7275603
-3.3731945 -0.28867653 1.8260645
-4.544682 -0.0068912357 2.9284689
-3.2904348 -0.11191261 2.0447867
-4.7210193 -0.26094744 2.8011317
-3.2881694 -0.29199067 1.8804311
-4.4343166 -0.0086210184 3.0003955
-3.2183621 -0.11321659 2.101433
-4.6085348 -0.26581049 2.8799646
-3.2042036 -0.29624677 1.9317997
-3.2845948 -0.022210762 2.3383994
-3.1858027 -0.11684698 2.1847858
-4.4931407 -0.26959407 2.9537606
-3.1162915 -0.29946312 1.9801117
-2.6294847 -0.030090617 1.9668657
-3.212465 -0.1210037 2.3102527
-3.4987807 -0.23094134 2.4236627
-3.5314775 -0.34359872 2.3552141
-2.7450955 -0.028902162 2.1481133
-2.597831 -0.11217344 1.9637872
-3.3534706 -0.23178734 2.4389322
-2.973244 -0.3079941 2.0893161
-4.0102224 -0.014117524 3.2684469
-2.5093832 -0.11394131 1.9871072
-4.1601362 -0.2837348 3.1663418
-3.1894937 -0.33784541 2.3499134
-2.4607961 -0.032309458 2.1087151
-2.4574039 -0.11608288 2.0391128
-2.799 -0.21642779 2.2427621
-2.8184795 -0.31629685 2.1833005
-1.917961 -0.0384981 1.7233094
-2.4251595 -0.11840595 2.1054897
-3.9534822 -0.29308882 3.3073516
-2.7593822 -0.32158962 2.2421181
-1.8644317 -0.040212721 1.7512856
-1.9059761 -0.10878251 1.7358178
-3.8502395 -0.29768443 3.3733575
-2.6924138 -0.32578474 2.2938058
-1.822709 -0.041065339 1.789502
-1.8553711 -0.11055872 1.7678491
-1.8830944 -0.18101561 1.7430853
-1.9207419 -0.2565262 1.7234175
-1.9606006 -0.039481886 2.0091867
-1.8745216 -0.11427383 1.8671741
-1.8354516 -0.18281724 1.7771722
-1.8681415 -0.25930941 1.7553933
-2.1482246 -0.037927538 2.2968252
-2.0378635 -0.1221563 2.1181748
-1.9419736 -0.19680324 1.9659777
-1.8499324 -0.2665633 1.8209432
-3.3396826 -0.026868273 3.7188146
-2.2537615 -0.13323748 2.4471281
-2.1287215 -0.21721257 2.2512016
-2.0300205 -0.29670662 2.0898612
-3.250463 -0.028377973 3.7831388
-3.2988186 -0.17442456 3.7393873
-3.3570259 -0.32157978 3.7038033
-2.2391346 -0.33369994 2.4122159
-3.1504555 -0.030728005 3.8362417
-3.2085733 -0.17897353 3.8056378
-3.2608044 -0.32713205 3.7689233
-3.3140934 -0.48526713 3.7310476
-3.0651641 -0.033295535 3.9046216
-3.1124189 -0.18245375 3.8667955
-3.15973 -0.33155766 3.8259702
-3.2197635 -0.49192059 3.8021851
-2.9710994 -0.035678305 3.9608364
-3.0143771 -0.1858326 3.9219174
-3.0654707 -0.33713889 3.8931272
-3.1166747 -0.49737132 3.8601761
-2.8750536 -0.03805016 4.0160141
-2.9231849 -0.18933104 3.9851682
-2.9693205 -0.34161896 3.9542665
-3.0194569 -0.50392693 3.9252596
-2.7898142 -0.039563593 4.0814128
-2.830034 -0.19380033 4.0463638
-2.8722117 -0.34706622 4.01337
-2.9242251 -0.51149333 3.9913619
-2.6957345 -0.042964272 4.1386089
-2.7388413 -0.19729878 4.1096148
-2.780952 -0.35263672 4.0805836
-2.8270264 -0.51803094 4.0554457
-2.6036692 -0.045339856 4.1948614
-2.6446905 -0.20177165 4.1707921
-2.6857677 -0.35814917 4.143723
-2.7278655 -0.52453947 4.1174922
-2.5144911 -0.047813214 4.2571683
-2.5505772 -0.20620835 4.229969
-2.5856969 -0.36357105 4.2007709
-2.6286864 -0.53106618 4.1805387
-2.4232984 -0.051311675 4.3204193
-2.4535208 -0.21060154 4.2860918
-2.4924562 -0.36913058 4.2669463
-2.5314729 -0.5386216 4.2456045
-2.3302147 -0.05370893 4.3776526
-2.3613281 -0.21410358 4.3493237
-2.3963139 -0.37561029 4.3280506
-2.4322748 -0.54516637 4.3096504
-2.2400219 -0.057203796 4.4409218
-2.2681251 -0.21962696 4.4135008
-2.3011672 -0.38108659 4.3891907
-2.336132 -0.55164605 4.3707538
-2.1498623 -0.059662644 4.5022101
-2.1739929 -0.22408172 4.4736781
-2.2088368 -0.38773283 4.4603658
-2.2359381 -0.55919421 4.434763
-2.0548201 -0.063030742 4.5573888
-2.0827298 -0.22865236 4.5409098
-2.1087098 -0.39320898 4.5204124
-2.1376879 -0.56678945 4.5018086
-1.9625716 -0.066587038 4.6236196
-1.9875227 -0.23318309 4.6050668
-2.0086429 -0.39963067 4.5774422
-2.0384412 -0.57538813 4.5688176
-1.8664923 -0.069994904 4.6807785
-1.8864895 -0.23857239 4.6600966
-1.9132382 -0.40636006 4.6525598
-1.9323421 -0.58286744 4.6277161
-1.768432 -0.073391855 4.7369003
-1.7892497 -0.24414629 4.7261972
-1.8120779 -0.41287577 4.7145691
-1.8301109 -0.59045893 4.693687
-1.6742064 -0.077937089 4.8020759
-1.6891562 -0.24858642 4.7842631
-1.7079743 -0.41934803 4.7735224
-1.72879 -0.59913713 4.7646575
-1.5751088 -0.081373796 4.8601775
-1.5889916 -0.25409874 4.8463087
-1.6077764 -0.42589638 4.8375497
-1.6236196 -0.60768497 4.8275547
-1.4788421 -0.084962554 4.9273334
-1.4906958 -0.25973052 4.9153905
-1.5035083 -0.43353122 4.9054823
-1.515483 -0.61520755 4.8884149
-1.3738807 -0.089294009 4.9783072
-1.3874946 -0.26528978 4.9793792
-1.3982776 -0.44113353 4.9713969
-1.4100919 -0.62497234 4.9632902
-1.2764496 -0.094048984 5.0544229
-1.2841848 -0.27195743 5.0493484
-1.2929722 -0.44880813 5.0413103
-1.3007576 -0.63469714 5.0350914
-1.1741506 -0.098695278 5.1234469
-1.1789464 -0.27756006 5.1152983
-1.1836863 -0.45647907 5.1101494
-1.1904235 -0.64442557 5.1068745
-1.0698893 -0.10331257 5.190434
-1.0725811 -0.2842927 5.1882095
-1.0753103 -0.46523663 5.1839867
-1.07885 -0.65539265 5.1916156
-0.96451604 -0.10804199 5.2634001
-0.9622165 -0.29103974 5.2610464
-0.96386021 -0.47407734 5.2617664
-0.96349818 -0.66515702 5.2643042
-1.4693012 -0.1524743 9.2263908
-1.4551078 -0.47295254 9.1913166
-1.4411569 -0.78817838 9.1423359
-1.4310465 -1.1155869 9.1042109
-1.2057667 -0.1563181 8.8272514
-1.1859009 -0.45944089 8.7713776
-1.1689626 -0.75860786 8.7186317
-1.1516222 -1.070207 8.6896601
-0.96754962 -0.15971997 8.4646082
-0.94085479 -0.44865322 8.3968582
-0.92274922 -0.7339347 8.3503428
-0.8997364 -1.0281785 8.3005724
-0.74813795 -0.16223472 8.1123343
-0.71920896 -0.43935806 8.0547609
-0.69414353 -0.71057659 8.0033674
-0.66657019 -0.98735273 7.9268188
-0.54578674 -0.1655893 7.8103828
-0.5139423 -0.43059883 7.7459712
-0.48718184 -0.68848312 7.6757817
-0.45810133 -0.95571667 7.6243854
-0.35932028 -0.16899501 7.5147295
-0.32552272 -0.42192334 7.4454985
-0.29560727 -0.66892874 7.3814483
-0.26473427 -0.92191869 7.3162723
-0.18541694 -0.17177029 7.2423315
-0.15141158 -0.41486311 7.1822767
-0.11953211 -0.6518051 7.1143713
-0.08770971 -0.89371002 7.0443759
-0.026005313 -0.17498013 6.9972057
0.010001481 -0.40804565 6.9352946
0.043732651 -0.63481557 6.8575349
0.079904027 -0.86904371 6.8046031
0.12274924 -0.17747626 6.7702985
0.16145384 -0.40122846 6.6904993
0.19564706 -0.62041581 6.6358757
0.23250571 -0.84330577 6.5641298
0.26290256 -0.17932014 6.5645719
0.30361554 -0.39606261 6.483861
0.33954024 -0.60696906 6.4133496
0.37658405 -0.82100528 6.3497624
0.39603448 -0.18212064 6.3579583
0.43805563 -0.39213923 6.2923503
0.47386199 -0.59490234 6.2139854
0.51279098 -0.79980254 6.1425257
0.52054262 -0.18525061 6.1715069
0.563389 -0.38707516 6.0950284
0.60124117 -0.5828647 6.0177517
0.63914555 -0.77970839 5.9434562
0.6379956 -0.18830118 5.9821882
0.6799112 -0.38215971 5.9078722
0.71982789 -0.57099384 5.8326836
0.75877839 -0.76086032 5.7594953
0.75092179 -0.19078623 5.8179736
0.79163635 -0.37842512 5.7317882
-0.02611593 -0.059798401 0.050936799
0.87364763 -0.74422908 5.5885873
-0.02611593 -0.059798401 0.050936799
-0.02611593 -0.059798401 0.050936799
0.17376859 -0.1609402 1.1797475
0.98066425 -0.72871375 5.4258089
0.17809203 -0.088003151 1.182987
0.18549983 -0.1235916 1.1581962
0.19515066 -0.1594224 1.1463633
1.0828128 -0.7133072 5.2701225
0.19856001 -0.088571854 1.1545839
0.20599048 -0.12317856 1.1308107
0.21673867 -0.15810356 1.1239753
1.1810557 -0.69797659 5.1195087
0.22021507 -0.089325041 1.1361586
0.22868276 -0.12397151 1.1143659
0.24054703 -0.1580088 1.1135278
0.34903014 -0.23992844 1.4731368
0.23972069 -0.089926325 1.1097735
0.25036046 -0.12374295 1.0969583
0.26322454 -0.15778384 1.0961014
1.3639215 -0.67164433 4.8394666
0.26148805 -0.090788051 1.0973462
0.26888889 -0.12335892 1.0716096
0.28705165 -0.15770715 1.0866535
1.4506565 -0.66075844 4.7159982
0.28333029 -0.091722116 1.0889175
0.29174972 -0.12431467 1.0641619
0.31302425 -0.15878221 1.0851474
1.5313027 -0.64876068 4.5876613
0.30718702 -0.093681291 1.0814328
0.31775978 -0.1254259 1.0646549
0.34105262 -0.15991871 1.0866024
1.6131883 -0.63800156 4.4722838
0.33534646 -0.09494441 1.0898856
0.35321361 -0.1280034 1.0889528
0.37113288 -0.1621165 1.091001
0.50122422 -0.23374546 1.3743657
0.36237109 -0.097077154 1.0913416
0.38127548 -0.1301759 1.0923892
0.4033626 -0.16446616 1.1033592
1.7618461 -0.61732072 4.235795
0.39251149 -0.098329365 1.0987571
0.41450498 -0.13252915 1.1047287
0.44381154 -0.16806144 1.1275451
1.8307902 -0.60656917 4.123661
0.42785293 -0.10079832 1.1170571
0.46019641 -0.13637753 1.1418163
1.8557384 -0.47513846 4.0955615
1.900876 -0.59796554 4.0194688
1.8286244 -0.22594519 4.1485944
1.8777345 -0.35076821 4.0713906
1.9197762 -0.46947664 3.9894288
1.9628363 -0.58820689 3.9084475
1.8916831 -0.22933255 4.0453176
1.939757 -0.34909856 3.965224
1.9849222 -0.46492684 3.8892574
2.0331242 -0.58080208 3.8152339
1.9549143 -0.23188286 3.9510558
1.9998548 -0.34749407 3.8630934
2.0460689 -0.46036261 3.7891612
2.095305 -0.5722602 3.7161906
2.0181603 -0.23545107 3.8577752
2.0642097 -0.347157 3.7748644
2.1134541 -0.45705497 3.70193
2.158628 -0.56586635 3.6250896
2.0722435 -0.23782441 3.7556853
2.1275613 -0.3478162 3.6866367
2.1747465 -0.45363528 3.609813
2.218884 -0.55738962 3.5300829
2.1398296 -0.24073276 3.6803417
2.1879356 -0.34748289 3.5994828
2.2299879 -0.44913995 3.514828
2.2792072 -0.55098498 3.439038
2.1951332 -0.24432656 3.5902107
2.2421467 -0.34596542 3.5034626
2.2904117 -0.44584337 3.4297273
2.3355539 -0.54358423 3.3490868
2.2464039 -0.24686998 3.4981737
2.2985599 -0.34565392 3.4183834
2.3468177 -0.44251427 3.3437023
2.3939714 -0.53726286 3.2630785
2.3079724 -0.24973872 3.4219434
2.3540099 -0.345375 3.3353219
2.3981121 -0.43905875 3.2517734
2.4534779 -0.53203535 3.1820312
2.3572586 -0.25329289 3.3309252
2.4053299 -0.34495512 3.2453382
2.4576859 -0.43590325 3.1746888
2.5038068 -0.52459502 3.0911925
2.409735 -0.2560389 3.2498655
2.4628885 -0.34579179 3.1682193
2.5100887 -0.43355963 3.088721
2.559258 -0.51929879 3.0072217
2.4632261 -0.25980642 3.1697688
2.5194662 -0.34664291 3.0921187
2.566644 -0.43037528 3.0106933
2.6178775 -0.51417625 2.9321916
2.5167592 -0.26261026 3.0916893
2.5678799 -0.34630272 3.0071898
2.6201587 -0.42814377 2.9307046
2.671385 -0.50892723 2.8512571
2.5682878 -0.26640677 3.0136294
2.6214767 -0.34716114 2.9321451
2.6635482 -0.42474997 2.843924
2.7178049 -0.50256276 2.7654741
2.6168213 -0.26919267 2.9356439
2.6699471 -0.34687522 2.8502152
2.7151008 -0.42254749 2.7659726
2.7652762 -0.49725598 2.6826534
2.6674068 -0.27303985 2.8606017
2.7174699 -0.3476398 2.7712848
2.765635 -0.42032334 2.6870396
2.8158407 -0.49205041 2.6047745
2.7087917 -0.27565593 2.7747507
2.7741783 -0.34861752 2.7021821
2.8141878 -0.41811007 2.6091444
2.8643682 -0.48680151 2.5249336
2.7645073 -0.27964768 2.7066121
2.8135941 -0.34824505 2.6174221
2.8617413 -0.41589329 2.5312676
3.3169322 -0.54006833 2.7735813
2.8100562 -0.28344074 2.6296647
2.8621356 -0.34903127 2.5394723
3.2281251 -0.45264563 2.7148054
4.2619982 -0.65865415 3.3759463
2.8535717 -0.2861906 2.5507734
2.9483321 -0.35360104 2.4967618
4.2464266 -0.56466693 3.3809395
4.2609968 -0.64271504 3.2131982
2.9489424 -0.29397303 2.5178359
2.9969299 -0.35444152 2.4218111
4.3367395 -0.56438696 3.2902229
4.4090323 -0.64736253 3.1613247
2.9995651 -0.29785639 2.4447932
3.0394349 -0.3551701 2.341975
4.4067459 -0.56172818 3.182924
4.484087 -0.64175826 3.0559852
3.0451143 -0.30164945 2.3678458
3.0961394 -0.35714766 2.2728543
4.4777479 -0.56007272 3.0755882
4.5540676 -0.63606375 2.9467409
3.0967703 -0.30657238 2.2967653
3.1335888 -0.357804 2.1901131
4.5477309 -0.55839556 2.9672713
4.6250296 -0.6303547 2.8364782
3.1403196 -0.31035829 2.2198555
3.1852195 -0.35969129 2.1170876
4.6177149 -0.55671847 2.8589549
4.7020793 -0.62575752 2.7310832
3.1848681 -0.31414774 2.1429267
3.2419238 -0.36166885 2.0479665
4.68468 -0.55501246 2.7496951
4.7669859 -0.61997265 2.617934
3.2344873 -0.31902733 2.069885
4.6874933 -0.49157318 2.7808003
4.7577381 -0.55341846 2.6453204
4.7905264 -0.60866165 2.4846528
4.6652527 -0.43300718 2.810286
4.7494473 -0.49284875 2.6715803
4.8347907 -0.55283862 2.540853
4.9058871 -0.6095255 2.3964477
4.7352571 -0.44038278 2.7048063
4.8164344 -0.49517828 2.5642476
4.6756816 -0.52921557 2.3191843
4.9808812 -0.60486692 2.2880909
4.801229 -0.44670802 2.5974202
4.7824745 -0.48919135 2.4059379
4.9686241 -0.55033606 2.3173168
5.0648704 -0.60124034 2.1795473
4.6310215 -0.43398932 2.372761
4.9644165 -0.50190532 2.3502827
5.0556717 -0.55079192 2.2126434
5.1297021 -0.59538317 2.0623999
4.8181343 -0.45090139 2.3269362
5.0363617 -0.50521636 2.2408388
5.1185021 -0.54994482 2.0964429
13.562093 -1.4412749 4.9832115
5.0131707 -0.4677698 2.2769625
5.099237 -0.50742304 2.1275833
13.497972 -1.329432 5.0624619
13.725388 -1.4273658 4.6753016
5.0810809 -0.47504783 2.166522
13.45404 -1.2308937 5.154098
13.688551 -1.3279432 4.7718225
13.912875 -1.4157413 4.3779006
5.139957 -0.48225737 2.0542514
13.640575 -1.2403888 4.8633351
13.894081 -1.3284719 4.4788651
14.119201 -1.4060403 4.0721092
13.577752 -1.1770117 4.9676933
13.827981 -1.249761 4.5655565
14.08141 -1.328737 4.1752501
14.326528 -1.3963426 3.7662995
13.772297 -1.1985879 4.679563
14.023396 -1.2611797 4.26859
14.289712 -1.3300593 3.8702233
14.530704 -1.3864894 3.4525487
13.969608 -1.2219573 4.379344
14.232655 -1.2735034 3.9633458
14.486833 -1.3301613 3.555424
14.744708 -1.3775092 3.1295948
14.159886 -1.2442656 4.0772753
14.426859 -1.2857193 3.6553843
14.701904 -1.3322914 3.238251
14.94966 -1.3674428 2.8038292
14.331021 -1.2653612 3.7675853
14.634967 -1.2978951 3.3421617
14.918952 -1.3354104 2.920023
15.15744 -1.358224 2.4689922
14.532199 -1.2896181 3.4602757
14.849011 -1.3120375 3.0257914
15.125821 -1.3373127 2.5920043
15.397246 -1.3501562 2.1355352
14.739196 -1.3157334 3.1438205
15.055925 -1.3260283 2.7025547
15.323446 -1.3389477 2.2511592
15.611834 -1.3417814 1.7905525
14.940143 -1.3407732 2.8244967
15.268706 -1.339914 2.3722076
15.5481 -1.3417156 1.9117877
15.82618 -1.3321717 1.4325917
15.164999 -1.3688264 2.5006697
15.473262 -1.3545537 2.0299969
15.776596 -1.3463526 1.5643082
6.0204897 -0.53453487 0.43427059
15.3897 -1.3977344 2.1688275
15.688757 -1.3691789 1.6845806
6.0884819 -0.55180377 0.48970395
6.056881 -0.5271433 0.29367527
15.605143 -1.426357 1.8231587
6.1285462 -0.57104409 0.54962623
5.9848104 -0.5378021 0.34584951
6.0413127 -0.51658356 0.15511081
15.817757 -1.4541318 1.4865615
5.9796505 -0.55866355 0.39458528
6.0091658 -0.53534847 0.20438996
3.8810704 -0.34771806 0.024566688
6.0356927 -0.59701234 0.4568634
6.0410461 -0.56341392 0.25630298
3.8806629 -0.36434489 0.05928532
-0.02611593 -0.059798401 0.050936799
6.0469813 -0.60247457 0.31350467
6.0663662 -0.56494498 0.11375292
6.175808 -0.53784531 -0.08187224
3.6149852 -0.31664938 -0.14294627
6.0242882 -0.60481513 0.17083886
3.8814607 -0.38326329 -0.0010922961
3.6194823 -0.33822089 -0.11241032
4.0517063 -0.34219453 -0.26362583
3.8760552 -0.41392407 0.036467008
5.2296696 -0.49504936 -0.14140405
4.0602765 -0.36887002 -0.22825684
-0.02611593 -0.059798401 0.050936799
5.2204118 -0.54089218 -0.093043573
3.6113412 -0.36117876 -0.16869225
4.8959107 -0.42899475 -0.40404937
3.7937429 -0.31328082 -0.42432752
3.6048641 -0.39578095 -0.13418521
4.9434447 -0.4728435 -0.36772016
3.83513 -0.34692883 -0.39770204
1.9263393 -0.18626405 -0.23900431
-0.02611593 -0.059798401 0.050936799
-0.02611593 -0.059798401 0.050936799
-0.02611593 -0.059798401 0.050936799
4.2717562 -0.33236161 -0.69071269
-0.02611593 -0.059798401 0.050936799
3.8229125 -0.37983441 -0.4560883
4.2842445 -0.37503064 -0.65670681
3.439949 -0.27517736 -0.63008404
3.7944791 -0.42342848 -0.4173314
1.9219553 -0.22200842 -0.2525734
4.0302238 -0.35402247 -0.71258974
3.9810991 -0.30361891 -0.83479971
1.922213 -0.24734786 -0.23403032
4.0844889 -0.40366015 -0.6894958
3.4557183 -0.31018305 -0.6890325
3.8618157 -0.29089487 -0.90435982
4.0810413 -0.45937809 -0.64942557
3.4561002 -0.35170069 -0.66078103
3.8732095 -0.33848712 -0.87442386
3.480969 -0.26351386 -0.89773178
4.1169734 -0.46755913 -0.75828314
3.9612544 -0.39506477 -0.86209154
3.5540025 -0.31400251 -0.88700885
3.7150366 -0.27261299 -1.0543319
3.9089239 -0.4517152 -0.81512064
3.4777355 -0.35556936 -0.83931661
3.7402954 -0.32514611 -1.0307471
3.6118736 -0.26207268 -1.1172309
3.8274486 -0.44798133 -0.89355427
3.6630802 -0.37278074 -0.97914553
3.6391056 -0.31659451 -1.0947195
3.5058236 -0.25163013 -1.1740757
3.461529 -0.4145647 -0.89209825
3.6732461 -0.37506849 -1.0764103
2.0326455 -0.20234321 -0.64642364
-0.02611593 -0.059798401 0.050936799
3.7074184 -0.44461289 -1.0543004
3.5760291 -0.36851284 -1.1414936
3.4567742 -0.30061725 -1.2200593
-0.02611593 -0.059798401 0.050936799
3.6042171 -0.43905362 -1.1182895
3.4818861 -0.36204028 -1.2026347
-0.02611593 -0.059798401 0.050936799
-0.02611593 -0.059798401 0.050936799
3.5040712 -0.43355939 -1.1793357
-0.02611593 -0.059798401 0.050936799
-0.02611593 -0.059798401 0.050936799
-0.02611593 -0.059798401 0.050936799
-0.02611593 -0.059798401 0.050936799
-0.02611593 -0.059798401 0.050936799
-0.02611593 -0.059798401 0.050936799
-0.02611593 -0.059798401 0.050936799
-0.02611593 -0.059798401 0.050936799
-0.02611593 -0.059798401 0.050936799
-0.02611593 -0.059798401 0.050936799
-0.02611593 -0.059798401 0.050936799
-0.02611593 -0.059798401 0.050936799
-0.02611593 -0.059798401 0.050936799
-0.02611593 -0.059798401 0.050936799
-0.02611593 -0.059798401 0.050936799
-0.02611593 -0.059798401 0.050936799
-0.02611593 -0.059798401 0.050936799
-0.02611593 -0.059798401 0.050936799
-0.02611593 -0.059798401 0.050936799
-0.02611593 -0.059798401 0.050936799
-0.02611593 -0.059798401 0.050936799
-0.02611593 -0.059798401 0.050936799
-0.02611593 -0.059798401 0.050936799
-0.02611593 -0.059798401 0.050936799
-0.02611593 -0.059798401 0.050936799
-0.02611593 -0.059798401 0.050936799
-0.02611593 -0.059798401 0.050936799
-0.02611593 -0.059798401 0.050936799
-0.02611593 -0.059798401 0.050936799
-0.02611593 -0.059798401 0.050936799
-0.02611593 -0.059798401 0.050936799
-0.02611593 -0.059798401 0.050936799
-0.02611593 -0.059798401 0.050936799
-0.02611593 -0.059798401 0.050936799
-0.02611593 -0.059798401 0.050936799
-0.02611593 -0.059798401 0.050936799
-0.02611593 -0.059798401 0.050936799
