# .PCD v0.7 - Point Cloud Data file format
VERSION 0.7
FIELDS x y z
SIZE 4 4 4
TYPE F F F
COUNT 1 1 1
WIDTH 1404
HEIGHT 1
VIEWPOINT 0 0 0 1 0 0 0
POINTS 1404
DATA ascii
-0.02611593 -0.059798401 0.050936799
-0.02611593 -0.059798401 0.050936799
-6.246284 0.082571656 1.831574
-0.02611593 -0.059798401 0.050936799
-1.3055505 -0.0091517195 0.34990871
-0.02611593 -0.059798401 0.050936799
-3.087523 0.014084911 1.0029137
-6.2543921 0.14091609 1.8147755
-0.02611593 -0.059798401 0.050936799
-1.276682 -0.0031121057 0.34147462
-3.1119258 0.017657887 1.0874639
-3.0895889 0.040250458 0.99442285
-6.2612929 0.1850061 1.8117012
-0.02611593 -0.059798401 0.050936799
-3.1769948 0.023070157 1.1898147
-3.1070197 0.041816756 1.0778058
-3.0975313 0.05929403 0.9939158
-6.2522669 0.21104175 1.8080019
-3.2568517 0.02933711 1.3034618
-3.1800392 0.045203805 1.1832699
-3.1020103 0.058850188 1.0750191
-3.0974882 0.07029216 0.99411404
-3.3197529 0.034579411 1.4147719
-3.2499804 0.049507573 1.2926943
-3.1760333 0.061240993 1.1804841
-3.1089547 0.067855686 1.0763124
-3.4023991 0.041657984 1.5394896
-3.314889 0.052757375 1.4040061
-3.2499669 0.062541544 1.2909293
-3.1790092 0.067250744 1.1806486
-3.4789715 0.048642661 1.6680932
-3.4025047 0.057818055 1.530781
-3.3118839 0.063780926 1.4021485
-3.2559311 0.066544309 1.2921137
-4.7672653 0.094499215 2.4012914
-3.4850316 0.061770517 1.6624422
-3.3995113 0.065842114 1.5288694
-3.3267608 0.065725878 1.4084644
-4.6528287 0.09670011 2.4762144
-4.7782946 0.1106264 2.3967881
-3.4880037 0.068780094 1.6626247
-3.4064162 0.065776788 1.5339993
-4.592864 0.1016095 2.579215
-4.6558938 0.10881738 2.4704888
-4.7643561 0.11464782 2.3925986
-3.4869447 0.064704828 1.6665325
-3.4418244 0.065711334 2.0448344
-4.5860257 0.10876407 2.5692132
-4.6399899 0.1088504 2.4651897
-4.7702217 0.10550809 2.401546
-4.6291804 0.11634821 2.8792634
-3.4429097 0.067805037 2.0398908
-4.5929008 0.10666293 2.5763063
-4.6419091 0.095733151 2.4719908
-3.3518801 0.072575524 2.1993268
-4.6352396 0.11542417 2.876359
-3.4398699 0.063740686 2.0427611
-4.618547 0.090361007 2.5984991
-4.4054518 0.12191252 3.0212235
-3.3381228 0.06874302 2.1869957
-4.6252618 0.10537189 2.8769908
-3.4378395 0.04764577 2.0474336
-3.2609551 0.079454184 2.3528008
-4.4065437 0.11297192 3.0180812
-3.3094189 0.05687613 2.1732392
-4.6162343 0.079217397 2.8833508
-2.6020768 0.055725496 1.9719065
-3.2659333 0.070419379 2.3557315
-4.3936014 0.093910404 3.0184941
-3.2727554 0.034982245 2.1591518
-2.7353644 0.066705525 2.1686673
-2.6010976 0.045705508 1.9727073
-3.2618883 0.053299386 2.3613482
-4.3864665 0.061637484 3.0317812
-3.985256 0.13239148 3.2916374
-2.7353821 0.052671719 2.1704144
-2.5990484 0.029592533 1.9783792
-3.2538276 0.026112471 2.3697083
-2.4107208 0.060766619 2.0944567
-3.9813137 0.10834501 3.2931292
-2.7293456 0.033544891 2.1759574
-2.5969372 0.0053904615 1.9889055
-1.9025115 0.038290255 1.7324122
-2.4097543 0.042729896 2.0961127
-3.9673109 0.076173604 3.2992871
-4.0634809 0.037516251 3.2453701
-1.8499702 0.039578721 1.7604613
-1.9005146 0.023231372 1.7351034
-2.4095933 0.021498319 2.1087298
-3.9502888 0.029921424 3.3091352
-1.8347549 0.043369923 1.8242667
-1.8489249 0.022469485 1.7661343
-1.8905576 0.0031627044 1.7365545
-2.5166347 -0.0060777701 2.2192724
-2.0049527 0.057454567 2.0787942
-1.8671081 0.024804033 1.8625495
-1.8438585 0.0013103988 1.7736592
-1.8873793 -0.023114979 1.7510245
-2.1992505 0.074778065 2.3808477
-2.0352471 0.03480982 2.120966
-1.8992858 0.0030577704 1.9107749
-1.8298961 -0.02680744 1.7768902
-3.3175864 0.15264587 3.7426562
-2.2471266 0.047782555 2.4462781
-2.0830631 0.0087598749 2.1894135
-1.9461739 -0.026940826 1.9761323
-3.2214835 0.155237 3.7999232
-3.2977266 0.10352816 3.7443964
-2.2634857 0.014107533 2.486989
-2.1366928 -0.027483901 2.269789
-3.130301 0.15877354 3.8613007
-3.206522 0.1030292 3.8077013
-3.2815709 0.048118308 3.763098
-3.3448555 -0.013635471 3.7071469
-3.0430462 0.16125225 3.926734
-3.116261 0.10247956 3.8740239
-3.1824546 0.044663496 3.8222001
-3.2505443 -0.020270802 3.7772849
-2.9479997 0.16390121 3.9810209
-3.0172267 0.10211468 3.9281814
-3.0872853 0.040168963 3.8843579
-3.1543081 -0.026840955 3.8433867
-2.8519487 0.16754642 4.0353069
-2.9240227 0.10160855 3.9914486
-2.9911084 0.037670486 3.946533
-3.0531852 -0.033320513 3.9033964
-2.7627697 0.1700903 4.0967045
-2.8308938 0.10117478 4.0507174
-2.8959165 0.034157686 4.0097084
-2.9589489 -0.039883487 3.9695356
-2.6716058 0.17364492 4.1570821
-2.7368021 0.10077358 4.1079679
-2.8036864 0.03061945 4.0749402
-2.8607502 -0.046424642 4.0336003
-2.5795207 0.17626846 4.2134247
-2.6465373 0.10122376 4.1743083
-2.7075696 0.027175419 4.1340985
-2.7606795 -0.051846527 4.0906482
-2.492281 0.17976512 4.2778764
-2.5543706 0.1007574 4.2355947
-2.6114156 0.023695201 4.1952558
-2.6683865 -0.058456592 4.1598244
-2.4020796 0.18328717 4.3402719
-2.4582982 0.1003671 4.2918081
-2.5172195 0.021185808 4.2584682
-2.5692635 -0.064928964 4.2198715
-2.3041828 0.18607011 4.3865056
-2.3670897 0.10086799 4.3551311
-2.4210463 0.0176875 4.3206253
-2.4671929 -0.070358023 4.2768817
-2.2168458 0.1904761 4.4559736
-2.2748067 0.10129292 4.4224339
-2.3268504 0.015178114 4.3838377
-2.374825 -0.077040449 4.3500562
-2.1256444 0.19399457 4.5183506
-2.1787491 0.10192054 4.4776654
-2.2306776 0.011679813 4.4459949
-2.2795286 -0.082661442 4.4191937
-2.0296123 0.19765785 4.5716372
-2.0845597 0.10242873 4.5399327
-2.1344442 0.009127073 4.5111694
-2.1803303 -0.089206174 4.4832397
-1.9393171 0.20108946 4.6390314
-1.9922019 0.1027813 4.6112337
-2.0391924 0.006559819 4.5773621
-2.0792038 -0.09468592 4.5432677
-0.97903365 0.0790895 2.4861157
-1.022743 0.026785947 2.511997
-1.9390537 0.0040831715 4.6374626
-1.9818889 -0.10033219 4.6133676
-0.89521086 0.074888721 2.423449
-0.9396314 0.024317075 2.46438
-0.99260485 -0.027656235 2.5294538
-1.8768044 -0.10678992 4.6713028
-0.82101882 0.073379636 2.3800182
-0.85482365 0.021130633 2.4007127
-0.89039946 -0.030328434 2.433459
-1.7735468 -0.11240346 4.7382903
-0.746943 0.070979252 2.3305709
-0.7882182 0.019252304 2.3794246
-0.80947483 -0.032609221 2.3758833
-1.6692894 -0.11802059 4.8052597
-0.67503929 0.067749023 2.2721465
-0.74807143 0.021008387 2.4397252
-0.7391361 -0.035248499 2.3405066
-1.5640697 -0.12360512 4.8702111
-0.608962 0.06537734 2.2228496
-0.69657141 0.021336779 2.4657757
-0.6651125 -0.036594786 2.2880785
-1.4606626 -0.12936336 4.9451962
-0.55060238 0.062763035 2.1886981
-0.57153678 0.011593852 2.2021689
-0.59424216 -0.038785424 2.2276914
-1.3505187 -0.13489348 5.0060539
-0.49042651 0.061322298 2.1445305
-0.50847769 0.0092510246 2.1519289
-1.2183367 -0.014045149 5.0977964
-1.2430974 -0.14168401 5.0819459
-0.43327272 0.058910567 2.0994017
-0.4621264 0.0097420812 2.1700761
-1.1072375 -0.016525112 5.1556911
-1.1316313 -0.1465254 5.1597977
-0.38175812 0.057176497 2.0733969
-0.44834447 0.016086672 2.3700008
-0.99859083 -0.018519051 5.2426505
-1.0182446 -0.15230145 5.2335958
-0.33044952 0.055641435 2.0363958
-0.38896239 0.014450531 2.336848
-1.5400187 0.0091862231 9.3176699
-0.90095228 -0.15800141 5.3023195
-0.2837429 0.054744266 2.0204997
-0.32973015 0.012959108 2.2956982
-1.2587991 0.0025677383 8.9021444
-1.2871739 -0.23281637 8.9274263
-0.24575645 0.058669999 2.071877
-0.2718012 0.010760844 2.2385545
-1.0041062 -0.0044060498 8.5121174
-1.0224514 -0.23182744 8.5373564
-0.20569548 0.062516168 2.1272151
-0.21760546 0.0093235448 2.1954992
-0.77186227 -0.010822043 8.1515312
-0.78068751 -0.23079211 8.1497164
-0.16348509 0.066210486 2.1905134
-0.16940829 0.0089522935 2.2055938
-0.55797446 -0.01678507 7.8253078
-0.56184793 -0.22970188 7.8195267
-0.33967978 0.38335297 7.4963474
-0.35508901 0.17806183 7.5139279
-0.36170101 -0.021045603 7.5194526
-0.36074299 -0.22880033 7.5036712
-0.17147763 0.37027538 7.2418752
-0.17820977 0.16927682 7.2413654
-0.1819564 -0.025697351 7.2389078
-0.17314477 -0.227319 7.214087
-0.01376003 0.3587485 7.0146365
-0.01562719 0.16187601 7.0061078
-0.013906077 -0.029595628 6.9746013
-0.0019817501 -0.22631937 6.954813
0.1336894 0.34551102 6.7735553
0.13570616 0.15275015 6.7580252
0.14282438 -0.033102214 6.7465262
0.15644576 -0.22552627 6.7097778
0.27281147 0.33567214 6.5677028
0.27865204 0.14607726 6.5421553
0.28961283 -0.036627173 6.5216379
0.30721566 -0.22403029 6.4829054
0.40393111 0.32486209 6.3619823
0.41299668 0.14005664 6.3474646
0.42565057 -0.039347991 6.3099699
0.44643712 -0.22292534 6.2802501
0.5276069 0.31655565 6.1854572
0.54036134 0.13404301 6.1539059
0.55502665 -0.042369291 6.1164274
0.57852882 -0.22166866 6.0707288
0.64093971 0.30661106 5.9910889
0.65782148 0.12797482 5.9655333
0.67550194 -0.044448901 5.9280705
0.69962639 -0.21937266 5.8614316
0.75076783 0.29821017 5.8228235
0.7705673 0.12265313 5.7922668
0.79005313 -0.046579324 5.7438245
0.81645113 -0.21876404 5.6911979
-0.02611593 -0.059798401 0.050936799
-0.02611593 -0.059798401 0.050936799
-0.02611593 -0.059798401 0.050936799
-0.02611593 -0.059798401 0.050936799
0.17972799 0.011741098 1.1977656
0.18551454 -0.023202131 1.1930237
1.0053084 -0.049890131 5.4366302
0.19247444 -0.091477454 1.1506438
1.0554414 0.27797824 5.3806038
1.0779307 0.10973485 5.3321228
1.1044281 -0.05150599 5.2826934
0.22150265 -0.092617534 1.1520803
0.27640992 0.024895156 1.3902588
0.28413117 -0.017017871 1.3833536
0.29283744 -0.057916574 1.3754482
0.24086243 -0.09207429 1.117716
1.2310203 0.264469 5.0929747
1.2607005 0.10203668 5.0534673
1.2870489 -0.054042216 4.995131
0.26355866 -0.09186741 1.1012893
1.3136705 0.25839028 4.9682746
1.3420029 0.098304853 4.9098291
1.3703816 -0.054799806 4.852509
0.29158705 -0.093003899 1.1027443
1.3932276 0.25241277 4.8386331
1.425777 0.095113501 4.7911625
1.457163 -0.056002293 4.7338219
0.31430203 -0.092815116 1.0873173
1.4720697 0.24716732 4.7240233
1.5045146 0.091976225 4.6705904
1.5368707 -0.057107288 4.6112676
0.3422969 -0.092915609 1.0867912
1.5479909 0.24286011 4.6134863
1.5823123 0.089788139 4.5530548
-0.02611593 -0.059798401 0.050936799
0.37656754 -0.094308794 1.1011292
-0.02611593 -0.059798401 0.050936799
-0.02611593 -0.059798401 0.050936799
0.46420261 -0.059999384 1.2871721
0.41183808 -0.095705569 1.1154484
0.3836939 0.0099197365 1.0878767
0.48036462 -0.018063944 1.2876282
1.7614578 -0.057803117 4.2679343
1.7964065 -0.20048238 4.1856709
0.49552682 0.023875082 1.2881031
1.797271 0.08274933 4.2307935
1.8262284 -0.057908729 4.1486793
1.869554 -0.19997865 4.086277
1.8218093 0.22461247 4.1788826
1.8580906 0.080604173 4.1145759
1.8943543 -0.058368798 4.0483613
1.9365046 -0.19725475 3.9760354
1.8797526 0.2203518 4.0696836
1.922172 0.078194968 4.0122986
1.96254 -0.0578833 3.9510605
1.9995269 -0.19558869 3.8698494
1.9450171 0.21675824 3.9773655
1.9874442 0.076601125 3.9200165
2.0246296 -0.058285654 3.8488562
2.0678103 -0.19419381 3.7775648
2.0073419 0.2141211 3.8881204
2.0465488 0.07519161 3.8188498
2.0889246 -0.058894172 3.7576101
2.1330607 -0.19175215 3.6833556
2.0655515 0.21060699 3.7929351
2.1099336 0.073496416 3.7326033
2.1501679 -0.058437813 3.66344
2.1932707 -0.19025621 3.5872226
2.1270263 0.2078287 3.7117062
2.1713042 0.072826318 3.6454124
2.2073934 -0.057949029 3.5683453
2.2566152 -0.18789782 3.4980493
2.180274 0.20429632 3.6186135
2.2265782 0.07126835 3.553318
2.2667491 -0.057594031 3.4802103
2.3139005 -0.18646346 3.4059715
2.2336011 0.20169146 3.5295379
2.2798901 0.069681421 3.4632609
2.3251472 -0.056271795 3.3941119
2.3712459 -0.18408354 3.3169105
2.2921326 0.19886968 3.4513645
2.336318 0.068974972 3.3791633
2.3805225 -0.055920534 3.3070519
2.4296474 -0.18176147 3.23083
2.3455904 0.19613816 3.3692865
2.3928015 0.068214275 3.2980645
2.4369729 -0.05564522 3.2239718
2.482975 -0.17934911 3.1408446
2.3980479 0.19341025 3.2872272
2.4452112 0.067540303 3.213042
2.4934828 -0.054424342 3.1439087
2.537415 -0.17704886 3.0568385
2.4515657 0.1916243 3.2081661
2.4977329 0.066757791 3.1340179
2.5459154 -0.054116584 3.0599041
2.5949664 -0.17486791 2.9787741
2.5000434 0.18889269 3.1271818
2.5512733 0.065953597 3.0559742
2.5973704 -0.052823495 2.9769359
2.6514995 -0.1726653 2.8997288
2.5505991 0.18708131 3.0501764
2.5987213 0.065261386 2.9730453
2.6519558 -0.051667795 2.9009092
2.6999028 -0.17030735 2.8138359
2.6052666 0.18514709 2.9790933
2.6543589 0.065359406 2.8999805
2.6963522 -0.051295143 2.8150556
2.7575104 -0.16818067 2.7387705
2.6507668 0.18340798 2.899183
2.7018669 0.065612748 2.8200688
2.7519937 -0.050197303 2.7420089
2.7978215 -0.16570356 2.6480298
2.7003789 0.18154591 2.8251953
2.7524641 0.064765051 2.7450807
2.7994719 -0.047908112 2.6601336
2.8483593 -0.16247958 2.5691149
2.7560875 0.18057176 2.7561116
2.8040836 0.064895511 2.6710918
2.8408875 -0.047542784 2.5753362
2.9303749 -0.16083699 2.5155909
2.7935295 0.17791578 2.6733346
2.8434997 0.065268017 2.5863316
2.9057374 -0.045676392 2.5131347
3.0022607 -0.1590319 2.4552572
2.8391275 0.17708601 2.5984402
2.893157 0.065369457 2.5143795
2.990864 -0.044153109 2.4655523
3.0497618 -0.15576097 2.3743997
2.8877771 0.17519143 2.5264709
2.9925659 0.067571014 2.4815469
3.0404174 -0.041943457 2.3876379
3.1033552 -0.15260203 2.2984278
2.9821725 0.1784288 2.4927504
3.0391116 0.06779176 2.4036529
3.0910223 -0.040791489 2.3126862
3.1528747 -0.14935637 2.2185323
3.02473 0.1766462 2.4158955
3.0917873 0.067864358 2.332644
3.1396127 -0.038614426 2.2367899
3.1963539 -0.14705282 2.1367323
3.0733647 0.17576948 2.3429444
3.1403739 0.069041595 2.2567301
3.1871662 -0.036397599 2.1589136
3.2529697 -0.14292291 2.0617213
3.1220186 0.17487469 2.2709928
3.1829205 0.069276728 2.1789112
3.2407894 -0.035274483 2.0849047
4.688798 -0.17368154 2.7895293
3.1666355 0.17403045 2.1971171
3.237637 0.070305794 2.1098821
4.6578689 -0.022044765 2.8178606
4.7557373 -0.16893989 2.6783237
3.2223814 0.17302009 2.1300323
3.2933345 0.071349382 2.0398345
4.7400079 -0.018555757 2.7173519
4.8216209 -0.16414039 2.5641387
3.2679985 0.17217226 2.056138
4.7200866 0.12600651 2.7473502
4.8140354 -0.014929511 2.6109953
4.7371168 -0.15543169 2.3768148
4.6921735 0.26758 2.7784443
4.7860899 0.12767991 2.6401081
4.6053205 -0.013620153 2.3618424
4.7637501 -0.14923915 2.2493849
4.7693577 0.26803321 2.6809742
4.5834279 0.11887901 2.3956606
4.6673656 -0.010968756 2.2566934
5.0545545 -0.14813915 2.2359557
4.7636313 0.26265013 2.5369353
4.6475248 0.12046914 2.2934546
5.0178423 -0.0037148148 2.2772696
5.1234231 -0.14233249 2.1207323
4.6227059 0.2478895 2.3322372
4.7731462 0.12433332 2.218147
5.093833 -5.9552491e-05 2.1688762
13.514873 -0.25832665 5.1185398
4.6939101 0.24834614 2.2358797
5.0681205 0.13529067 2.2118206
5.1566939 0.0037689693 2.0537295
13.704409 -0.24374616 4.8231549
5.0424867 0.26655108 2.259691
5.1300125 0.13708696 2.0986559
13.623246 0.11718179 4.959249
13.893729 -0.22694898 4.51581
5.077198 0.26460779 2.1379647
-0.02611593 -0.059798401 0.050936799
13.809757 0.12979141 4.6628847
14.094107 -0.2092457 4.2112751
5.1683283 0.26606482 2.0372508
-0.02611593 -0.059798401 0.050936799
14.006187 0.14143771 4.3623161
14.300424 -0.19250953 3.9036109
7.9696674 0.43654254 2.9001784
-0.02611593 -0.059798401 0.050936799
14.208553 0.15613435 4.0576901
14.509522 -0.17356737 3.5839303
8.0926447 0.43798476 2.7378471
-0.02611593 -0.059798401 0.050936799
14.407859 0.16989616 3.7501028
14.585066 -0.15358715 3.2357593
8.2698898 0.44297919 2.5885682
11.247299 0.37253162 3.0737133
14.577886 0.18303356 3.4280481
13.933868 -0.13024057 2.7482085
8.289114 0.43951565 2.3880777
-0.02611593 -0.059798401 0.050936799
14.401521 0.19078526 3.0363574
13.200059 -0.10795773 2.2821927
8.5505915 0.44999063 2.2493246
11.522148 0.3853209 2.5816319
13.579875 0.18810831 2.5315213
12.575275 -0.087075479 1.8701283
8.621006 0.44916263 2.0579264
11.819088 0.39814615 2.3602295
12.924649 0.18544602 2.1005948
12.013227 -0.068139136 1.4968672
8.8752003 0.45893419 1.9042919
-0.02611593 -0.059798401 0.050936799
12.317174 0.18489097 1.7088255
11.462771 -0.050820947 1.1553707
8.8510647 0.45296919 1.6855617
-0.02611593 -0.059798401 0.050936799
11.751313 0.18459164 1.3492928
6.0803213 -0.045709174 0.49101198
9.0236959 0.45957476 1.5033873
11.929442 0.41078058 1.5241083
6.1756001 0.074181668 0.58842981
6.0135484 -0.036767147 0.34237352
9.1751556 0.46441895 1.3125746
11.484201 0.39638349 1.1990739
6.0036077 0.075700872 0.43062395
6.0178971 -0.027206723 0.19941656
9.2924042 0.46658459 1.1113503
6.1096773 0.18571675 0.51865792
6.0530343 0.083009697 0.29178369
3.8857751 -0.033234645 0.055177663
9.361414 0.46815774 0.89801443
5.9798269 0.18192327 0.36896977
6.0483508 0.088621177 0.14792413
3.8340776 -0.027391689 -0.035779554
6.0308313 0.27815697 0.45678535
6.0072041 0.1853479 0.22847153
3.091289 0.019402536 0.026995175
3.6215327 -0.023097197 -0.11674991
6.0311942 0.2766794 0.31670433
3.6045079 0.088557869 0.073653102
3.1349442 0.023542939 -0.045771942
3.5200272 -0.018255513 -0.196789
3.6316926 0.14251457 0.12613794
3.0869205 0.068951219 -0.0020365885
3.2274866 0.029615672 -0.12542173
3.4376163 -0.012572636 -0.27216882
3.0639136 0.1102343 0.043156248
3.1245544 0.072131418 -0.075708643
3.4258153 0.038506459 -0.21800552
3.3741975 -0.007957777 -0.34792364
3.0905793 0.11141814 -0.028345825
2.8544142 0.062202301 -0.13184954
3.3114836 0.039214592 -0.28787583
1.9341725 -0.026515367 -0.22525659
3.1271868 0.11262034 -0.10303478
2.7392924 0.058697652 -0.18977717
3.1842632 0.03886101 -0.35152188
3.0770206 -0.00072903838 -0.46226767
2.7341907 0.090971924 -0.14808372
2.7760015 0.061809078 -0.25943178
1.9270066 0.0027761543 -0.23959745
3.0487306 0.0046334201 -0.53166455
2.7479484 0.091112122 -0.21436122
2.8775418 0.067849509 -0.33925068
3.0238769 0.041761547 -0.47750923
2.910861 0.0069932062 -0.57705593
2.7846534 0.093223736 -0.28403386
2.381546 0.04763335 -0.33032697
2.9338262 0.043112036 -0.53281754
2.8248773 0.011274558 -0.62938643
1.9363465 0.046573572 -0.22997682
2.4173491 0.050657928 -0.39496452
2.8288674 0.043426085 -0.58286381
2.85145 0.017566077 -0.70679629
2.3912079 0.072009437 -0.35307467
2.4491339 0.053714938 -0.46052653
2.8146234 0.046684362 -0.64956075
2.7834444 0.021800926 -0.76046467
2.420023 0.073041379 -0.41661701
2.6541734 0.065869518 -0.56918246
2.874022 0.05302025 -0.73658776
2.5384963 0.01966263 -0.75491536
2.4607499 0.076120362 -0.48534715
2.8291543 0.076186366 -0.68030959
2.6020775 0.045961615 -0.72962147
2.4219973 0.02158526 -0.78070819
2.8061733 0.095364638 -0.62951517
2.8119025 0.077455752 -0.74698621
2.4924757 0.045949925 -0.76058018
3.051662 0.049439348 -1.0760934
2.8645787 0.098686539 -0.71557772
2.5460017 0.067321829 -0.7371878
3.0557559 0.074465439 -1.0226994
-0.02611593 -0.059798401 0.050936799
2.6194372 0.08569482 -0.71822393
2.3727815 0.061160963 -0.74605912
-0.02611593 -0.059798401 0.050936799
0.17833862 -0.052055605 -0.034780134
2.4948711 0.079683714 -0.74600983
3.0632119 0.099047661 -1.0564057
0.19032554 -0.050080922 -0.035969235
-0.02611593 -0.059798401 0.050936799
3.0602226 0.11213711 -1.0050956
-0.02611593 -0.059798401 0.050936799
-0.02611593 -0.059798401 0.050936799
0.14341991 -0.052002348 -0.030123819
-0.02611593 -0.059798401 0.050936799
0.18731131 -0.049052238 -0.036894511
0.16927323 -0.049951289 -0.038573626
-0.02611593 -0.059798401 0.050936799
0.18937102 -0.048113853 -0.033915088
-0.02611593 -0.059798401 0.050936799
-0.02611593 -0.059798401 0.050936799
0.13236575 -0.051908605 -0.032916103
-0.02611593 -0.059798401 0.050936799
0.15833141 -0.049966078 -0.03536794
0.14431132 -0.050897568 -0.036122557
-0.02611593 -0.059798401 0.050936799
0.16533405 -0.048991371 -0.035481453
-0.02611593 -0.059798401 0.050936799
-0.02611593 -0.059798401 0.050936799
0.11436904 -0.051844005 -0.032577872
-0.02611593 -0.059798401 0.050936799
0.13138857 -0.050923273 -0.031879637
0.12234886 -0.051854625 -0.033727862
-0.02611593 -0.059798401 0.050936799
0.14034949 -0.050919395 -0.034048077
-0.02611593 -0.059798401 0.050936799
-0.02611593 -0.059798401 0.050936799
0.10137141 -0.051797349 -0.032333594
-0.02611593 -0.059798401 0.050936799
0.11734976 -0.051836681 -0.03363391
0.10931379 -0.05177179 -0.035482906
-0.02611593 -0.059798401 0.050936799
0.11838703 -0.051876448 -0.031653374
-0.02611593 -0.059798401 0.050936799
-0.02611593 -0.059798401 0.050936799
0.087388784 -0.052765019 -0.031088889
-0.02611593 -0.059798401 0.050936799
0.098409422 -0.051822755 -0.030277904
0.098297082 -0.051714223 -0.036275875
-0.02611593 -0.059798401 0.050936799
0.10537069 -0.051811703 -0.032408755
-0.02611593 -0.059798401 0.050936799
-0.02611593 -0.059798401 0.050936799
0.079356723 -0.051700301 -0.032919869
-0.02611593 -0.059798401 0.050936799
0.090350784 -0.052739609 -0.033144586
0.089242555 -0.051627658 -0.039105739
-0.02611593 -0.059798401 0.050936799
0.093350232 -0.052750375 -0.033200957
-0.02611593 -0.059798401 0.050936799
-0.02611593 -0.059798401 0.050936799
0.06541153 -0.052704152 -0.029675834
-0.02611593 -0.059798401 0.050936799
0.07835298 -0.052696545 -0.032919098
0.075301282 -0.051631678 -0.035843693
-0.02611593 -0.059798401 0.050936799
0.080367416 -0.05372164 -0.031975031
-0.02611593 -0.059798401 0.050936799
-0.02611593 -0.059798401 0.050936799
0.055450805 -0.052704446 -0.027488604
-0.02611593 -0.059798401 0.050936799
0.069354631 -0.052664243 -0.032749984
0.066302925 -0.05159938 -0.035674579
-0.02611593 -0.059798401 0.050936799
0.069388151 -0.053700253 -0.030768678
-0.02611593 -0.059798401 0.050936799
-0.02611593 -0.059798401 0.050936799
0.051380575 -0.051617902 -0.031394068
-0.02611593 -0.059798401 0.050936799
0.06231847 -0.052602939 -0.034617767
0.062210061 -0.051494576 -0.040597718
-0.02611593 -0.059798401 0.050936799
0.063333072 -0.053624451 -0.03365491
-0.02611593 -0.059798401 0.050936799
-0.02611593 -0.059798401 0.050936799
0.043400757 -0.051607281 -0.030244082
-0.02611593 -0.059798401 0.050936799
0.055319745 -0.052577823 -0.034486234
0.05226412 -0.052512784 -0.037428848
-0.02611593 -0.059798401 0.050936799
0.053368427 -0.054624572 -0.031485707
-0.02611593 -0.059798401 0.050936799
-0.02611593 -0.059798401 0.050936799
0.038382947 -0.051571246 -0.03114979
-0.02611593 -0.059798401 0.050936799
0.045355089 -0.053577941 -0.032317027
0.048193887 -0.051426243 -0.041334312
-0.02611593 -0.059798401 0.050936799
0.045369886 -0.054595862 -0.031335384
-0.02611593 -0.059798401 0.050936799
-0.02611593 -0.059798401 0.050936799
0.032384045 -0.051549714 -0.031037048
-0.02611593 -0.059798401 0.050936799
0.040318567 -0.053523816 -0.034222394
0.040232807 -0.051433712 -0.039184667
-0.02611593 -0.059798401 0.050936799
0.037408799 -0.054603323 -0.029185738
-0.02611593 -0.059798401 0.050936799
-0.02611593 -0.059798401 0.050936799
0.02736624 -0.051513679 -0.031942762
-0.02611593 -0.059798401 0.050936799
0.0313951 -0.05356387 -0.030054636
0.032267783 -0.052441008 -0.037053037
-0.02611593 -0.059798401 0.050936799
-0.02611593 -0.059798401 0.050936799
-0.02611593 -0.059798401 0.050936799
-0.02611593 -0.059798401 0.050936799
-0.02611593 -0.059798401 0.050936799
-0.02611593 -0.059798401 0.050936799
0.027339661 -0.053495251 -0.032978453
0.028216278 -0.051372554 -0.039958842
-0.02611593 -0.059798401 0.050936799
0.02735053 -0.055513002 -0.032014839
-0.02611593 -0.059798401 0.050936799
-0.02611593 -0.059798401 0.050936799
-0.02611593 -0.059798401 0.050936799
-0.02611593 -0.059798401 0.050936799
-0.02611593 -0.059798401 0.050936799
0.022236098 -0.051369112 -0.038846437
-0.02611593 -0.059798401 0.050936799
-0.02611593 -0.059798401 0.050936799
-0.02611593 -0.059798401 0.050936799
-0.02611593 -0.059798401 0.050936799
-0.02611593 -0.059798401 0.050936799
-0.02611593 -0.059798401 0.050936799
-0.02611593 -0.059798401 0.050936799
-0.02611593 -0.059798401 0.050936799
-0.02611593 -0.059798401 0.050936799
-0.02611593 -0.059798401 0.050936799
-0.02611593 -0.059798401 0.050936799
-0.02611593 -0.059798401 0.050936799
-0.02611593 -0.059798401 0.050936799
-0.02611593 -0.059798401 0.050936799
-0.02611593 -0.059798401 0.050936799
-0.02611593 -0.059798401 0.050936799
-0.02611593 -0.059798401 0.050936799
-0.02611593 -0.059798401 0.050936799
-0.02611593 -0.059798401 0.050936799
-0.02611593 -0.059798401 0.050936799
-0.02611593 -0.059798401 0.050936799
-0.02611593 -0.059798401 0.050936799
-0.02611593 -0.059798401 0.050936799
-0.02611593 -0.059798401 0.050936799
-0.02611593 -0.059798401 0.050936799
-0.02611593 -0.059798401 0.050936799
-0.02611593 -0.059798401 0.050936799
-0.02611593 -0.059798401 0.050936799
-0.02611593 -0.059798401 0.050936799
-0.02611593 -0.059798401 0.050936799
-0.02611593 -0.059798401 0.050936799
-0.02611593 -0.059798401 0.050936799
-0.02611593 -0.059798401 0.050936799
-0.02611593 -0.059798401 0.050936799
-0.02611593 -0.059798401 0.050936799
-0.02611593 -0.059798401 0.050936799
-0.02611593 -0.059798401 0.050936799
-0.02611593 -0.059798401 0.050936799
-0.02611593 -0.059798401 0.050936799
-0.02611593 -0.059798401 0.050936799
-0.02611593 -0.059798401 0.050936799
-0.02611593 -0.059798401 0.050936799
-0.02611593 -0.059798401 0.050936799
-0.02611593 -0.059798401 0.050936799
-0.02611593 -0.059798401 0.050936799
-0.02611593 -0.059798401 0.050936799
-0.02611593 -0.059798401 0.050936799
-0.02611593 -0.059798401 0.050936799
-0.02611593 -0.059798401 0.050936799
-0.02611593 -0.059798401 0.050936799
-0.02611593 -0.059798401 0.050936799
-0.02611593 -0.059798401 0.050936799
-0.02611593 -0.059798401 0.050936799
-0.02611593 -0.059798401 0.050936799
-0.02611593 -0.059798401 0.050936799
-0.02611593 -0.059798401 0.050936799
-0.02611593 -0.059798401 0.050936799
-0.02611593 -0.059798401 0.050936799
-0.02611593 -0.059798401 0.050936799
-0.02611593 -0.059798401 0.050936799
-0.02611593 -0.059798401 0.050936799
-0.02611593 -0.059798401 0.050936799
-0.02611593 -0.059798401 0.050936799
-0.02611593 -0.059798401 0.050936799
-0.02611593 -0.059798401 0.050936799
-0.02611593 -0.059798401 0.050936799
-0.02611593 -0.059798401 0.050936799
-0.02611593 -0.059798401 0.050936799
-0.02611593 -0.059798401 0.050936799
-0.02611593 -0.059798401 0.050936799
-0.02611593 -0.059798401 0.050936799
-0.02611593 -0.059798401 0.050936799
-0.02611593 -0.059798401 0.050936799
-0.02611593 -0.059798401 0.050936799
-0.02611593 -0.059798401 0.050936799
-0.02611593 -0.059798401 0.050936799
-0.02611593 -0.059798401 0.050936799
-0.02611593 -0.059798401 0.050936799
-0.02611593 -0.059798401 0.050936799
-0.02611593 -0.059798401 0.050936799
-0.02611593 -0.059798401 0.050936799
-0.02611593 -0.059798401 0.050936799
-0.02611593 -0.059798401 0.050936799
-0.02611593 -0.059798401 0.050936799
-0.02611593 -0.059798401 0.050936799
-0.02611593 -0.059798401 0.050936799
-0.02611593 -0.059798401 0.050936799
-0.02611593 -0.059798401 0.050936799
-0.02611593 -0.059798401 0.050936799
-0.02611593 -0.059798401 0.050936799
-0.02611593 -0.059798401 0.050936799
-0.02611593 -0.059798401 0.050936799
-0.02611593 -0.059798401 0.050936799
-0.02611593 -0.059798401 0.050936799
-0.02611593 -0.059798401 0.050936799
-0.02611593 -0.059798401 0.050936799
-0.02611593 -0.059798401 0.050936799
-0.02611593 -0.059798401 0.050936799
-0.02611593 -0.059798401 0.050936799
-0.02611593 -0.059798401 0.050936799
-0.02611593 -0.059798401 0.050936799
-0.02611593 -0.059798401 0.050936799
-0.02611593 -0.059798401 0.050936799
-0.02611593 -0.059798401 0.050936799
-0.02611593 -0.059798401 0.050936799
-0.02611593 -0.059798401 0.050936799
-0.02611593 -0.059798401 0.050936799
-0.02611593 -0.059798401 0.050936799
-0.02611593 -0.059798401 0.050936799
-0.02611593 -0.059798401 0.050936799
-0.02611593 -0.059798401 0.050936799
-0.02611593 -0.059798401 0.050936799
-0.02611593 -0.059798401 0.050936799
-0.02611593 -0.059798401 0.050936799
-0.02611593 -0.059798401 0.050936799
-0.02611593 -0.059798401 0.050936799
-0.02611593 -0.059798401 0.050936799
-0.02611593 -0.059798401 0.050936799
-0.02611593 -0.059798401 0.050936799
-0.02611593 -0.059798401 0.050936799
-0.02611593 -0.059798401 0.050936799
-0.02611593 -0.059798401 0.050936799
-0.02611593 -0.059798401 0.050936799
-0.02611593 -0.059798401 0.050936799
-0.02611593 -0.059798401 0.050936799
-0.02611593 -0.059798401 0.050936799
-0.02611593 -0.059798401 0.050936799
-0.02611593 -0.059798401 0.050936799
-0.02611593 -0.059798401 0.050936799
-0.02611593 -0.059798401 0.050936799
-0.02611593 -0.059798401 0.050936799
-0.02611593 -0.059798401 0.050936799
-0.02611593 -0.059798401 0.050936799
-0.02611593 -0.059798401 0.050936799
-0.02611593 -0.059798401 0.050936799
-0.02611593 -0.059798401 0.050936799
-0.02611593 -0.059798401 0.050936799
-0.02611593 -0.059798401 0.050936799
-0.02611593 -0.059798401 0.050936799
-0.02611593 -0.059798401 0.050936799
-0.02611593 -0.059798401 0.050936799
-0.02611593 -0.059798401 0.050936799
-0.02611593 -0.059798401 0.050936799
-0.02611593 -0.059798401 0.050936799
-0.02611593 -0.059798401 0.050936799
-0.02611593 -0.059798401 0.050936799
-0.02611593 -0.059798401 0.050936799
-0.02611593 -0.059798401 0.050936799
-0.02611593 -0.059798401 0.050936799
-0.02611593 -0.059798401 0.050936799
-0.02611593 -0.059798401 0.050936799
-0.02611593 -0.059798401 0.050936799
-0.02611593 -0.059798401 0.050936799
-0.02611593 -0.059798401 0.050936799
-0.02611593 -0.059798401 0.050936799
-0.02611593 -0.059798401 0.050936799
-0.02611593 -0.059798401 0.050936799
-0.02611593 -0.059798401 0.050936799
-0.02611593 -0.059798401 0.050936799
-0.02611593 -0.059798401 0.050936799
-0.02611593 -0.059798401 0.050936799
-0.02611593 -0.059798401 0.050936799
-0.02611593 -0.059798401 0.050936799
-0.02611593 -0.059798401 0.050936799
-0.02611593 -0.059798401 0.050936799
-0.02611593 -0.059798401 0.050936799
-0.02611593 -0.059798401 0.050936799
-0.070768617 -0.046999842 -0.039026164
-0.02611593 -0.059798401 0.050936799
-0.02611593 -0.059798401 0.050936799
-0.02611593 -0.059798401 0.050936799
-0.02611593 -0.059798401 0.050936799
-0.02611593 -0.059798401 0.050936799
-0.02611593 -0.059798401 0.050936799
-0.02611593 -0.059798401 0.050936799
-0.075730257 -0.047018077 -0.036932893
-0.02611593 -0.059798401 0.050936799
-0.02611593 -0.059798401 0.050936799
-0.02611593 -0.059798401 0.050936799
-0.02611593 -0.059798401 0.050936799
-0.02611593 -0.059798401 0.050936799
-0.02611593 -0.059798401 0.050936799
-0.078666605 -0.050079156 -0.032931935
-0.079673357 -0.04705799 -0.033858746
-0.02611593 -0.059798401 0.050936799
-0.02611593 -0.059798401 0.050936799
-0.02611593 -0.059798401 0.050936799
-0.02611593 -0.059798401 0.050936799
-0.079624139 -0.044094682 -0.031805366
-0.02611593 -0.059798401 0.050936799
-0.02611593 -0.059798401 0.050936799
-0.085705772 -0.046000447 -0.0357273
-0.02611593 -0.059798401 0.050936799
-0.087676741 -0.053046346 -0.032816872
-0.02611593 -0.059798401 0.050936799
-0.02611593 -0.059798401 0.050936799
-0.084623218 -0.044076733 -0.031711411
-0.02611593 -0.059798401 0.050936799
-0.088623405 -0.049079616 -0.030726675
-0.092719294 -0.044957411 -0.036577418
-0.02611593 -0.059798401 0.050936799
-0.091619842 -0.053086258 -0.029742725
-0.02611593 -0.059798401 0.050936799
-0.02611593 -0.059798401 0.050936799
-0.088581115 -0.043098725 -0.029618911
-0.02611593 -0.059798401 0.050936799
-0.096640654 -0.049032815 -0.031576019
-0.096662387 -0.04499732 -0.033503272
-0.02611593 -0.059798401 0.050936799
-0.097577371 -0.052101076 -0.027612638
-0.02611593 -0.059798401 0.050936799
-0.02611593 -0.059798401 0.050936799
-0.096594438 -0.042052094 -0.030450221
-0.02611593 -0.059798401 0.050936799
-0.10059855 -0.048054807 -0.029483519
-0.10876861 -0.043845888 -0.039257728
-0.02611593 -0.059798401 0.050936799
-0.1076465 -0.050992996 -0.031405356
-0.02611593 -0.059798401 0.050936799
-0.02611593 -0.059798401 0.050936799
-0.1046265 -0.040987376 -0.032281209
-0.02611593 -0.059798401 0.050936799
-0.10657874 -0.048051365 -0.028371107
-0.11269298 -0.043903891 -0.035183921
-0.02611593 -0.059798401 0.050936799
-0.11157088 -0.051050998 -0.02733155
-0.02611593 -0.059798401 0.050936799
-0.02611593 -0.059798401 0.050936799
-0.1085696 -0.041027285 -0.029207062
-0.02611593 -0.059798401 0.050936799
-0.1186475 -0.04693611 -0.032126255
-0.11561362 -0.042965651 -0.031110886
-0.02611593 -0.059798401 0.050936799
-0.12158383 -0.049997188 -0.028125286
-0.02611593 -0.059798401 0.050936799
-0.02611593 -0.059798401 0.050936799
-0.11149415 -0.041088875 -0.025152046
-0.02611593 -0.059798401 0.050936799
-0.12254923 -0.046012372 -0.02703476
-0.12970075 -0.041825127 -0.03582811
-0.02611593 -0.059798401 0.050936799
-0.13361517 -0.048918113 -0.029881101
-0.02611593 -0.059798401 0.050936799
-0.02611593 -0.059798401 0.050936799
-0.12254046 -0.038995475 -0.027908292
-0.02611593 -0.059798401 0.050936799
-0.13559909 -0.044911619 -0.029771447
-0.13765791 -0.040832762 -0.033660442
-0.02611593 -0.059798401 0.050936799
-0.13953918 -0.048968937 -0.025769722
-0.02611593 -0.059798401 0.050936799
-0.02611593 -0.059798401 0.050936799
-0.12748338 -0.039031796 -0.024815362
-0.02611593 -0.059798401 0.050936799
-0.1455746 -0.043893989 -0.028565869
-0.14663361 -0.039818719 -0.03247365
-0.02611593 -0.059798401 0.050936799
-0.15355141 -0.047900774 -0.026488293
-0.02611593 -0.059798401 0.050936799
-0.02611593 -0.059798401 0.050936799
-0.14051057 -0.036949299 -0.026534367
-0.02611593 -0.059798401 0.050936799
-0.15856829 -0.042847503 -0.028303575
-0.15860483 -0.037794087 -0.031212468
-0.02611593 -0.059798401 0.050936799
-0.16450803 -0.046897642 -0.024264257
-0.02611593 -0.059798401 0.050936799
-0.02611593 -0.059798401 0.050936799
-0.1545376 -0.034863219 -0.02823459
-0.02611593 -0.059798401 0.050936799
-0.16952491 -0.041844368 -0.026079532
-0.17159852 -0.036747601 -0.03095017
-0.02611593 -0.059798401 0.050936799
-0.17748301 -0.045869246 -0.023002297
-0.02611593 -0.059798401 0.050936799
-0.02611593 -0.059798401 0.050936799
-0.16347587 -0.033885356 -0.025048468
-0.02611593 -0.059798401 0.050936799
-0.19358362 -0.038686395 -0.02957315
-0.18656918 -0.034712195 -0.029632609
-0.02611593 -0.059798401 0.050936799
-0.2156101 -0.041588835 -0.030213479
-0.02611593 -0.059798401 0.050936799
-0.02611593 -0.059798401 0.050936799
-0.18451641 -0.030756228 -0.027598795
-0.02611593 -0.059798401 0.050936799
-0.21557173 -0.036607772 -0.02912372
-0.21462327 -0.030540029 -0.033033043
-0.02611593 -0.059798401 0.050936799
-0.24259733 -0.039492276 -0.029670101
-0.02611593 -0.059798401 0.050936799
-0.02611593 -0.059798401 0.050936799
-0.20351988 -0.027670462 -0.028187376
-0.02611593 -0.059798401 0.050936799
-0.24157394 -0.033496886 -0.029580779
-0.23659267 -0.028479503 -0.031583957
-0.02611593 -0.059798401 0.050936799
-0.24137282 -0.039712932 -0.01769295
-0.02611593 -0.059798401 0.050936799
-0.02611593 -0.059798401 0.050936799
-0.22550407 -0.024592016 -0.02771993
-0.02611593 -0.059798401 0.050936799
-0.25643229 -0.031570014 -0.022265252
-0.26355329 -0.024401369 -0.030004881
-0.02611593 -0.059798401 0.050936799
-0.99888474 0.033762328 -0.21124682
-0.02611593 -0.059798401 0.050936799
-0.02611593 -0.059798401 0.050936799
-0.25548288 -0.020485029 -0.027084135
-1.0044452 0.03536747 -0.18810584
-0.97870058 0.05759602 -0.20619188
-0.96899039 0.079918168 -0.2259766
-0.02611593 -0.059798401 0.050936799
-1.0049956 0.03493692 -0.16409516
-0.98832029 0.058269959 -0.18599272
-0.97157788 0.079530977 -0.2039277
-0.96289033 0.10087497 -0.2247113
-1.0185882 0.037606794 -0.14278516
-0.99690282 0.058904137 -0.16381305
-0.99526221 0.082327187 -0.18742809
-0.9785465 0.10160662 -0.20639873
-1.035184 0.039287589 -0.1214368
-1.014532 0.061624531 -0.14442721
-0.99481678 0.080893211 -0.16345422
-0.99417996 0.10332002 -0.18706849
-1.0447624 0.040925179 -0.099220321
-1.0371604 0.064362876 -0.12494739
-1.0024183 0.081541888 -0.14229301
-1.0047996 0.10399755 -0.16685052
-1.0342774 0.040418975 -0.07341703
-1.0326929 0.063896291 -0.10003105
-1.0250652 0.084298313 -0.12381285
-1.0144045 0.10365357 -0.14566974
-1.0668812 0.044174943 -0.052731648
-1.0563024 0.066620134 -0.079532787
-1.032648 0.084928893 -0.10165198
-1.0230057 0.10430583 -0.12448972
-1.0894347 0.04684094 -0.0292532
-1.0778933 0.069318712 -0.058072463
-1.0462257 0.086580843 -0.079360321
-1.0346066 0.10496885 -0.10325334
-1.0949763 0.048427992 -0.0051125661
-1.0844389 0.06990952 -0.033931047
-1.0638213 0.088265225 -0.057993174
-1.0502251 0.10566431 -0.082941458
-1.121525 0.052108165 0.018459067
-1.1049925 0.072568335 -0.010490179
-1.0803984 0.089927942 -0.035645157
-1.0597888 0.10628399 -0.05974333
-1.1340241 0.054683991 0.044748582
-1.1165332 0.074176915 0.013763212
-1.1009709 0.092604838 -0.013203956
-1.0723705 0.10693252 -0.03748849
-1.1475416 0.057281502 0.070057236
-1.1370494 0.076799557 0.039203394
-1.1044981 0.093166798 0.011880752
-1.0929618 0.1096275 -0.016046956
-1.1550455 0.05883956 0.096234776
-1.1495672 0.079393469 0.064493254
-1.1290512 0.095839962 0.035396773
-1.0995111 0.10921849 0.0080764517
-1.1625494 0.060397614 0.12241234
-1.1570898 0.080969617 0.08967115
-1.1435726 0.097441226 0.060706202
-1.1170505 0.11084861 0.032442585
-1.1900005 0.064990759 0.15101907
-1.1745881 0.08356338 0.11605462
-1.1521137 0.099039048 0.08490321
-1.135586 0.11348215 0.056845531
-1.2004625 0.067523234 0.17927033
-1.1950482 0.086131759 0.14449377
-1.1626171 0.10060788 0.11113714
-1.1501261 0.11510152 0.081155285
-1.2019299 0.069023587 0.20733446
-1.2025334 0.087671712 0.171671
-1.1721058 0.1011552 0.13833392
-1.154657 0.11466724 0.10624076
-1.2093925 0.071545273 0.23552935
-1.1980245 0.088168792 0.1986047
-1.1925808 0.10474148 0.16579145
-1.1691409 0.11623231 0.13354951
-1.2407266 0.077044085 0.27022725
-1.2084677 0.090683177 0.22785562
-1.2050276 0.10626321 0.19506192
-0.02611593 -0.059798401 0.050936799
-1.2640847 0.081532426 0.30375713
-1.2248873 0.094200827 0.25823697
-1.2154934 0.10779585 0.22329517
-1.1961092 0.11935531 0.18812943
-0.02611593 -0.059798401 0.050936799
-0.02611593 -0.059798401 0.050936799
-1.216965 0.10829636 0.25134128
-1.2115555 0.12088782 0.21745628
-0.02611593 -0.059798401 0.050936799
-1.2845452 0.10316992 0.32854
-0.02611593 -0.059798401 0.050936799
-0.02611593 -0.059798401 0.050936799
-1.3300101 0.094838396 0.41226888
-1.2899518 0.10563017 0.35969627
-1.2666845 0.11628398 0.31843939
-1.2912203 0.13194641 0.28717148
-3.1138115 0.3135832 0.98381704
-1.3550204 0.11501515 0.40810072
-1.2681186 0.11674833 0.34848481
-0.02611593 -0.059798401 0.050936799
-3.0885127 0.31524843 1.0523967
-3.1290679 0.35302836 0.96280909
-1.3322061 0.12614781 0.3958708
-0.02611593 -0.059798401 0.050936799
-3.1585228 0.33065882 1.1560214
-3.0809007 0.35072023 1.0248865
-1.3534898 0.13055663 0.43336174
-0.02611593 -0.059798401 0.050936799
-3.2324388 0.34599319 1.2647196
-3.1350608 0.36220053 1.1211408
-3.0860815 0.38102251 1.0095265
-1.3396519 0.13768607 0.4232282
-3.2873995 0.36029568 1.3710433
-3.2080181 0.37656766 1.2278028
-3.1323109 0.38952887 1.1025774
-3.0982366 0.40329701 0.99715275
-3.3700402 0.37840858 1.4939598
-3.2669635 0.38986659 1.3351835
-3.1894186 0.39996588 1.201869
-3.1156819 0.40588123 1.0795541
-3.457526 0.39739451 1.6249858
-3.3506491 0.40601957 1.4560833
-3.2583282 0.41226467 1.3114189
-3.1807129 0.41627452 1.1829947
-5.1160474 0.63170284 2.5265818
-3.4342144 0.42406368 1.5830173
-3.3360786 0.42645073 1.4291711
-3.2476685 0.42660266 1.2904716
-5.0044012 0.62969816 2.6134846
-3.5007946 0.43904731 1.7095779
-3.4097142 0.44151375 1.5528641
-3.3164885 0.43781123 1.4050015
-4.7443438 0.6075877 2.6182175
-4.9328365 0.65489733 2.5315728
-3.494175 0.45745322 1.6857789
-3.3951495 0.4509106 1.5277529
-3.4609327 0.4352631 2.0218689
-4.8222661 0.6479513 2.6154053
-4.7649579 0.65329552 2.417362
-3.4845569 0.46581399 1.6637425
-4.6629024 0.62207526 2.8510334
-3.4773157 0.45676911 1.9975564
-4.7821956 0.66174263 2.5628867
-0.02611593 -0.059798401 0.050936799
-4.5435982 0.61936766 2.9197738
-4.6834407 0.64675802 2.817853
-4.5747857 0.63647914 2.5875547
-0.02611593 -0.059798401 0.050936799
-3.1359913 0.41711658 2.1254921
-4.5789323 0.64290541 2.8978539
-4.675036 0.6583389 2.7838938
-4.5791512 0.63885504 2.5676727
-4.3259268 0.61497337 3.0606668
-3.1770148 0.43335146 2.1215525
-4.5952044 0.65426844 2.8813584
-3.4414175 0.4668096 2.0430815
-2.6035199 0.35527879 1.9443427
-4.3305941 0.62667316 3.0229533
-3.3086715 0.45864859 2.1894979
-4.60848 0.65056902 2.8675356
-2.7919867 0.39578539 2.1796839
-2.6138394 0.35963959 1.9266089
-4.360682 0.63188851 3.0176089
-3.5351336 0.48716795 2.3212986
-3.9982562 0.61121058 3.2535293
-2.8299484 0.40392038 2.180542
-2.620044 0.35986009 1.9157254
-4.3857646 0.62403387 3.0149357
-3.8852322 0.60879582 3.3073876
-4.0108385 0.61081463 3.2227473
-3.1999114 0.45967969 2.441566
-2.6262283 0.35102791 1.9076786
-2.3446271 0.35152006 2.0964792
-3.9145491 0.60820764 3.2909205
-4.0428481 0.60693014 3.2232766
-3.2159367 0.44772103 2.4426498
-1.8761616 0.27776176 1.7582595
-2.3568616 0.34878066 2.0846548
-3.9523787 0.60216415 3.301523
-2.4867918 0.33506975 1.9858059
-1.8265861 0.27802497 1.7883462
-1.8833859 0.27298674 1.7473046
-2.3669472 0.3408722 2.0816996
-2.4131589 0.32715774 2.0202959
-1.9162873 0.3052966 1.9595771
-1.8347808 0.27121767 1.7793734
-1.8924158 0.26502037 1.7473296
-2.3710508 0.32392564 2.079469
-2.0890818 0.35011545 2.2297144
-1.8970425 0.29089671 1.9219434
-1.8388941 0.26130611 1.7752697
-1.8925534 0.24909547 1.7430426
-2.2507439 0.39576793 2.5066607
-2.0659661 0.33181033 2.1859355
-1.8893838 0.27614182 1.906528
-1.8448998 0.24527609 1.7780933
-3.2278738 0.61634159 3.7443647
-2.2550907 0.37905651 2.4914351
-2.0505157 0.31220856 2.1602831
-1.8904809 0.25616696 1.9051867
-3.1386347 0.61983103 3.808779
-3.2294555 0.58780229 3.7188697
-2.2504213 0.35727748 2.4779489
-2.061394 0.29005277 2.1710896
-3.042629 0.62151271 3.8610299
-3.1343682 0.58639765 3.7760835
-3.2717969 0.56223732 3.7592137
-2.2553768 0.33015531 2.4855537
-2.9017236 0.61304426 3.8562365
-3.0284967 0.58315295 3.822058
-3.1745868 0.55869931 3.8233511
-3.2777066 0.51801312 3.7725286
-2.8847342 0.63318634 4.0113354
-2.9373484 0.58270824 3.8823638
-3.0774968 0.55327004 3.8814549
-3.17855 0.51050472 3.8345575
-2.8004339 0.63763928 4.0788608
-2.8413363 0.58137244 3.93556
-2.9892058 0.55069178 3.9497786
-3.0803931 0.5029999 3.896605
-2.7083261 0.64124453 4.1362209
-2.7706776 0.58553189 4.0223417
-2.8931079 0.54726583 4.007937
-2.9832695 0.49653471 3.9566901
-2.2815788 0.5531978 3.6564758
-2.682502 0.58707952 4.0837398
-2.7969909 0.54382181 4.0670948
-2.8919723 0.49092808 4.0259027
-2.1919506 0.55426306 3.688828
-2.5728972 0.58307385 4.1156263
-2.7067568 0.54129058 4.1323819
-2.7948074 0.48542646 4.0880051
-2.0917373 0.55066943 3.6998904
-2.4846845 0.58458531 4.1790233
-2.6115572 0.5397774 4.1955938
-2.6947031 0.47896856 4.1470337
-1.9934372 0.5500102 3.7150431
-2.3954494 0.58707494 4.2434196
-2.515455 0.53735125 4.2537704
-2.6004589 0.47440529 4.2132096
-1.8942984 0.5464927 3.7221258
-2.3139796 0.59137583 4.3199978
-2.4241946 0.53679806 4.3200741
-2.505233 0.46985656 4.2783666
-1.8038803 0.54675347 3.7434449
-2.2314692 0.59663683 4.3985753
-2.32707 0.53535008 4.3792496
-2.4070833 0.46536922 4.339468
-1.7106767 0.54520279 3.7536752
-2.1374488 0.5973078 4.4518447
-2.2329073 0.53387672 4.4404807
-2.3118536 0.4618203 4.4046435
-1.6146457 0.5428043 3.7548342
-2.0538599 0.60349268 4.5344195
-2.1367455 0.5323962 4.5016742
-2.21561 0.45724976 4.4707808
-1.0262427 0.34149706 2.5317619
-1.7587656 0.53672564 4.1235476
-2.0328281 0.53112209 4.5497217
-2.1124756 0.45376253 4.530807
-0.93941063 0.33025056 2.470912
-1.007756 0.29776198 2.5126181
-1.9356434 0.53061968 4.6119142
-2.0142426 0.4512026 4.5959444
-0.85851735 0.31997111 2.4131918
-0.92092389 0.28651544 2.4517684
-0.98133487 0.25205275 2.490289
-1.0398031 0.21261995 2.5266826
-0.7826044 0.30969155 2.3565652
-0.84005332 0.27525428 2.3930304
-0.89454412 0.23984259 2.427422
-0.94610733 0.20047508 2.4586859
-0.71064931 0.30038998 2.3020315
-0.76402402 0.26586601 2.3424201
-0.81266963 0.22957765 2.3686833
-0.86218101 0.18914886 2.4028907
-0.64361846 0.29103401 2.25159
-0.69024575 0.25472039 2.2788157
-0.73479843 0.21832727 2.3100021
-0.78215259 0.17974623 2.352205
-0.581429 0.28355092 2.2092762
-0.62215489 0.24630639 2.2313724
-0.66378701 0.20897499 2.2584858
-0.70145041 0.16864786 2.2844703
-0.52117908 0.27702054 2.1700168
-0.5589844 0.23883778 2.18804
-0.59379023 0.20064422 2.2060065
-0.6313374 0.16120841 2.2380073
-0.46490589 0.27148631 2.13185
-0.49879462 0.23136188 2.1457634
-0.53060102 0.19315757 2.1636741
-0.56517124 0.15272921 2.1946003
-0.40969643 0.26401025 2.0906672
-0.44329253 0.226614 2.1196296
-0.47225717 0.18654396 2.1294506
-0.49817395 0.14440924 2.1421778
-0.35928708 0.25937074 2.059629
-0.38715822 0.21920671 2.074429
-0.41398817 0.1800027 2.0912282
-0.43980747 0.13877738 2.1089718
-0.31072366 0.25559351 2.0366435
-0.33673015 0.21454905 2.0443907
-0.36059809 0.1753705 2.059134
-0.382557 0.13225779 2.0697687
-0.26761132 0.2573303 2.0418696
-0.28716689 0.21076828 2.0213866
-0.30913275 0.17067312 2.0310757
-0.32816708 0.12762201 2.0376556
-0.22951163 0.26616472 2.098335
-0.24724784 0.21675886 2.0687635
-0.26470628 0.17109901 2.0532594
-0.27831909 0.1245697 2.0296645
-0.18834846 0.27693382 2.1577795
-0.20607772 0.22451031 2.1291535
-0.22361891 0.17692317 2.1096144
-0.23614614 0.12830019 2.0909634
-0.14522703 0.28673202 2.215169
-0.16384774 0.23320378 2.1925414
-0.17928478 0.18350127 2.1789267
-0.19199231 0.13204159 2.1512246
-0.14770354 0.52324378 3.6879926
-0.19905505 0.50812984 4.2048559
-0.1339508 0.19007576 2.2482207
-0.14562894 0.13657665 2.2224624
-0.069137752 0.52135861 3.6644797
-0.10537966 0.50608218 4.1870594
-0.15093118 0.48624444 4.8537788
-0.2089024 0.46718723 5.923882
0.0095817372 0.52032846 3.6489818
-0.012704119 0.50403821 4.1692805
-0.038978256 0.48386088 4.8506389
-0.068191245 0.4619171 5.9081473
0.086384356 0.5212329 3.6375563
0.078162968 0.50282037 4.1615548
0.071843788 0.48160759 4.8405199
0.071193963 0.45495853 5.8754005
0.16410403 0.52020633 3.6220775
0.16997764 0.502653 4.1508293
0.1852468 0.48380357 4.8604431
0.21202925 0.45257944 5.8657174
0.24061403 0.51838261 3.5956032
0.26379192 0.50247842 4.1400661
0.29470545 0.4798978 4.8313131
0.35205194 0.45002308 5.8660498
0.31637937 0.51932669 3.5821972
0.35574159 0.50318426 4.1363554
0.40541512 0.47775307 4.815196
0.50989908 0.46479505 6.0664296
0.39212599 0.52028894 3.5677915
0.44646281 0.50311089 4.1206503
0.51868713 0.48007569 4.8281217
0.6440109 0.45406371 5.9666901
-0.02611593 -0.059798401 0.050936799
0.53724414 0.50398308 4.1079626
0.62934065 0.47798514 4.8090057
0.76358116 0.43784532 5.786097
0.15896669 0.12901363 1.1882725
-0.02611593 -0.059798401 0.050936799
-0.02611593 -0.059798401 0.050936799
-0.02611593 -0.059798401 0.050936799
0.61387908 0.51864672 3.4995866
-0.02611593 -0.059798401 0.050936799
-0.02611593 -0.059798401 0.050936799
0.98631692 0.40790835 5.456274
0.26282561 0.17412755 1.4372284
0.26045901 0.1333407 1.425531
0.26233202 0.096321717 1.4258263
0.26408881 0.058411449 1.4201057
0.76657116 0.52338606 3.4808075
0.28913152 0.13254429 1.4079736
1.0785962 0.48002082 4.764616
1.1876608 0.3834886 5.1579614
0.83152449 0.51812708 3.4254773
0.97332007 0.49612245 3.9496021
1.1979309 0.48426729 4.7804642
1.2797799 0.37186339 5.0059748
0.90417802 0.51919055 3.4061298
1.0609522 0.49715009 3.9289732
1.3234599 0.49031097 4.8062315
1.3692408 0.36092317 4.872056
0.97254366 0.51853997 3.3718264
1.1495652 0.4981924 3.9073255
1.4167073 0.48361754 4.7133336
1.4569196 0.35279065 4.7492261
1.0409279 0.51787132 3.3385227
1.2339693 0.4984481 3.8747387
1.5091873 0.47871017 4.6324859
1.5395205 0.3437486 4.6224732
1.1124883 0.51902884 3.3141954
1.3183134 0.49775821 3.8391352
1.5880286 0.46844751 4.5187855
-0.02611593 -0.059798401 0.050936799
1.1798352 0.51839995 3.2789114
-0.02611593 -0.059798401 0.050936799
-0.02611593 -0.059798401 0.050936799
0.38263074 0.0320643 1.0802945
-0.02611593 -0.059798401 0.050936799
0.38764471 0.093253039 1.0693039
0.49197793 0.090697147 1.2993822
0.50275183 0.052736491 1.2944921
0.50433826 0.16858652 1.3035612
0.51304847 0.12868766 1.2956736
1.8140947 0.44620901 4.2050443
1.8365383 0.31414047 4.1472158
1.3872322 0.52116907 3.1910486
-0.02611593 -0.059798401 0.050936799
1.8738308 0.43712294 4.085721
1.909662 0.30864522 4.0477133
1.4504824 0.51964515 3.1508231
1.7371585 0.50222784 3.6663156
