# .PCD v0.7 - Point Cloud Data file format
VERSION 0.7
FIELDS x y z
SIZE 4 4 4
TYPE F F F
COUNT 1 1 1
WIDTH 1417
HEIGHT 1
VIEWPOINT 0 0 0 1 0 0 0
POINTS 1417
DATA ascii
-0.28744256 0.58935976 1.8811926
-0.30621704 0.60096836 1.5186312
-0.28807077 0.59783089 1.6332736
-0.26781648 0.59357786 1.7538582
-0.2451241 0.5909012 1.8974336
-0.2759752 0.60162532 1.5310811
-0.25293526 0.59556091 1.6405771
-0.22858025 0.59320271 1.766121
-0.20094098 0.59156227 1.9066215
-0.24477491 0.60131514 1.5414947
-0.21775444 0.59525436 1.6499161
-0.18949769 0.59197241 1.7703685
-0.156882 0.58933234 1.9097573
-0.21357071 0.60200471 1.5519266
-0.18163387 0.59399867 1.6562192
-0.14937788 0.59070241 1.7765964
-0.11187938 0.58715308 1.9098754
-0.18244928 0.60076702 1.5583236
-0.14655061 0.5927828 1.6605418
-0.11025395 0.5904358 1.7828614
-0.067696266 0.58781409 1.9190631
-0.14939219 0.5975768 1.5616482
-0.11046752 0.5915634 1.6648456
-0.07017158 0.58920205 1.7870899
-0.022731077 0.58567107 1.9171818
-0.1171468 0.59922642 1.5740784
-0.074181482 0.59416229 1.6792182
-0.029145561 0.58801889 1.7883008
0.021317039 0.58545887 1.9193541
-0.085021593 0.5989849 1.5804749
-0.038158476 0.59199727 1.6805049
0.010102475 0.59064323 1.8006177
0.066443786 0.58617055 1.9255241
-0.051979315 0.59681261 1.5828177
-0.0012144744 0.58890116 1.6777564
0.051068392 0.58851451 1.7988116
0.11019143 0.58123058 1.9126114
-0.0188543 0.59656751 1.5891953
0.0339742 0.59059429 1.6871313
0.091057152 0.58737117 1.7980418
0.15526594 0.58299637 1.9158003
0.013229531 0.59536237 1.5935742
0.071023598 0.59040725 1.6894351
0.13206837 0.58720595 1.7982712
-0.02611593 -0.059798401 0.050936799
0.047215454 0.59324068 1.5928993
0.10799025 0.58829296 1.687704
0.16947132 0.57559615 1.7683506
0.13967405 0.33214131 1.1873077
0.080367059 0.5949772 1.6003126
0.14608084 0.58906597 1.6920063
0.12977105 0.36119041 1.1870186
0.15984759 0.31880999 1.1456747
0.11555573 0.59667039 1.6096876
-0.02611593 -0.059798401 0.050936799
0.25496703 0.58583701 1.7919431
0.18240398 0.31212661 1.1231239
0.10806303 0.44031873 1.2408745
0.22120604 0.59066981 1.6976308
0.29379833 0.58284229 1.783159
0.20502047 0.3063888 1.10359
0.15993756 0.5196954 1.4314039
0.259139 0.58958787 1.6938998
0.28932679 0.50185442 1.5607023
0.2309635 0.30734956 1.1001205
0.22072768 0.59711242 1.6177292
0.26812625 0.53123236 1.5446253
0.37451354 0.58080506 1.7676058
0.25158426 0.30261874 1.0806422
0.25359753 0.59410304 1.611057
0.33296779 0.58746731 1.6844759
0.41439387 0.58077008 1.760856
0.2764861 0.30261946 1.0751743
0.27401829 0.56142277 1.5330571
0.37192324 0.58736354 1.6817437
-0.02611593 -0.059798401 0.050936799
0.30141056 0.30360195 1.0707239
0.32235932 0.5890553 1.5986742
0.40772152 0.58541554 1.6710347
-0.02611593 -0.059798401 0.050936799
0.32625228 0.30265707 1.0622388
0.35835665 0.58992594 1.5980158
0.44773689 0.58625376 1.6713006
-0.02611593 -0.059798401 0.050936799
0.35221791 0.30459961 1.0597868
0.39540994 0.59073865 1.6003375
0.48668143 0.58816773 1.6676048
0.57892221 0.58261174 1.7337998
0.3802847 0.30844417 1.0623318
0.43030602 0.58970374 1.5946634
0.52352101 0.58717978 1.6588943
0.61764902 0.58172524 1.7190537
0.40407041 0.3075572 1.0508666
0.46516466 0.58870482 1.5869901
0.56240147 0.58714837 1.6521635
-0.02611593 -0.059798401 0.050936799
0.55554956 0.41211239 1.3210133
0.50108314 0.58864802 1.5823151
0.5981437 0.58525461 1.6384554
-0.02611593 -0.059798401 0.050936799
0.79812461 0.57657337 1.7435898
0.53594184 0.58764917 1.5746417
-0.02611593 -0.059798401 0.050936799
0.60630065 0.47246075 1.4021823
0.83773893 0.57579178 1.722827
0.57184154 0.58761048 1.5689669
0.60674471 0.52426142 1.4691337
0.77050442 0.57924026 1.6571259
0.87735718 0.57600999 1.7020822
-0.02611593 -0.059798401 0.050936799
0.63946867 0.52239662 1.4544823
0.81025767 0.58033174 1.6433967
0.91491562 0.57528985 1.6783578
0.58899289 0.53308088 1.4276115
0.74520606 0.58259225 1.5876367
0.8479324 0.58050281 1.6256884
0.95557511 0.57646811 1.6596117
0.6281029 0.53884935 1.4319851
0.78091478 0.58173454 1.5719472
0.88454723 0.579732 1.604982
0.98903674 0.57485294 1.6309462
0.71721178 0.58666545 1.5342164
0.81764585 0.58185506 1.5572567
0.92014354 0.57898283 1.5832945
1.0255806 0.5751543 1.606259
0.75199556 0.58573902 1.5225444
0.85539943 0.58295363 1.5435652
0.95779955 0.57917202 1.5645866
1.0641842 0.57639396 1.5845515
0.78982401 0.58676523 1.5128515
0.89317173 0.5840342 1.5308732
0.99135882 0.57846624 1.5409375
1.0976311 0.57579672 1.5549043
0.82352906 0.58491492 1.4971817
0.92882419 0.58323073 1.5121847
1.0258951 0.57677507 1.516252
1.1321154 0.57515973 1.5272377
0.86652207 0.58977789 1.495464
0.96037596 0.58053243 1.4885373
1.0646002 0.57992405 1.4995787
1.1676445 0.57648253 1.5015877
0.89811128 0.58704334 1.4738158
0.99705482 0.581707 1.4708658
1.0981221 0.57925445 1.4739302
1.2031552 0.57782346 1.474938
0.93486112 0.58714569 1.4601249
1.0347708 0.58284181 1.4551748
1.1306441 0.57858837 1.4483005
1.2346063 0.57823324 1.4453467
0.96849525 0.58636755 1.4404745
1.0652705 0.5812012 1.4285651
1.1651922 0.57989675 1.4236691
1.2660201 0.57867908 1.4137559
1.0011256 0.58459318 1.4208248
1.0988712 0.58145899 1.4069333
1.1956544 0.57829231 1.3950601
1.2964526 0.5791105 1.3831836
1.0357596 0.58381146 1.4011556
1.1334716 0.58171332 1.3852828
1.2312251 0.5805788 1.3714274
1.3278664 0.57955647 1.3515928
1.0704161 0.58401138 1.382504
1.1660123 0.58102918 1.3606528
1.260654 0.58001399 1.3408558
1.358303 0.58098775 1.3210385
1.1060913 0.58418977 1.3648332
1.20468 0.58421433 1.3419801
1.289083 0.57945275 1.310303
1.3866798 0.58148062 1.2875047
1.1427287 0.58440065 1.3451445
1.2321202 0.58163893 1.3124098
1.3205717 0.5798263 1.2827108
1.4130384 0.58199871 1.2530088
1.1753107 0.5846802 1.3225317
1.2626237 0.58099806 1.2858181
1.3591723 0.58508348 1.2600757
1.4383744 0.58153868 1.2175143
1.2068478 0.58299977 1.2979027
1.2992169 0.58426279 1.2631843
1.3814784 0.58165276 1.2235836
1.4626918 0.58110029 1.1810386
1.2414522 0.58425391 1.27627
1.3297017 0.5836401 1.2355928
1.4129561 0.5840441 1.1950278
1.4890769 0.58360004 1.1475785
1.2749926 0.58356613 1.2516214
1.3571123 0.58310056 1.2040594
1.4373112 0.58356965 1.1605515
1.5134169 0.5841434 1.1121205
1.3065147 0.58290374 1.2260106
1.3926642 0.58540517 1.179427
1.4647069 0.58404797 1.1280363
1.5346977 0.58375204 1.073702
1.3380221 0.58325922 1.1994179
1.4180524 0.58389103 1.1469132
1.491084 0.584548 1.09454
1.5580231 0.58531696 1.0372813
1.3735889 0.58454585 1.1757674
1.447508 0.58530772 1.1173774
1.5174839 0.58602971 1.0620615
1.5793451 0.58588922 1.0008801
1.4080995 0.58589041 1.1491365
1.4789631 0.58671737 1.0878038
1.5428239 0.58656955 1.0265849
1.6006522 0.58747929 0.96349722
1.4365288 0.58532917 1.1185837
1.5043365 0.5862211 1.0543085
1.5671866 0.58809477 0.99214464
1.6229593 0.58906591 0.92609566
1.4700208 0.58669543 1.0909721
1.5297139 0.58672476 1.0208312
1.5884861 0.58768523 0.9547258
1.6372037 0.58873582 0.8858093
1.4994535 0.58713037 1.0604185
1.5560911 0.58722478 0.98733509
1.61283 0.58922851 0.91928595
1.6524478 0.58840215 0.84550422
1.5298864 0.58756185 1.0298462
1.5844907 0.58869946 0.95481896
1.6290888 0.58787328 0.87994361
1.6717594 0.59099936 0.80817699
1.558278 0.58703667 0.99729407
1.605786 0.58729011 0.91738206
1.6514372 0.59042346 0.84455937
1.6870075 0.59166545 0.76788986
1.5846325 0.58655506 0.96278024
1.6371928 0.59075356 0.88484567
1.6676813 0.59008616 0.80423546
1.7012746 0.5923171 0.72862124
1.6190763 0.58997154 0.93218678
1.6564925 0.59035128 0.84746438
1.690007 0.59165472 0.76783347
1.7135046 0.59301209 0.68739086
1.6464345 0.59048611 0.89767218
1.6777956 0.59094161 0.81006354
1.7072775 0.5932954 0.72852653
1.7247535 0.5936926 0.64717895
1.6737741 0.59101874 0.86215788
1.702121 0.59250289 0.77362394
1.721522 0.59296536 0.68824023
1.7370062 0.59536934 0.60696626
1.697073 0.5906021 0.82470143
1.7264316 0.59508216 0.73620278
1.7438328 0.59555167 0.65085655
1.7502587 0.59704244 0.56673473
1.7203532 0.59020346 0.78624529
1.7416719 0.59374863 0.6958797
1.7560816 0.5962286 0.6106258
1.7614927 0.59874088 0.52554113
1.747678 0.59175408 0.74974942
1.7599156 0.59340417 0.65551823
1.7703112 0.59691644 0.56935793
1.7707419 0.59942853 0.48536679
1.771962 0.59235173 0.71129251
1.7751449 0.59408844 0.61423147
1.7795377 0.59662235 0.52816588
1.7769731 0.6001451 0.44424915
1.7942277 0.59297466 0.67187357
1.7903893 0.59375471 0.57392633
1.7927715 0.59831357 0.48693472
1.7791635 0.59991229 0.40118939
1.8164557 0.59363377 0.63045526
1.8056188 0.59443891 0.53263956
1.8040017 0.59901214 0.44572312
1.7813915 0.59964341 0.36012885
1.8356845 0.59430361 0.58909333
1.824874 0.59709036 0.49231333
1.8102101 0.59874701 0.40358782
-0.02611593 -0.059798401 0.050936799
1.8599162 0.59595537 0.54765546
1.8370627 0.59682173 0.44906563
1.8184221 0.59947443 0.36143291
1.0730907 0.34048921 0.18764384
1.8761228 0.59565431 0.50533229
1.852296 0.5985058 0.40779692
-0.02611593 -0.059798401 0.050936799
1.0084089 0.31730181 0.15642484
1.8963178 0.59735656 0.46197027
1.8654884 0.59923339 0.36454844
1.1392498 0.35514122 0.19267191
0.86753362 0.26548257 0.12111307
1.9205348 0.60002625 0.41955081
-0.02611593 -0.059798401 0.050936799
0.97117561 0.29458326 0.14870837
0.83308089 0.25400457 0.099543184
1.9397113 0.6017502 0.3752079
1.1320987 0.34025937 0.18753487
0.87146795 0.25850561 0.11891246
0.83272517 0.25434825 0.080549628
1.1847492 0.34545666 0.22065434
0.98913395 0.28953752 0.1472804
0.86404562 0.25592914 0.096997395
0.83235067 0.25471005 0.060556404
1.1179476 0.32038537 0.18343893
0.98165143 0.2860156 0.12234832
0.8656708 0.25628376 0.076966591
0.80496061 0.24515234 0.041890003
1.0291641 0.28935781 0.1485281
0.90202773 0.25781053 0.095319733
0.83924705 0.24775845 0.056300096
0.81363761 0.24944499 0.023799064
1.0467273 0.29372668 0.12427007
0.88158816 0.25028163 0.073558852
0.82989597 0.24411705 0.038403239
0.80429447 0.24780321 0.0059382394
1.0542576 0.2941502 0.099128217
0.86515558 0.24473803 0.051758841
0.81951153 0.2415152 0.018543867
0.78094894 0.24019462 -0.010767967
1.0527632 0.29262441 0.073119782
0.84777552 0.23814391 0.032958593
0.82015562 0.24185531 -0.00046848506
0.78660393 0.24351628 -0.029820211
1.0272417 0.28318617 0.047418173
0.81136048 0.22663693 0.013425607
0.80879015 0.23923899 -0.019309402
0.90418255 0.28964573 -0.062198132
0.91368252 0.24601421 0.025864597
0.85499936 0.24187441 -0.0091234408
0.82642114 0.24655311 -0.040514387
0.92576456 0.2989994 -0.086441234
0.95427275 0.25829917 0.0013185404
0.84861821 0.24025808 -0.029039957
0.97092879 0.2996749 -0.078271836
0.86046147 0.27645364 -0.097630195
0.94883525 0.25673354 -0.021615747
1.0660679 0.3152408 -0.074770339
0.92157143 0.2831431 -0.093651995
0.79821783 0.2548427 -0.10585855
1.0523467 0.2899335 -0.054964509
0.97770399 0.28581497 -0.087652579
0.85128403 0.25959733 -0.10376537
0.75995302 0.24319817 -0.11735666
1.0198787 0.27946624 -0.077553622
0.87840134 0.25235695 -0.096401565
0.80001664 0.24198242 -0.11412767
0.76759678 0.2485304 -0.13741012
0.91854292 0.24705143 -0.088246331
0.86902064 0.25075135 -0.11626171
0.79766518 0.24333313 -0.13306561
0.79218608 0.25987297 -0.16167353
0.92009717 0.24847819 -0.11225775
0.85865504 0.24813145 -0.13512141
0.95480484 0.30378699 -0.19193411
0.8217113 0.2742694 -0.18997552
1.0543466 0.29285452 -0.1619854
0.96991169 0.28857285 -0.18348929
0.86668044 0.27312616 -0.19183876
0.81337577 0.27462372 -0.20781909
0.98602915 0.27133745 -0.17409962
0.91166043 0.26996517 -0.19273838
0.82146126 0.25845298 -0.20026042
0.79409748 0.26994601 -0.22154742
0.92177504 0.25175142 -0.18325403
0.84447396 0.24831788 -0.1978738
0.79319155 0.25078997 -0.21287405
0.21567053 0.038814217 -0.034835357
0.91732651 0.25219992 -0.20717072
0.8520388 0.25272262 -0.22194391
0.21469939 0.031764731 -0.031943716
0.19764632 0.03188001 -0.034623254
0.89098155 0.2446021 -0.22382057
0.89043927 0.26921302 -0.25737661
0.20365217 0.028840894 -0.033790402
-0.02611593 -0.059798401 0.050936799
0.90944779 0.25307521 -0.25402328
0.21759343 0.028844915 -0.037052456
-0.02611593 -0.059798401 0.050936799
0.16762733 0.020971457 -0.033258088
0.20864943 0.018788479 -0.032065213
0.19957316 0.022910539 -0.036822334
0.1805688 0.020979069 -0.036501352
-0.02611593 -0.059798401 0.050936799
0.19363646 0.014842991 -0.03185543
-0.02611593 -0.059798401 0.050936799
-0.02611593 -0.059798401 0.050936799
0.14660369 0.014048017 -0.032989617
-0.02611593 -0.059798401 0.050936799
0.16955811 0.013001819 -0.035439134
0.15554194 0.013070153 -0.036175735
-0.02611593 -0.059798401 0.050936799
0.16458769 0.005966682 -0.032472327
-0.02611593 -0.059798401 0.050936799
-0.02611593 -0.059798401 0.050936799
0.12760232 0.0080991406 -0.031741038
-0.02611593 -0.059798401 0.050936799
0.14553109 0.0050893156 -0.035132311
0.13652186 0.0071393661 -0.035926826
-0.02611593 -0.059798401 0.050936799
0.14156441 -0.00094958022 -0.032166276
-0.02611593 -0.059798401 0.050936799
-0.02611593 -0.059798401 0.050936799
0.11555137 0.0041790633 -0.033586949
-0.02611593 -0.059798401 0.050936799
0.12156022 -0.0028774557 -0.0318265
0.11652067 0.0011940713 -0.03465946
-0.02611593 -0.059798401 0.050936799
0.12254433 -0.0068803672 -0.031917363
-0.02611593 -0.059798401 0.050936799
-0.02611593 -0.059798401 0.050936799
0.098568358 -0.0017950838 -0.031376299
-0.02611593 -0.059798401 0.050936799
-0.02611593 -0.059798401 0.050936799
0.10647327 -0.0017333496 -0.036524933
-0.02611593 -0.059798401 0.050936799
0.1035656 -0.011847505 -0.029651117
-0.02611593 -0.059798401 0.050936799
-0.02611593 -0.059798401 0.050936799
0.086573556 -0.0057694251 -0.030223228
-0.02611593 -0.059798401 0.050936799
0.095500037 -0.0097467806 -0.033463396
0.094459765 -0.0056896019 -0.036371525
-0.02611593 -0.059798401 0.050936799
0.094503231 -0.013760596 -0.032517027
-0.02611593 -0.059798401 0.050936799
-0.02611593 -0.059798401 0.050936799
0.078533649 -0.0067043658 -0.032090247
-0.02611593 -0.059798401 0.050936799
0.080539316 -0.014746364 -0.030272651
0.085416108 -0.0076207845 -0.038237762
-0.02611593 -0.059798401 0.050936799
0.083493464 -0.01672061 -0.032364383
-0.02611593 -0.059798401 0.050936799
-0.02611593 -0.059798401 0.050936799
0.068542421 -0.0096860584 -0.030956734
-0.02611593 -0.059798401 0.050936799
0.071514383 -0.016695634 -0.031139232
0.075424872 -0.010602473 -0.037104256
-0.02611593 -0.059798401 0.050936799
0.071483873 -0.019677032 -0.032192957
-0.02611593 -0.059798401 0.050936799
-0.02611593 -0.059798401 0.050936799
0.057566166 -0.013682073 -0.028822791
-0.02611593 -0.059798401 0.050936799
0.066440396 -0.016605332 -0.035043932
0.065414928 -0.013566072 -0.036970403
-0.02611593 -0.059798401 0.050936799
0.061492644 -0.022658724 -0.031059437
-0.02611593 -0.059798401 0.050936799
-0.02611593 -0.059798401 0.050936799
0.052525707 -0.014627785 -0.030746177
-0.02611593 -0.059798401 0.050936799
0.055486798 -0.019619608 -0.031892307
0.05839356 -0.014522694 -0.037856549
-0.02611593 -0.059798401 0.050936799
0.051520139 -0.025658499 -0.028926272
-0.02611593 -0.059798401 0.050936799
-0.02611593 -0.059798401 0.050936799
0.043571744 -0.017649241 -0.027632136
-0.02611593 -0.059798401 0.050936799
0.049461324 -0.021579646 -0.032815251
0.052372001 -0.0154829 -0.038761493
-0.02611593 -0.059798401 0.050936799
0.045483783 -0.025600787 -0.030812845
-0.02611593 -0.059798401 0.050936799
-0.02611593 -0.059798401 0.050936799
0.040516127 -0.017584205 -0.030574743
-0.02611593 -0.059798401 0.050936799
0.041473646 -0.023568686 -0.031701311
0.044380404 -0.018471768 -0.037665553
-0.02611593 -0.059798401 0.050936799
0.040462054 -0.026564585 -0.031736575
-0.02611593 -0.059798401 0.050936799
-0.02611593 -0.059798401 0.050936799
0.034494571 -0.018544415 -0.031479686
-0.02611593 -0.059798401 0.050936799
0.036437124 -0.023514563 -0.033606678
0.03737776 -0.019446474 -0.03755204
-0.02611593 -0.059798401 0.050936799
0.030508265 -0.029582454 -0.028603744
-0.02611593 -0.059798401 0.050936799
-0.02611593 -0.059798401 0.050936799
0.028525259 -0.02055872 -0.029403657
-0.02611593 -0.059798401 0.050936799
0.028464248 -0.026521519 -0.031511091
0.033322327 -0.019377852 -0.040475864
-0.02611593 -0.059798401 0.050936799
0.026471559 -0.029531922 -0.030527901
-0.02611593 -0.059798401 0.050936799
-0.02611593 -0.059798401 0.050936799
0.026454667 -0.019479351 -0.033346701
-0.02611593 -0.059798401 0.050936799
0.025393834 -0.025438566 -0.035435349
0.028300587 -0.020341652 -0.041399591
-0.02611593 -0.059798401 0.050936799
0.021449817 -0.030495714 -0.031451631
-0.02611593 -0.059798401 0.050936799
-0.02611593 -0.059798401 0.050936799
0.019481603 -0.0224899 -0.031269901
-0.02611593 -0.059798401 0.050936799
0.018462149 -0.02748546 -0.031341203
0.021368902 -0.022388542 -0.037305444
-0.02611593 -0.059798401 0.050936799
0.01741311 -0.030445183 -0.033375788
-0.02611593 -0.059798401 0.050936799
-0.02611593 -0.059798401 0.050936799
-0.02611593 -0.059798401 0.050936799
-0.02611593 -0.059798401 0.050936799
-0.02611593 -0.059798401 0.050936799
0.016332375 -0.022334419 -0.039210819
-0.02611593 -0.059798401 0.050936799
-0.02611593 -0.059798401 0.050936799
-0.02611593 -0.059798401 0.050936799
-0.02611593 -0.059798401 0.050936799
-0.02611593 -0.059798401 0.050936799
-0.02611593 -0.059798401 0.050936799
-0.02611593 -0.059798401 0.050936799
0.011362879 -0.024352312 -0.037153579
-0.02611593 -0.059798401 0.050936799
-0.02611593 -0.059798401 0.050936799
-0.02611593 -0.059798401 0.050936799
-0.02611593 -0.059798401 0.050936799
-0.02611593 -0.059798401 0.050936799
-0.02611593 -0.059798401 0.050936799
-0.02611593 -0.059798401 0.050936799
0.0073261661 -0.024301777 -0.039077744
-0.02611593 -0.059798401 0.050936799
-0.02611593 -0.059798401 0.050936799
-0.02611593 -0.059798401 0.050936799
-0.02611593 -0.059798401 0.050936799
-0.02611593 -0.059798401 0.050936799
-0.02611593 -0.059798401 0.050936799
-0.02611593 -0.059798401 0.050936799
0.0023270801 -0.024283834 -0.038983788
-0.02611593 -0.059798401 0.050936799
-0.02611593 -0.059798401 0.050936799
-0.02611593 -0.059798401 0.050936799
-0.02611593 -0.059798401 0.050936799
-0.02611593 -0.059798401 0.050936799
-0.02611593 -0.059798401 0.050936799
-0.02611593 -0.059798401 0.050936799
-0.02611593 -0.059798401 0.050936799
-0.02611593 -0.059798401 0.050936799
-0.02611593 -0.059798401 0.050936799
-0.02611593 -0.059798401 0.050936799
-0.02611593 -0.059798401 0.050936799
-0.02611593 -0.059798401 0.050936799
-0.02611593 -0.059798401 0.050936799
-0.02611593 -0.059798401 0.050936799
-0.0057089003 -0.024218943 -0.040832784
-0.02611593 -0.059798401 0.050936799
-0.02611593 -0.059798401 0.050936799
-0.02611593 -0.059798401 0.050936799
-0.02611593 -0.059798401 0.050936799
-0.02611593 -0.059798401 0.050936799
-0.02611593 -0.059798401 0.050936799
-0.02611593 -0.059798401 0.050936799
-0.02611593 -0.059798401 0.050936799
-0.02611593 -0.059798401 0.050936799
-0.02611593 -0.059798401 0.050936799
-0.02611593 -0.059798401 0.050936799
-0.02611593 -0.059798401 0.050936799
-0.02611593 -0.059798401 0.050936799
-0.02611593 -0.059798401 0.050936799
-0.02611593 -0.059798401 0.050936799
-0.02611593 -0.059798401 0.050936799
-0.02611593 -0.059798401 0.050936799
-0.02611593 -0.059798401 0.050936799
-0.02611593 -0.059798401 0.050936799
-0.02611593 -0.059798401 0.050936799
-0.02611593 -0.059798401 0.050936799
-0.02611593 -0.059798401 0.050936799
-0.02611593 -0.059798401 0.050936799
-0.02611593 -0.059798401 0.050936799
-0.02611593 -0.059798401 0.050936799
-0.02611593 -0.059798401 0.050936799
-0.02611593 -0.059798401 0.050936799
-0.02611593 -0.059798401 0.050936799
-0.02611593 -0.059798401 0.050936799
-0.02611593 -0.059798401 0.050936799
-0.02611593 -0.059798401 0.050936799
-0.02611593 -0.059798401 0.050936799
-0.02611593 -0.059798401 0.050936799
-0.02611593 -0.059798401 0.050936799
-0.02611593 -0.059798401 0.050936799
-0.02611593 -0.059798401 0.050936799
-0.02611593 -0.059798401 0.050936799
-0.02611593 -0.059798401 0.050936799
-0.02611593 -0.059798401 0.050936799
-0.02611593 -0.059798401 0.050936799
-0.02611593 -0.059798401 0.050936799
-0.02611593 -0.059798401 0.050936799
-0.02611593 -0.059798401 0.050936799
-0.02611593 -0.059798401 0.050936799
-0.02611593 -0.059798401 0.050936799
-0.02611593 -0.059798401 0.050936799
-0.02611593 -0.059798401 0.050936799
-0.02611593 -0.059798401 0.050936799
-0.02611593 -0.059798401 0.050936799
-0.02611593 -0.059798401 0.050936799
-0.02611593 -0.059798401 0.050936799
-0.02611593 -0.059798401 0.050936799
-0.02611593 -0.059798401 0.050936799
-0.02611593 -0.059798401 0.050936799
-0.02611593 -0.059798401 0.050936799
-0.02611593 -0.059798401 0.050936799
-0.02611593 -0.059798401 0.050936799
-0.02611593 -0.059798401 0.050936799
-0.02611593 -0.059798401 0.050936799
-0.02611593 -0.059798401 0.050936799
-0.02611593 -0.059798401 0.050936799
-0.02611593 -0.059798401 0.050936799
-0.02611593 -0.059798401 0.050936799
-0.02611593 -0.059798401 0.050936799
-0.02611593 -0.059798401 0.050936799
-0.02611593 -0.059798401 0.050936799
-0.02611593 -0.059798401 0.050936799
-0.02611593 -0.059798401 0.050936799
-0.02611593 -0.059798401 0.050936799
-0.02611593 -0.059798401 0.050936799
-0.02611593 -0.059798401 0.050936799
-0.02611593 -0.059798401 0.050936799
-0.02611593 -0.059798401 0.050936799
-0.02611593 -0.059798401 0.050936799
-0.02611593 -0.059798401 0.050936799
-0.02611593 -0.059798401 0.050936799
-0.02611593 -0.059798401 0.050936799
-0.02611593 -0.059798401 0.050936799
-0.02611593 -0.059798401 0.050936799
-0.02611593 -0.059798401 0.050936799
-0.02611593 -0.059798401 0.050936799
-0.02611593 -0.059798401 0.050936799
-0.02611593 -0.059798401 0.050936799
-0.02611593 -0.059798401 0.050936799
-0.02611593 -0.059798401 0.050936799
-0.02611593 -0.059798401 0.050936799
-0.02611593 -0.059798401 0.050936799
-0.02611593 -0.059798401 0.050936799
-0.02611593 -0.059798401 0.050936799
-0.02611593 -0.059798401 0.050936799
-0.02611593 -0.059798401 0.050936799
-0.02611593 -0.059798401 0.050936799
-0.02611593 -0.059798401 0.050936799
-0.02611593 -0.059798401 0.050936799
-0.02611593 -0.059798401 0.050936799
-0.055684958 -0.025057418 -0.038911618
-0.02611593 -0.059798401 0.050936799
-0.02611593 -0.059798401 0.050936799
-0.02611593 -0.059798401 0.050936799
-0.02611593 -0.059798401 0.050936799
-0.02611593 -0.059798401 0.050936799
-0.02611593 -0.059798401 0.050936799
-0.02611593 -0.059798401 0.050936799
-0.059646778 -0.025079241 -0.036837135
-0.02611593 -0.059798401 0.050936799
-0.02611593 -0.059798401 0.050936799
-0.02611593 -0.059798401 0.050936799
-0.02611593 -0.059798401 0.050936799
-0.02611593 -0.059798401 0.050936799
-0.02611593 -0.059798401 0.050936799
-0.02611593 -0.059798401 0.050936799
-0.063627325 -0.025082974 -0.035762306
-0.02611593 -0.059798401 0.050936799
-0.02611593 -0.059798401 0.050936799
-0.02611593 -0.059798401 0.050936799
-0.02611593 -0.059798401 0.050936799
-0.02611593 -0.059798401 0.050936799
-0.02611593 -0.059798401 0.050936799
-0.02611593 -0.059798401 0.050936799
-0.067607865 -0.025086708 -0.034687486
-0.02611593 -0.059798401 0.050936799
-0.02611593 -0.059798401 0.050936799
-0.02611593 -0.059798401 0.050936799
-0.02611593 -0.059798401 0.050936799
-0.02611593 -0.059798401 0.050936799
-0.02611593 -0.059798401 0.050936799
-0.072539926 -0.027140781 -0.030630916
-0.072621748 -0.024050843 -0.035575174
-0.02611593 -0.059798401 0.050936799
-0.02611593 -0.059798401 0.050936799
-0.02611593 -0.059798401 0.050936799
-0.02611593 -0.059798401 0.050936799
-0.02611593 -0.059798401 0.050936799
-0.02611593 -0.059798401 0.050936799
-0.077520289 -0.027140925 -0.029537313
-0.076568782 -0.025090586 -0.032519054
-0.02611593 -0.059798401 0.050936799
-0.08350046 -0.027137481 -0.0284249
-0.02611593 -0.059798401 0.050936799
-0.02611593 -0.059798401 0.050936799
-0.02611593 -0.059798401 0.050936799
-0.02611593 -0.059798401 0.050936799
-0.083530053 -0.025101639 -0.030388184
-0.082597263 -0.023033217 -0.034369588
-0.02611593 -0.059798401 0.050936799
-0.088495627 -0.026119705 -0.028312929
-0.02611593 -0.059798401 0.050936799
-0.02611593 -0.059798401 0.050936799
-0.079522938 -0.023116339 -0.030427307
-0.02611593 -0.059798401 0.050936799
-0.087473154 -0.025141552 -0.027314045
-0.085521832 -0.023094807 -0.030314565
-0.02611593 -0.059798401 0.050936799
-0.095509142 -0.025076663 -0.029163048
-0.02611593 -0.059798401 0.050936799
-0.02611593 -0.059798401 0.050936799
-0.082488865 -0.024141576 -0.028389636
-0.02611593 -0.059798401 0.050936799
-0.093486845 -0.024102099 -0.028182942
-0.093568675 -0.021012165 -0.033127196
-0.02611593 -0.059798401 0.050936799
-0.1025 -0.023051882 -0.028995473
-0.02611593 -0.059798401 0.050936799
-0.02611593 -0.059798401 0.050936799
-0.08848384 -0.023120217 -0.028258875
-0.02611593 -0.059798401 0.050936799
-0.10047771 -0.022077318 -0.028015368
-0.099548861 -0.021008722 -0.032014795
-0.02611593 -0.059798401 0.050936799
-0.10644311 -0.023091793 -0.025921326
-0.02611593 -0.059798401 0.050936799
-0.02611593 -0.059798401 0.050936799
-0.091408402 -0.023181805 -0.024203859
-0.02611593 -0.059798401 0.050936799
-0.10647269 -0.021055955 -0.027884606
-0.1085916 -0.017922664 -0.034790602
-0.02611593 -0.059798401 0.050936799
-0.11544839 -0.020041917 -0.026697818
-0.02611593 -0.059798401 0.050936799
-0.02611593 -0.059798401 0.050936799
-0.099455245 -0.021099167 -0.027016483
-0.02611593 -0.059798401 0.050936799
-0.1164778 -0.018002488 -0.028642315
-0.11251598 -0.017980665 -0.030716795
-0.02611593 -0.059798401 0.050936799
-0.12848647 -0.015941672 -0.029380441
-0.02611593 -0.059798401 0.050936799
-0.02611593 -0.059798401 0.050936799
-0.1054315 -0.020095894 -0.025886063
-0.02611593 -0.059798401 0.050936799
-0.12345387 -0.016995624 -0.027493093
-0.12355834 -0.014887429 -0.033455029
-0.02611593 -0.059798401 0.050936799
-0.13849157 -0.012888201 -0.03013815
-0.02611593 -0.059798401 0.050936799
-0.02611593 -0.059798401 0.050936799
-0.11344091 -0.018049434 -0.02669936
-0.02611593 -0.059798401 0.050936799
-0.13142583 -0.01498534 -0.026307076
-0.13051569 -0.013898657 -0.031306159
-0.02611593 -0.059798401 0.050936799
-0.14846317 -0.010870743 -0.028914537
-0.02611593 -0.059798401 0.050936799
-0.02611593 -0.059798401 0.050936799
-0.12041697 -0.017042568 -0.025550149
-0.02611593 -0.059798401 0.050936799
-0.14951131 -0.0088132294 -0.031858705
-0.13746911 -0.011910052 -0.029139254
-0.02611593 -0.059798401 0.050936799
-0.15739749 -0.0088930521 -0.025710411
-0.02611593 -0.059798401 0.050936799
-0.02611593 -0.059798401 0.050936799
-0.13547342 -0.012917057 -0.029194854
-0.02611593 -0.059798401 0.050936799
-0.1564312 -0.0078606289 -0.027710509
-0.15047367 -0.0088458182 -0.029840589
-0.02611593 -0.059798401 0.050936799
-0.17037942 -0.0048470739 -0.02539406
-0.02611593 -0.059798401 0.050936799
-0.02611593 -0.059798401 0.050936799
-0.14342664 -0.010924865 -0.027009171
-0.02611593 -0.059798401 0.050936799
-0.16737996 -0.0048578405 -0.025450431
-0.15942672 -0.0068500349 -0.027636118
-0.02611593 -0.059798401 0.050936799
-0.18937109 0.001238185 -0.025928587
-0.02611593 -0.059798401 0.050936799
-0.02611593 -0.059798401 0.050936799
-0.1513838 -0.0099325022 -0.024841513
-0.02611593 -0.059798401 0.050936799
-0.18034707 -0.0018297815 -0.024152439
-0.17440827 -0.0027968823 -0.027282186
-0.02611593 -0.059798401 0.050936799
-0.21034369 0.0073125251 -0.025425874
-0.02611593 -0.059798401 0.050936799
-0.02611593 -0.059798401 0.050936799
-0.14822763 -0.013105558 -0.01595499
-0.02611593 -0.059798401 0.050936799
-0.20838149 0.0073415255 -0.027462773
-0.1954183 0.0033136434 -0.028778791
-0.02611593 -0.059798401 0.050936799
-0.23732211 0.016425991 -0.025756031
-0.02611593 -0.059798401 0.050936799
-0.02611593 -0.059798401 0.050936799
-0.17228934 -0.0059301713 -0.020376191
-0.02611593 -0.059798401 0.050936799
-0.23434532 0.015433483 -0.026830073
-0.21739072 0.0093915835 -0.028257288
-0.02611593 -0.059798401 0.050936799
-0.2652629 0.025506862 -0.024068065
-0.02611593 -0.059798401 0.050936799
-0.02611593 -0.059798401 0.050936799
-0.2013423 0.0032628204 -0.024667405
-0.02611593 -0.059798401 0.050936799
-0.26833725 0.025589984 -0.028010346
-0.24537289 0.017508801 -0.028586671
-0.02611593 -0.059798401 0.050936799
-0.97481132 0.2745122 -0.20033893
-0.02611593 -0.059798401 0.050936799
-0.02611593 -0.059798401 0.050936799
-0.233376 0.012448491 -0.027902585
-0.98542696 0.27618954 -0.18010294
-0.97403717 0.26970842 -0.21144408
-0.26124191 0.021457011 -0.022215981
-0.02611593 -0.059798401 0.050936799
-1.0000567 0.27889916 -0.16077349
-0.98465669 0.27038595 -0.19122612
-0.02611593 -0.059798401 0.050936799
-0.26132467 0.019529704 -0.026250653
-1.0066583 0.27954426 -0.13963105
-0.99627221 0.27206689 -0.17097139
-0.97786188 0.26152515 -0.20051679
-0.02611593 -0.059798401 0.050936799
-1.0162516 0.28219977 -0.11839622
-1.0088875 0.27375147 -0.15069784
-0.99149573 0.2632314 -0.18122414
-0.97310805 0.25170788 -0.21178722
-1.0288442 0.28486601 -0.097104974
-1.0134748 0.27337143 -0.12861134
-0.99608684 0.26185155 -0.15915564
-0.97570336 0.24932101 -0.1897743
-1.0414557 0.28755039 -0.07681343
-1.0200576 0.27399841 -0.10646926
-1.0136973 0.26455384 -0.13877013
-0.99333656 0.25104159 -0.17040649
-1.0470198 0.28815573 -0.053690456
-1.0376642 0.27770054 -0.086065724
-1.0152742 0.26214531 -0.11577638
-1.0019269 0.24967611 -0.14826286
-1.0696099 0.2958751 -0.033120915
-1.0392371 0.27629188 -0.063053966
-1.0298852 0.26483685 -0.095447257
-1.0125278 0.25033554 -0.12704526
-1.0731786 0.29547343 -0.010053545
-1.0538294 0.27896529 -0.041725166
-1.0414672 0.2654818 -0.073211193
-1.0271279 0.25100932 -0.10575248
-1.0767394 0.2970714 0.013049856
-1.0703946 0.28362751 -0.019323088
-1.0590549 0.26916587 -0.051808015
-1.0317003 0.24961141 -0.082684353
-1.0932859 0.30171552 0.036451593
-1.0869639 0.28728992 0.0030609667
-1.0666189 0.26977834 -0.02864746
-1.0462779 0.25126696 -0.060373917
-1.115801 0.30936256 0.061019793
-1.0915098 0.28787351 0.027164802
-1.0731684 0.2693693 -0.0045240596
-1.0528498 0.24987617 -0.037268184
-1.124357 0.31197828 0.084235162
-1.106042 0.29149252 0.051510602
-1.0827321 0.26998898 0.018674072
-1.0714227 0.25254592 -0.014864564
-1.1488528 0.31961444 0.1098406
-1.1275651 0.29713634 0.076023966
-1.1032591 0.27462938 0.043150622
-1.0909541 0.25618288 0.0095751882
-1.1773177 0.33024633 0.13657492
-1.156075 0.30580473 0.10072292
-1.1287775 0.28128737 0.067757182
-1.1064938 0.25780582 0.033903729
-0.02611593 -0.059798401 0.050936799
-1.1665745 0.30837342 0.12697487
-1.1512816 0.28691664 0.093289003
-1.1270022 0.26242808 0.059379958
-1.2182213 0.34439963 0.19261576
-1.1870377 0.31495917 0.15448645
-1.1558126 0.28648236 0.11837448
-1.1485332 0.26607227 0.083857283
-1.2296752 0.34893534 0.22092184
-1.2044866 0.32051623 0.1829233
-1.1872473 0.29508919 0.14712846
-0.02611593 -0.059798401 0.050936799
-1.2570463 0.3594732 0.25263569
-1.2259121 0.3270694 0.21245299
-1.2056811 0.29963195 0.17656574
-1.1884646 0.27322316 0.13975321
-1.2853987 0.36999655 0.28536797
-1.2453192 0.33359733 0.24294475
-1.2291064 0.30619231 0.20613301
-0.02611593 -0.059798401 0.050936799
-1.302765 0.37748095 0.3178395
-1.2706652 0.34109238 0.27656627
-1.2375351 0.30768162 0.23632801
-1.2402617 0.28530771 0.20196268
-1.2823201 0.37195781 0.34236512
-1.2840588 0.3465808 0.30792695
-1.269872 0.31720141 0.27011707
-1.2367458 0.28279078 0.22986078
-1.3354454 0.39138845 0.38572595
-1.3163354 0.35704619 0.34473306
-1.2842544 0.3206757 0.30246019
-1.2670723 0.29028568 0.2645759
-1.3408443 0.39584836 0.41691828
-1.3286916 0.36249486 0.37807423
-1.3264614 0.33412215 0.34250718
-1.2475938 0.28373009 0.29110163
-2.049463 0.64424402 0.66276205
-1.3251306 0.36194143 0.40800768
-1.3089787 0.32857358 0.36908853
-0.02611593 -0.059798401 0.050936799
-2.0505257 0.64836401 0.71187317
-2.1937919 0.64614904 0.69951123
-1.3521105 0.34195131 0.41315299
-0.02611593 -0.059798401 0.050936799
-2.0307319 0.64551824 0.75446552
-2.1927691 0.64817178 0.75354695
-2.3738513 0.65294725 0.75002253
-1.3115115 0.29902855 0.39961183
-2.0169106 0.64467567 0.79820633
-2.1887658 0.65020168 0.80652666
-2.3796921 0.65586829 0.81120545
-2.5738263 0.65171009 0.80676341
-2.0070243 0.64579296 0.84505737
-2.166924 0.64529496 0.85204446
-2.3616774 0.65181285 0.86581331
-2.5924473 0.65747827 0.87924099
-1.987249 0.64296532 0.88665009
-2.152009 0.6443584 0.9007647
-2.350631 0.65076399 0.92160642
-2.5792775 0.65429592 0.94195807
-1.9635124 0.64015955 0.9261682
-2.1360984 0.64241827 0.94944829
-2.3405468 0.64968252 0.97941762
-2.5690851 0.65210605 1.0057492
-1.9466915 0.63930619 0.96985269
-2.1260998 0.64342695 1.0022972
-2.3225279 0.64662689 1.0340436
-2.5618131 0.65085447 1.0736135
-1.9308665 0.63945627 1.0135739
-2.0982969 0.63853484 1.0457029
-2.309459 0.64655268 1.0908167
-2.54564 0.64866126 1.1362922
-1.9091067 0.63763946 1.0541474
-2.0972061 0.64350271 1.1027917
-2.2923987 0.64446425 1.1474787
-2.530411 0.64641726 1.2019887
-1.8962358 0.63976383 1.0999604
-2.077292 0.64254814 1.1514181
-2.2763343 0.64337939 1.2041776
-2.5231161 0.64614749 1.2708707
-1.8714993 0.63695437 1.1394598
-2.0494661 0.63863778 1.1958414
-2.2572892 0.64230174 1.2598203
-2.4979675 0.64294016 1.3323627
-1.8359073 0.63123268 1.171701
-2.0295711 0.63770133 1.243468
-2.2303092 0.63925016 1.3122778
-2.4876509 0.64364129 1.4022059
-1.8230366 0.63335705 1.2175139
-2.0066762 0.6367541 1.2910385
-2.2082875 0.63718003 1.3668466
-2.4516098 0.63748538 1.4584388
-1.7963151 0.63155842 1.2559941
-1.9798466 0.63384706 1.3354987
-2.1842656 0.63510281 1.4213778
-2.4303777 0.63621974 1.5240406
-1.7696164 0.62877804 1.2934567
-1.954971 0.63291079 1.3820317
-2.1641793 0.63498521 1.479019
-2.4130659 0.63589591 1.5937343
-1.7527461 0.63088804 1.3391944
-1.9251603 0.63001114 1.4254358
-2.1282799 0.63097376 1.5272908
-2.3868761 0.63364863 1.6572248
-1.7211044 0.62814397 1.373564
-1.8953497 0.62711143 1.46884
-2.1032734 0.62991083 1.5808215
-2.3695195 0.6352883 1.7289538
-1.6944016 0.62636346 1.4110446
-1.8724284 0.62814581 1.517446
-2.0742714 0.62783372 1.634259
-2.3196344 0.62822711 1.7769083
-1.6598203 0.62266308 1.4423409
-1.8436137 0.62624955 1.5608871
-2.0442846 0.62677091 1.6866962
-2.2904227 0.6269508 1.8413601
-1.6390073 0.62481296 1.4850044
-1.8108183 0.62435704 1.603253
-2.0103393 0.62473011 1.7370408
-2.256253 0.62469298 1.9037006
-1.6063883 0.62108356 1.5183376
-1.7918136 0.62733299 1.655969
-1.9753989 0.62168586 1.7873486
-2.2201216 0.62246406 1.9640043
-1.5737654 0.61835414 1.5516887
-1.763916 0.62736762 1.7034633
-1.8648701 0.59261799 1.7667464
-1.8853917 0.52595448 1.7519196
-1.5411386 0.61662441 1.5850579
-1.7144322 0.61868674 1.730389
-1.815266 0.58582819 1.7997059
-1.8327546 0.51811779 1.7868042
-1.5065722 0.61394191 1.6153724
-1.6796706 0.61782306 1.7707362
-1.8685799 0.61656344 1.9373068
-1.9125345 0.55446053 1.9520112
-1.4817826 0.61509573 1.6569433
-1.6400156 0.61403239 1.8059372
-1.8257904 0.61363518 1.9794669
-2.0508728 0.61071259 2.1906996
-1.443277 0.61145329 1.6841657
-1.6052167 0.61313254 1.8482838
-1.7839445 0.61065632 2.0246449
-2.0097342 0.61046547 2.2509456
-1.4086919 0.60875285 1.71548
-1.567516 0.61131257 1.8855575
-1.7440341 0.60962999 2.0728955
-1.9617395 0.60732031 2.304008
-1.3799777 0.60996461 1.752977
-1.5278383 0.60850352 1.9217761
-1.7002221 0.60767996 2.1160545
-1.9166429 0.60609514 2.3621612
-1.3434118 0.60727507 1.783254
-1.4851985 0.60572004 1.9559391
-1.6583349 0.60566467 2.16325
-1.8578682 0.60010999 2.4039667
-1.3088002 0.60655606 1.815604
-1.4503957 0.60582006 1.9983037
-1.6135044 0.60369289 2.2073898
-1.8088285 0.59892476 2.4590456
-1.2761469 0.60680795 1.8500088
-1.4087518 0.60403997 2.0325031
-1.5628287 0.6008445 2.2434015
-1.7588077 0.597754 2.5131063
-1.2425125 0.60707426 1.8833952
-1.3680891 0.60224539 2.0677214
-1.5228356 0.60174543 2.295687
-1.703904 0.59567398 2.5610573
-1.204003 0.60443181 1.9106357
-1.3138082 0.59474528 2.0835748
-1.4770014 0.60076988 2.3398261
-1.6480007 0.59359044 2.6089892
-1.1654708 0.60277098 1.9388937
-1.2866395 0.60154712 2.1442096
-1.4253446 0.59793603 2.3748198
-1.5949953 0.59342682 2.6620116
-1.1298367 0.60303015 1.9722425
-1.2410939 0.59884328 2.1733179
-1.371688 0.59509498 2.4097755
-1.5312697 0.58947766 2.7007601
-1.0884067 0.59944934 1.9954098
-1.1935674 0.5961504 2.2013888
-1.3248086 0.59607935 2.4559312
-1.4734042 0.58742309 2.746655
-1.0508105 0.59973758 2.026722
-1.1479805 0.59441018 2.2325146
-1.26925 0.59232175 2.4858332
-1.4144747 0.58731031 2.7955663
-1.0131954 0.60000765 2.0590334
-1.1052313 0.59553558 2.2717478
-1.2137064 0.58958197 2.5147533
-1.3546242 0.58626646 2.8404422
-0.97173882 0.59840846 2.0832367
-1.0587008 0.59384602 2.2998557
-1.1628463 0.59057009 2.5598342
-1.2870491 0.58244771 2.8711183
-0.92738414 0.59488928 2.102349
-1.0101517 0.59213126 2.3289254
-1.106284 0.58780873 2.5897357
-1.2174932 0.57863975 2.9007571
-0.88976526 0.59615916 2.1346786
-0.9626025 0.59042013 2.3580141
-1.0144289 0.56347412 2.5325563
-0.98418349 0.48279268 2.5075221
-0.84536928 0.59360373 2.1558082
-0.91492933 0.59159982 2.3931549
-0.92274642 0.53830248 2.466362
-0.88962853 0.45873672 2.4342918
-0.80476964 0.59488088 2.1870818
-0.86633903 0.59084874 2.4242423
-0.83799851 0.51510131 2.4033341
-0.80671471 0.43939736 2.3793707
-0.76321143 0.59519094 2.2163191
-0.79511952 0.57226294 2.3855593
-0.76101255 0.49471128 2.3525066
-0.72775495 0.42203581 2.3265605
-0.71781182 0.59363163 2.2374482
-0.72117448 0.55092001 2.3327708
-0.68423671 0.47352046 2.2906651
-0.65100855 0.40288085 2.2627554
-0.67431021 0.59398878 2.263649
-0.65116864 0.53053707 2.2830749
-0.61333942 0.45424229 2.2349701
-0.58096439 0.38747895 2.214149
-0.62141138 0.58485425 2.2594919
-0.58331621 0.50930613 2.2254009
-0.54914039 0.43971708 2.1944916
-0.51579905 0.3739861 2.1716704
-0.55934399 0.5654456 2.2129631
-0.5212034 0.49186093 2.180907
-0.48696372 0.42421719 2.1530333
-0.45176855 0.3596237 2.1221952
-0.50021988 0.54599345 2.1694896
-0.46199268 0.47533584 2.1414864
-0.42777857 0.4107278 2.1116667
-0.3915984 0.3471486 2.0798285
-0.44501227 0.52848297 2.1301258
-0.40585226 0.45989382 2.098141
-0.37157419 0.39723113 2.0713568
-0.33622834 0.33751008 2.0476067
-0.39078185 0.51195771 2.0917985
-0.35159528 0.44535017 2.0608494
-0.31729063 0.38466907 2.0351009
-0.28468114 0.32972279 2.0244927
-0.33954695 0.49644315 2.0535457
-0.30217579 0.43367928 2.0317032
-0.27029225 0.38148281 2.0351632
-0.24168384 0.33663005 2.0758302
-0.29117256 0.48281232 2.0223827
-0.25888017 0.4342353 2.0469079
-0.23013285 0.39125559 2.0946083
-0.19746506 0.34733409 2.138217
-0.25150084 0.48803821 2.0567465
-0.21869808 0.44498992 2.1073706
-0.18683504 0.40289071 2.1610308
-0.15195775 0.35976285 2.215616
-0.21343468 0.49790859 2.1112306
-0.176475 0.45670089 2.1698129
-0.14053781 0.41451502 2.2273965
-0.13329387 0.55253297 3.225096
-0.17220746 0.51062304 2.1737099
-0.13283929 0.47302765 2.2533197
-0.10987368 0.56383646 2.9257603
-0.056278367 0.55022079 3.2256122
-0.13106781 0.53550684 2.2824266
-0.092880577 0.56758749 2.6584196
-0.042860277 0.56056029 2.9264464
0.020815954 0.54883605 3.2301455
-0.086696997 0.57725883 2.453409
-0.034745343 0.56623477 2.6653087
0.023258703 0.56019682 2.9322038
0.095955938 0.54942197 3.2367513
-0.03542548 0.5768044 2.4674459
0.024408443 0.56486034 2.6731791
0.090294756 0.55790246 2.933908
0.17290047 0.54818201 3.2332871
0.017627928 0.57354236 2.4703944
0.082645148 0.56541687 2.6851029
0.15845083 0.55749559 2.9416273
0.2497662 0.54601455 3.2258062
0.06990318 0.57408422 2.4844303
0.1426411 0.56218398 2.6849213
0.2253558 0.55532783 2.9363337
0.32686839 0.54662949 3.2303753
0.12297924 0.57180393 2.4883966
0.2038812 0.56372952 2.6968064
0.29443678 0.55498976 2.9400353
0.40365916 0.54453433 3.2188957
0.17707777 0.57050174 2.4933619
0.26491833 0.56145668 2.6986232
-0.02611593 -0.059798401 0.050936799
-0.02611593 -0.059798401 0.050936799
0.23231502 0.571069 2.505342
-0.02611593 -0.059798401 0.050936799
0.15423588 0.18296814 1.1923383
0.55423057 0.54237264 3.1950293
0.28631207 0.56785762 2.5052729
0.15017322 0.20512345 1.1848127
0.50047791 0.55517793 2.9401813
0.26281631 0.20524894 1.4307894
-0.02611593 -0.059798401 0.050936799
0.44795188 0.55872792 2.699147
0.25999087 0.23520032 1.4343853
0.70457327 0.53942817 3.1591492
0.39869261 0.56907547 2.5241973
0.25631928 0.26601043 1.4460154
0.63490939 0.55020076 2.9095638
0.78252941 0.54118407 3.1557205
0.45465583 0.56689286 2.5221093
0.28827205 0.26493195 1.4433967
0.7049005 0.55094939 2.9082665
0.85823464 0.54118264 3.1392972
0.27634287 0.29200655 1.4421092
0.63707495 0.55990452 2.7036293
0.77048737 0.54909265 2.8859975
0.92755479 0.53856504 3.1029398
0.57188177 0.56723773 2.5329242
0.69778991 0.55693942 2.6884334
0.83820492 0.54710221 2.8706884
1.0043013 0.53952366 3.0885155
0.62667263 0.56422174 2.5218401
0.75746757 0.55401397 2.6712573
0.90700907 0.54803532 2.8594131
1.0778944 0.53963792 3.0661318
0.6835795 0.56208986 2.5167346
0.82144105 0.55480224 2.6690731
0.97261465 0.54616064 2.8381436
-0.02611593 -0.059798401 0.050936799
0.74254996 0.56189615 2.5146265
0.8852796 0.5547173 2.6598732
-0.02611593 -0.059798401 0.050936799
0.49195093 0.18907844 1.2791555
0.79938585 0.56083643 2.5055399
0.94282258 0.55092579 2.6357193
0.38870963 0.16243669 1.059532
-0.02611593 -0.059798401 0.050936799
0.85933346 0.55965751 2.5023952
-0.02611593 -0.059798401 0.050936799
0.52242982 0.21660422 1.2990896
1.3637971 0.53957623 2.9517391
-0.02611593 -0.059798401 0.050936799
0.50643647 0.23673064 1.2957518
1.2360191 0.54369336 2.751138
1.4248753 0.53722245 2.9025366
0.38566339 0.19360499 1.05115
0.54153544 0.23951405 1.3001465
1.3036134 0.5438292 2.7288675
1.4942821 0.53753197 2.8702316
0.52369213 0.25950289 1.3048439
1.1989931 0.551763 2.5889225
1.3722717 0.54590678 2.7096131
1.5574801 0.53706229 2.8270249
1.0987574 0.55730307 2.4698589
1.2658017 0.55370313 2.5777028
1.4305376 0.54338294 2.6704631
1.6278906 0.53836805 2.7947195
1.1616788 0.55914891 2.4647124
1.3263519 0.55190057 2.5535283
1.4991584 0.54549676 2.6492095
1.69007 0.53791988 2.7505324
1.2172036 0.55538267 2.4395962
1.385869 0.55113763 2.5273912
1.5636224 0.54576999 2.6199975
1.7491752 0.53755498 2.7024028
1.2821021 0.55623978 2.4333947
1.4463632 0.54938936 2.5002177
1.6229107 0.54422426 2.5818465
1.8133956 0.53806335 2.6601954
1.3417689 0.55533206 2.4152548
1.5079398 0.54956484 2.4770603
1.6883409 0.5455299 2.5506346
1.873542 0.53865844 2.6140645
1.4065737 0.55627954 2.4040549
1.5715163 0.54973304 2.4538653
1.7507304 0.5458827 2.5174615
1.9326886 0.53925711 2.5679524
1.4713222 0.55728126 2.3898559
1.6401972 0.55279243 2.4356284
1.8028327 0.54454291 2.4694457
1.9907603 0.53993171 2.5178602
1.5309104 0.55544609 2.3676996
1.6955198 0.55022508 2.3995337
1.8734009 0.54770368 2.4451735
2.045814 0.54063523 2.4668248
1.5904274 0.55468315 2.3415625
1.7580068 0.55148733 2.3713775
1.9305812 0.54727352 2.4010801
2.0957484 0.53946549 2.4098496
1.6489406 0.55292404 2.3154261
1.8194524 0.55178928 2.341222
1.9744902 0.5441438 2.3431818
2.1518245 0.54114711 2.3598132
1.7166551 0.55495095 2.2991898
1.8726443 0.5493558 2.2981675
2.0316932 0.54469532 2.3001063
2.2048223 0.54191208 2.3058164
1.7751123 0.55324608 2.2700543
1.9381347 0.55160695 2.2699726
2.0817585 0.54339904 2.2501283
2.250705 0.54181081 2.2459352
1.8386551 0.55445033 2.2448783
1.9933903 0.55111164 2.2299156
2.1430435 0.54586357 2.2110121
2.3098445 0.54542702 2.1988773
1.9021567 0.55469096 2.2176843
2.0455451 0.5487178 2.1848805
2.2063508 0.54930264 2.1728764
2.3567498 0.54630393 2.1399951
1.9595015 0.55309814 2.18257
2.1058824 0.55013186 2.1487641
2.2492452 0.54719436 2.1140151
2.3975775 0.5462749 2.0772088
2.027025 0.55430621 2.1563187
2.1641603 0.55060744 2.1096685
2.2982774 0.5469377 2.0620749
2.4435019 0.54713732 2.019345
2.0802546 0.55183649 2.1152635
2.2122262 0.54931831 2.0597284
2.3585103 0.55045986 2.0199966
2.4843333 0.5481081 1.9565768
2.1385658 0.55127609 2.0781488
2.2765665 0.55171782 2.0235546
2.4085274 0.55121744 1.9670559
2.5201054 0.54815125 1.8908857
2.205018 0.5535599 2.047936
2.3347735 0.55326569 1.9804784
2.4473889 0.55015963 1.9062886
2.5670562 0.55099159 1.8340387
2.2642732 0.55305022 2.0078037
2.3909431 0.5548569 1.9354402
2.5004506 0.55286986 1.8553269
2.6048508 0.55200934 1.7693275
2.3204725 0.55260551 1.9647288
2.4450343 0.55552775 1.8864231
2.5474348 0.55467433 1.8004612
2.6447053 0.55396545 1.7075958
2.3888273 0.55397278 1.9294617
2.4961073 0.55622751 1.8364625
2.5953999 0.55649322 1.7445772
2.6815412 0.5559504 1.6449207
2.4470115 0.55453885 1.8853676
2.5441022 0.55601054 1.7825418
2.6383061 0.55738443 1.68577
2.7132995 0.55702585 1.5783231
2.5031545 0.55414838 1.8392938
2.6052787 0.55958343 1.7374457
2.6741343 0.55737329 1.6230778
2.7460804 0.55907947 1.5127242
2.5704195 0.55660951 1.7990654
2.6491954 0.55845332 1.6795834
2.7160258 0.55928612 1.5633079
2.774843 0.56116551 1.4462008
2.6356106 0.55915016 1.7548758
2.6981606 0.56026858 1.6236805
2.7579172 0.56119883 1.5035378
2.8005421 0.56131691 1.376699
2.6936822 0.55982482 1.7047838
2.7511623 0.56203336 1.5697019
2.7947309 0.5622021 1.4398451
2.8232646 0.56246084 1.3082711
2.7567945 0.56144506 1.6566151
2.7930272 0.56196451 1.508896
2.8295262 0.56323057 1.3751904
2.8540497 0.56552148 1.2427278
2.8057103 0.56029701 1.5986588
2.840955 0.56381959 1.4510127
2.8603032 0.56429154 1.3096111
2.8727129 0.56573415 1.171358
2.8606703 0.56109101 1.5426253
2.8918674 0.56668174 1.3920913
2.8971021 0.56631267 1.2449367
2.9004798 0.56882358 1.1048714
2.919652 0.56285232 1.4875342
2.9306767 0.56667805 1.3283429
2.9177797 0.56550032 1.1745111
2.9201877 0.57099622 1.0355182
2.9664934 0.56178379 1.425617
2.9724894 0.56766331 1.2645564
2.9546008 0.5685032 1.1108544
2.9368739 0.57219785 0.96520376
3.0193601 0.5626753 1.3646225
3.0143058 0.56964844 1.2007879
2.9893665 0.57156754 1.0442363
2.9485424 0.57343554 0.8939836
3.0712085 0.56358856 1.3026474
3.0520442 0.57072037 1.1330776
3.0160923 0.57369685 0.97575134
2.9642513 0.5756225 0.82470554
3.1290784 0.56546193 1.241577
3.091805 0.57276696 1.0663477
3.0417993 0.57584798 0.90628535
2.9849856 0.57977307 0.75636923
3.1808555 0.56744736 1.1756212
3.1234841 0.57291496 0.9957332
3.0644841 0.5770281 0.83585805
2.993655 0.58102149 0.6852054
3.23261 0.56845105 1.1086476
3.156209 0.57502276 0.92713541
3.0801518 0.57825136 0.76456273
3.0043645 0.58322644 0.61602134
3.2733068 0.56854862 1.0388638
3.1828332 0.575243 0.853616
3.1008413 0.58043849 0.6941911
3.0080159 0.58451092 0.54395175
3.3129473 0.56870401 0.96609974
3.2235415 0.57834011 0.78388625
3.1154675 0.58070171 0.62089711
3.0106859 0.58578086 0.47290063
3.3636124 0.57080156 0.89416468
3.2491698 0.57956368 0.71040362
3.1270986 0.58197558 0.54767764
3.0243988 0.58897477 0.40367821
3.4072409 0.57296044 0.82036197
3.2828007 0.58175838 0.63678873
3.1397479 0.58322775 0.47543892
3.0160668 0.58928448 0.33281577
3.4468069 0.57318819 0.74359924
3.3134131 0.58398199 0.56223047
3.1534009 0.58547616 0.40319949
3.0237625 0.59251803 0.2627064
3.5054262 0.57831073 0.66856897
3.3319864 0.58528495 0.48588043
3.1710384 0.58872819 0.32990322
3.0224519 0.59378421 0.19273016
3.5278931 0.57669038 0.58709145
3.351541 0.58660245 0.40851197
3.1826732 0.59100181 0.25670174
3.0141389 0.59407574 0.12286738
3.5553489 0.57706976 0.50455624
3.3720767 0.58793443 0.33012497
3.1922898 0.59330076 0.18253814
3.00383 0.59537429 0.053060222
3.6108751 0.58229351 0.42458403
3.3896129 0.58927721 0.2517944
3.1858785 0.59267575 0.10762146
2.9535487 0.58776373 -0.013158495
3.638293 0.58270913 0.34004954
3.4051349 0.59164506 0.17251974
3.194499 0.59597808 0.033494674
2.9282646 0.58508056 -0.080756553
3.6716993 0.58512092 0.2544387
3.4456487 0.59794062 0.091847755
2.9310434 0.54417568 -0.031531818
1.290498 0.22867349 -0.037525557
-0.02611593 -0.059798401 0.050936799
3.4231124 0.5934822 0.011161701
2.9657538 0.55231154 -0.10205843
2.7199132 0.54697937 -0.19658414
-0.02611593 -0.059798401 0.050936799
2.9475234 0.50346541 -0.051583573
2.6985791 0.50025213 -0.15201484
2.6618171 0.53821683 -0.25267392
2.9523745 0.45244658 0.0034213606
2.8882098 0.49190578 -0.11870492
2.7413747 0.5112865 -0.21863906
2.4789522 0.50159997 -0.28992519
