# .PCD v0.7 - Point Cloud Data file format
VERSION 0.7
FIELDS x y z
SIZE 4 4 4
TYPE F F F
COUNT 1 1 1
WIDTH 1380
HEIGHT 1
VIEWPOINT 0 0 0 1 0 0 0
POINTS 1380
DATA ascii
1.1267353 0.5911088 0.8654027
1.2194231 0.59310883 0.90071541
1.3139369 0.58924741 0.92788517
1.0637622 0.59428978 0.8136217
1.1483124 0.59444541 0.84205115
1.2398988 0.59453982 0.87234837
1.3312972 0.58979785 0.89355856
1.0905039 0.60146302 0.79824549
1.1597556 0.59192741 0.81278139
1.255293 0.59406137 0.84004056
1.3496797 0.59132648 0.86023068
1.1009808 0.59791255 0.77097589
1.1762656 0.59233677 0.78647077
1.2727318 0.59553933 0.80973053
1.3690661 0.59385127 0.82690215
1.122618 0.60219479 0.75064141
1.1927569 0.59276414 0.75916046
1.2861263 0.59506804 0.77746028
1.3813632 0.59247428 0.78963435
1.1300579 0.59869128 0.72142887
1.2072526 0.59419858 0.73190576
1.3045876 0.59752411 0.74814904
1.3967274 0.59403169 0.75536323
1.1557585 0.60490447 0.70405412
1.2217257 0.59465128 0.70363337
1.31496 0.59608191 0.71491754
1.413077 0.59660345 0.72009176
1.1591498 0.59845209 0.67286336
1.2362174 0.5950858 0.67636073
1.3374698 0.60148692 0.68758458
1.4213747 0.59524077 0.68289912
1.1817946 0.60473031 0.65254605
1.2496719 0.59556013 0.64710748
1.339757 0.59714627 0.65045065
1.4377469 0.59879428 0.64864516
1.1872309 0.60023421 0.62335306
1.2621453 0.59601998 0.61887264
1.3562 0.59962767 0.62017745
1.4430264 0.59746045 0.61050934
1.2078122 0.6045742 0.60003829
1.279667 0.5994252 0.59259737
1.3685837 0.60117775 0.5869624
1.4503096 0.59711933 0.5723539
1.2112302 0.60010332 0.56988317
1.2830328 0.59600842 0.55946136
1.3719158 0.59879702 0.55184501
1.4616412 0.59972715 0.53617656
1.2409269 0.61031961 0.5515058
1.2934877 0.59649354 0.53026444
1.375248 0.59641629 0.51672763
1.4709693 0.60134226 0.50001895
1.2372781 0.60292864 0.51842922
1.3119946 0.60091311 0.50298864
1.3836286 0.59698093 0.48356974
1.4732493 0.60001916 0.46193939
1.2548374 0.60629773 0.49415317
1.3194314 0.60142702 0.47284845
1.3920131 0.59854549 0.4504298
1.4785556 0.60066694 0.4248392
1.2542373 0.60185933 0.46307355
1.3218199 0.59899563 0.44074887
1.4003975 0.60010993 0.41728991
1.4818621 0.60132188 0.38777658
1.2778299 0.60918802 0.43975651
1.3332599 0.60049504 0.41055155
1.4057598 0.60070336 0.38318866
1.4891758 0.60396218 0.35067484
1.2782521 0.60572773 0.40967581
1.3447266 0.60397601 0.38138998
1.4141482 0.60326767 0.35006678
1.1367134 0.45009008 0.2524572
1.2947781 0.61013639 0.38343728
1.3491226 0.60353714 0.34928885
1.391371 0.59105432 0.31125915
1.1281375 0.44666219 0.22254559
1.2931969 0.60568351 0.35337615
1.3555596 0.60405475 0.31916749
1.1274527 0.46944475 0.23497474
1.1316165 0.44815412 0.19449796
1.3157371 0.61406994 0.32709691
1.2855884 0.56912243 0.27483064
1.1339725 0.47188956 0.20888808
0.88720709 0.3420395 0.14213671
1.3111341 0.60864604 0.29607445
1.1222513 0.48973063 0.22043414
1.0179951 0.41907129 0.16809022
0.77242851 0.29203615 0.11137072
1.2060344 0.55389702 0.24903592
1.1358191 0.49511364 0.19626932
0.75462782 0.29893675 0.12083203
0.75302619 0.28446749 0.091590375
1.1392124 0.51880938 0.21263996
0.96866626 0.41455549 0.15192664
0.73221415 0.28837934 0.101054
0.75367409 0.28580743 0.072596043
0.96901774 0.43228108 0.16724586
0.70735371 0.28934228 0.1085394
0.74692065 0.29563186 0.083904028
0.75933295 0.29012889 0.05356181
0.72768378 0.31203145 0.12157362
0.72410125 0.29755127 0.093369201
0.73756963 0.29199043 0.066007167
0.76703286 0.29540685 0.036507342
0.71634394 0.30637947 0.10467796
0.71877199 0.29487723 0.076414861
0.73723656 0.29331589 0.048031289
0.77367288 0.29974279 0.016454658
0.72204721 0.30764717 0.088588662
0.72747171 0.30015162 0.059341598
0.7369222 0.29462323 0.03105507
0.76432967 0.2981011 -0.001406163
0.72375125 0.30892926 0.072574519
0.728172 0.30043745 0.043328229
0.74159598 0.29793039 0.013021275
0.75097936 0.29447404 -0.019227855
0.72443277 0.30923316 0.055561494
0.73286462 0.30372649 0.026294095
0.73527092 0.29625973 -0.0038962513
0.74363965 0.29382488 -0.037108243
0.72412932 0.30852276 0.039548896
0.73154652 0.3040376 0.009318646
0.73494178 0.29858503 -0.021854118
0.74429554 0.2971645 -0.056066539
0.73184401 0.31278279 0.023476066
0.7412312 0.31032628 -0.0087550469
0.7426042 0.30389914 -0.040907912
0.74993962 0.30250391 -0.076082416
0.73352927 0.31408298 0.0064622685
0.73989433 0.31065547 -0.026730157
0.74726719 0.30922407 -0.059905335
0.75059938 0.30684334 -0.095022678
0.73621827 0.31637937 -0.010552309
0.74258339 0.31295189 -0.043744732
0.74593431 0.31055304 -0.077862427
0.75624347 0.31218272 -0.11503856
0.73688108 0.31670138 -0.028564997
0.74924606 0.31826961 -0.062779725
0.75358194 0.31688511 -0.097897857
0.75488102 0.31554756 -0.13495895
0.74257737 0.32098669 -0.045599908
0.75190151 0.32160202 -0.081775606
0.75323802 0.32022831 -0.11683736
0.65583861 0.27180183 -0.12789352
0.74823236 0.32430834 -0.064652152
0.74858385 0.32192028 -0.098713472
0.75090528 0.32156092 -0.13477567
0.63060188 0.26309207 -0.1385822
0.75090659 0.32762268 -0.082648367
0.75322807 0.3272633 -0.11871055
0.73162311 0.31588337 -0.14852202
0.58447951 0.24431463 -0.14105918
0.75257701 0.32994074 -0.10064381
0.75788713 0.33158836 -0.13772598
0.61866027 0.26308087 -0.13535774
0.21184734 0.059734561 -0.029383507
0.74825561 0.32926279 -0.11758091
0.74656296 0.32993567 -0.15454958
-0.02611593 -0.059798401 0.050936799
0.20476589 0.057832379 -0.033286653
0.76287627 0.3386054 -0.13969314
0.61765748 0.26710185 -0.13626651
0.21384005 0.06274496 -0.030366689
-0.02611593 -0.059798401 0.050936799
0.75256675 0.33593124 -0.15555388
-0.02611593 -0.059798401 0.050936799
-0.02611593 -0.059798401 0.050936799
0.17272069 0.044949435 -0.032919601
0.6166842 0.26908702 -0.13521203
0.20587111 0.06073783 -0.028253078
0.19371867 0.054908544 -0.035133336
-0.02611593 -0.059798401 0.050936799
0.59348059 0.25933403 -0.14395697
-0.02611593 -0.059798401 0.050936799
-0.02611593 -0.059798401 0.050936799
0.14670095 0.034026526 -0.031629581
0.22082096 0.06775517 -0.032407451
0.19372261 0.055908374 -0.035115317
0.16469556 0.042996574 -0.033804961
-0.02611593 -0.059798401 0.050936799
0.19781941 0.056803398 -0.030174155
-0.02611593 -0.059798401 0.050936799
-0.02611593 -0.059798401 0.050936799
0.12370333 0.024074595 -0.029378265
-0.02611593 -0.059798401 0.050936799
0.16369183 0.042000338 -0.033804189
0.14266032 0.033077229 -0.033571754
-0.02611593 -0.059798401 0.050936799
0.17274334 0.045931168 -0.031901915
-0.02611593 -0.059798401 0.050936799
-0.02611593 -0.059798401 0.050936799
0.10471284 0.016107967 -0.027166065
-0.02611593 -0.059798401 0.050936799
0.13967566 0.032070078 -0.03253375
0.12263256 0.02515037 -0.033340093
-0.02611593 -0.059798401 0.050936799
0.15068936 0.03602992 -0.032668374
-0.02611593 -0.059798401 0.050936799
-0.02611593 -0.059798401 0.050936799
0.094665445 0.013180543 -0.029031541
-0.02611593 -0.059798401 0.050936799
0.1196627 0.023125298 -0.031320438
0.10861156 0.019201636 -0.033185139
-0.02611593 -0.059798401 0.050936799
0.13166142 0.028099464 -0.0324555
-0.02611593 -0.059798401 0.050936799
-0.02611593 -0.059798401 0.050936799
0.081666909 0.0082099633 -0.027877696
-0.02611593 -0.059798401 0.050936799
0.10664544 0.018172808 -0.031166252
0.095594294 0.01424914 -0.033030953
-0.02611593 -0.059798401 0.050936799
0.11266699 0.019133015 -0.030261323
-0.02611593 -0.059798401 0.050936799
-0.02611593 -0.059798401 0.050936799
0.072641976 0.0062606838 -0.02874428
-0.02611593 -0.059798401 0.050936799
0.090658322 0.011195237 -0.028992418
0.083580784 0.010292885 -0.032877538
-0.02611593 -0.059798401 0.050936799
0.09666115 0.012173534 -0.029087141
-0.02611593 -0.059798401 0.050936799
-0.02611593 -0.059798401 0.050936799
0.065597959 0.0043223305 -0.030648101
-0.02611593 -0.059798401 0.050936799
0.082595758 0.0092785619 -0.031877115
0.072585806 0.006314951 -0.031743266
-0.02611593 -0.059798401 0.050936799
0.086628549 0.0082281968 -0.029970966
-0.02611593 -0.059798401 0.050936799
-0.02611593 -0.059798401 0.050936799
0.054636501 -0.00069161167 -0.027532522
-0.02611593 -0.059798401 0.050936799
0.070611835 0.0032864665 -0.029760413
0.065541789 0.0043765977 -0.033647086
-0.02611593 -0.059798401 0.050936799
0.078584708 0.0062934179 -0.031856008
-0.02611593 -0.059798401 0.050936799
-0.02611593 -0.059798401 0.050936799
0.044660062 -0.0046912162 -0.025417361
-0.02611593 -0.059798401 0.050936799
0.062605448 0.0013155163 -0.029646125
0.058520425 0.0034199785 -0.034533236
-0.02611593 -0.059798401 0.050936799
0.066604704 0.0013011607 -0.02972129
-0.02611593 -0.059798401 0.050936799
-0.02611593 -0.059798401 0.050936799
0.039638326 -0.005655013 -0.026341088
-0.02611593 -0.059798401 0.050936799
0.053595312 -0.0016516717 -0.029531065
0.049543802 -0.0005832219 -0.032436866
-0.02611593 -0.059798401 0.050936799
0.056609556 -0.0026803543 -0.028605796
-0.02611593 -0.059798401 0.050936799
-0.02611593 -0.059798401 0.050936799
0.035586823 -0.0045865597 -0.029246893
-0.02611593 -0.059798401 0.050936799
0.049521152 -0.0015649598 -0.033454549
0.045469638 -0.00049651007 -0.036360353
-0.02611593 -0.059798401 0.050936799
0.050584074 -0.0046403934 -0.029528752
-0.02611593 -0.059798401 0.050936799
-0.02611593 -0.059798401 0.050936799
0.027647462 -0.0086295232 -0.025169998
-0.02611593 -0.059798401 0.050936799
0.03859321 -0.0076149069 -0.028357659
0.036511749 -0.0045177923 -0.033264328
-0.02611593 -0.059798401 0.050936799
0.042592481 -0.0076292632 -0.02843282
-0.02611593 -0.059798401 0.050936799
-0.02611593 -0.059798401 0.050936799
0.023610748 -0.0085789897 -0.027094159
-0.02611593 -0.059798401 0.050936799
0.032590382 -0.0085932007 -0.028262936
0.031475216 -0.0044636694 -0.035169702
-0.02611593 -0.059798401 0.050936799
0.035600703 -0.010621718 -0.027355686
-0.02611593 -0.059798401 0.050936799
-0.02611593 -0.059798401 0.050936799
0.018592941 -0.0085429559 -0.027999867
-0.02611593 -0.059798401 0.050936799
0.026602348 -0.010589418 -0.027186573
0.027438501 -0.0044131353 -0.037093859
-0.02611593 -0.059798401 0.050936799
0.031545263 -0.010553095 -0.030279502
-0.02611593 -0.059798401 0.050936799
-0.02611593 -0.059798401 0.050936799
0.015556048 -0.0084960107 -0.029942814
-0.02611593 -0.059798401 0.050936799
0.022561707 -0.011538714 -0.029128741
0.019503072 -0.0074562728 -0.032998942
-0.02611593 -0.059798401 0.050936799
0.025557229 -0.012549312 -0.029203136
-0.02611593 -0.059798401 0.050936799
-0.02611593 -0.059798401 0.050936799
0.011519331 -0.0084454771 -0.031866971
-0.02611593 -0.059798401 0.050936799
0.017558696 -0.012520601 -0.029052809
0.014514856 -0.0094560785 -0.031941362
-0.02611593 -0.059798401 0.050936799
0.021520514 -0.012498778 -0.031127296
-0.02611593 -0.059798401 0.050936799
-0.02611593 -0.059798401 0.050936799
-0.02611593 -0.059798401 0.050936799
-0.02611593 -0.059798401 0.050936799
-0.02611593 -0.059798401 0.050936799
0.011429647 -0.0073552048 -0.036847264
-0.02611593 -0.059798401 0.050936799
0.016517503 -0.013480661 -0.031051364
-0.02611593 -0.059798401 0.050936799
-0.02611593 -0.059798401 0.050936799
-0.02611593 -0.059798401 0.050936799
-0.02611593 -0.059798401 0.050936799
0.0085376883 -0.013470038 -0.029901374
0.0054790583 -0.0093876002 -0.033771582
-0.02611593 -0.059798401 0.050936799
-0.02611593 -0.059798401 0.050936799
-0.02611593 -0.059798401 0.050936799
-0.02611593 -0.059798401 0.050936799
-0.02611593 -0.059798401 0.050936799
-0.02611593 -0.059798401 0.050936799
0.0055007921 -0.013423094 -0.031844322
0.00049084157 -0.011387402 -0.032713994
-0.02611593 -0.059798401 0.050936799
-0.02611593 -0.059798401 0.050936799
-0.02611593 -0.059798401 0.050936799
-0.02611593 -0.059798401 0.050936799
-0.02611593 -0.059798401 0.050936799
-0.02611593 -0.059798401 0.050936799
-0.02611593 -0.059798401 0.050936799
-0.0025234055 -0.010358715 -0.033639275
-0.02611593 -0.059798401 0.050936799
-0.02611593 -0.059798401 0.050936799
-0.02611593 -0.059798401 0.050936799
-0.02611593 -0.059798401 0.050936799
-0.02611593 -0.059798401 0.050936799
-0.02611593 -0.059798401 0.050936799
-0.02611593 -0.059798401 0.050936799
-0.0065749139 -0.0092902659 -0.036545072
-0.02611593 -0.059798401 0.050936799
-0.02611593 -0.059798401 0.050936799
-0.02611593 -0.059798401 0.050936799
-0.02611593 -0.059798401 0.050936799
-0.02611593 -0.059798401 0.050936799
-0.02611593 -0.059798401 0.050936799
-0.02611593 -0.059798401 0.050936799
-0.010592903 -0.0092578214 -0.037469577
-0.02611593 -0.059798401 0.050936799
-0.02611593 -0.059798401 0.050936799
-0.02611593 -0.059798401 0.050936799
-0.02611593 -0.059798401 0.050936799
-0.02611593 -0.059798401 0.050936799
-0.02611593 -0.059798401 0.050936799
-0.02611593 -0.059798401 0.050936799
-0.014606968 -0.0082255416 -0.038376056
-0.02611593 -0.059798401 0.050936799
-0.02611593 -0.059798401 0.050936799
-0.02611593 -0.059798401 0.050936799
-0.02611593 -0.059798401 0.050936799
-0.02611593 -0.059798401 0.050936799
-0.02611593 -0.059798401 0.050936799
-0.02611593 -0.059798401 0.050936799
-0.018639755 -0.0071751811 -0.04028219
-0.02611593 -0.059798401 0.050936799
-0.02611593 -0.059798401 0.050936799
-0.02611593 -0.059798401 0.050936799
-0.02611593 -0.059798401 0.050936799
-0.02611593 -0.059798401 0.050936799
-0.02611593 -0.059798401 0.050936799
-0.02611593 -0.059798401 0.050936799
-0.02611593 -0.059798401 0.050936799
-0.02611593 -0.059798401 0.050936799
-0.02611593 -0.059798401 0.050936799
-0.02611593 -0.059798401 0.050936799
-0.02611593 -0.059798401 0.050936799
-0.02611593 -0.059798401 0.050936799
-0.02611593 -0.059798401 0.050936799
-0.02611593 -0.059798401 0.050936799
-0.02611593 -0.059798401 0.050936799
-0.02611593 -0.059798401 0.050936799
-0.02611593 -0.059798401 0.050936799
-0.02611593 -0.059798401 0.050936799
-0.02611593 -0.059798401 0.050936799
-0.02611593 -0.059798401 0.050936799
-0.02611593 -0.059798401 0.050936799
-0.02611593 -0.059798401 0.050936799
-0.029555909 -0.010225637 -0.03513125
-0.02611593 -0.059798401 0.050936799
-0.02611593 -0.059798401 0.050936799
-0.02611593 -0.059798401 0.050936799
-0.02611593 -0.059798401 0.050936799
-0.02611593 -0.059798401 0.050936799
-0.02611593 -0.059798401 0.050936799
-0.02611593 -0.059798401 0.050936799
-0.033532526 -0.0092295436 -0.03403841
-0.02611593 -0.059798401 0.050936799
-0.02611593 -0.059798401 0.050936799
-0.02611593 -0.059798401 0.050936799
-0.02611593 -0.059798401 0.050936799
-0.02611593 -0.059798401 0.050936799
-0.02611593 -0.059798401 0.050936799
-0.02611593 -0.059798401 0.050936799
-0.038598649 -0.0071395813 -0.03790706
-0.02611593 -0.059798401 0.050936799
-0.02611593 -0.059798401 0.050936799
-0.02611593 -0.059798401 0.050936799
-0.02611593 -0.059798401 0.050936799
-0.02611593 -0.059798401 0.050936799
-0.02611593 -0.059798401 0.050936799
-0.02611593 -0.059798401 0.050936799
-0.04154586 -0.0081829084 -0.034869723
-0.02611593 -0.059798401 0.050936799
-0.02611593 -0.059798401 0.050936799
-0.02611593 -0.059798401 0.050936799
-0.02611593 -0.059798401 0.050936799
-0.02611593 -0.059798401 0.050936799
-0.02611593 -0.059798401 0.050936799
-0.02611593 -0.059798401 0.050936799
-0.046559736 -0.0071470477 -0.035757411
-0.02611593 -0.059798401 0.050936799
-0.02611593 -0.059798401 0.050936799
-0.02611593 -0.059798401 0.050936799
-0.02611593 -0.059798401 0.050936799
-0.02611593 -0.059798401 0.050936799
-0.02611593 -0.059798401 0.050936799
-0.02611593 -0.059798401 0.050936799
-0.049540471 -0.0071543707 -0.034701381
-0.02611593 -0.059798401 0.050936799
-0.02611593 -0.059798401 0.050936799
-0.02611593 -0.059798401 0.050936799
-0.02611593 -0.059798401 0.050936799
-0.02611593 -0.059798401 0.050936799
-0.02611593 -0.059798401 0.050936799
-0.050499823 -0.011204368 -0.031755678
-0.054550424 -0.0051186751 -0.035571054
-0.02611593 -0.059798401 0.050936799
-0.02611593 -0.059798401 0.050936799
-0.02611593 -0.059798401 0.050936799
-0.02611593 -0.059798401 0.050936799
-0.02611593 -0.059798401 0.050936799
-0.02611593 -0.059798401 0.050936799
-0.055513706 -0.010168503 -0.032643378
-0.058512244 -0.0051404978 -0.033496574
-0.02611593 -0.059798401 0.050936799
-0.02611593 -0.059798401 0.050936799
-0.02611593 -0.059798401 0.050936799
-0.02611593 -0.059798401 0.050936799
-0.060395613 -0.0042420239 -0.027442999
-0.02611593 -0.059798401 0.050936799
-0.05947553 -0.010190326 -0.030568879
-0.062507585 -0.0041263113 -0.033403389
-0.02611593 -0.059798401 0.050936799
-0.02611593 -0.059798401 0.050936799
-0.02611593 -0.059798401 0.050936799
-0.02611593 -0.059798401 0.050936799
-0.064390957 -0.0032278411 -0.027349818
-0.02611593 -0.059798401 0.050936799
-0.02611593 -0.059798401 0.050936799
-0.067484021 -0.0031266292 -0.032291759
-0.02611593 -0.059798401 0.050936799
-0.02611593 -0.059798401 0.050936799
-0.02611593 -0.059798401 0.050936799
-0.02611593 -0.059798401 0.050936799
-0.068382367 -0.0012138241 -0.027238619
-0.02611593 -0.059798401 0.050936799
-0.067428768 -0.0081981309 -0.028383199
-0.070446029 -0.0031520403 -0.030236054
-0.02611593 -0.059798401 0.050936799
-0.068440363 -0.011194034 -0.028418463
-0.02611593 -0.059798401 0.050936799
-0.02611593 -0.059798401 0.050936799
-0.073377527 -0.0001960526 -0.027126651
-0.02611593 -0.059798401 0.050936799
-0.071409315 -0.0082018645 -0.027308378
-0.075437255 -0.0011344345 -0.030106064
-0.02611593 -0.059798401 0.050936799
-0.073435523 -0.010176259 -0.028306495
-0.02611593 -0.059798401 0.050936799
-0.02611593 -0.059798401 0.050936799
-0.077350214 0.0017998754 -0.026015792
-0.02611593 -0.059798401 0.050936799
-0.077415153 -0.0051627536 -0.028141242
-0.083509766 0.0039838715 -0.034863956
-0.02611593 -0.059798401 0.050936799
-0.078426756 -0.008158653 -0.028176505
-0.02611593 -0.059798401 0.050936799
-0.02611593 -0.059798401 0.050936799
-0.081326835 0.0027959726 -0.024922948
-0.02611593 -0.059798401 0.050936799
-0.083424926 -0.0031234734 -0.028992124
-0.086438261 0.0029224516 -0.03082696
-0.02611593 -0.059798401 0.050936799
-0.082388572 -0.0081804758 -0.026102021
-0.02611593 -0.059798401 0.050936799
-0.02611593 -0.059798401 0.050936799
-0.088366009 0.0068746773 -0.02771832
-0.02611593 -0.059798401 0.050936799
-0.087368026 -0.0031633852 -0.025917977
-0.095491864 0.0080262609 -0.034566399
-0.02611593 -0.059798401 0.050936799
-0.090408847 -0.004116267 -0.027878944
-0.02611593 -0.059798401 0.050936799
-0.02611593 -0.059798401 0.050936799
-0.094357058 0.0088958796 -0.02756954
-0.02611593 -0.059798401 0.050936799
-0.096417695 0.0029402517 -0.029639389
-0.099412315 0.0089680916 -0.030474573
-0.02611593 -0.059798401 0.050936799
-0.097399712 -0.0020914834 -0.027711373
-0.02611593 -0.059798401 0.050936799
-0.02611593 -0.059798401 0.050936799
-0.10235861 0.012941996 -0.028346807
-0.02611593 -0.059798401 0.050936799
-0.10340463 0.0059648659 -0.029453799
-0.10540336 0.010989279 -0.030325793
-0.02611593 -0.059798401 0.050936799
-0.10440537 0.00095121644 -0.028525449
-0.02611593 -0.059798401 0.050936799
-0.02611593 -0.059798401 0.050936799
-0.11037495 0.01800603 -0.03010571
-0.02611593 -0.059798401 0.050936799
-0.11037678 0.0079715606 -0.028286576
-0.11441951 0.01605691 -0.032065913
-0.02611593 -0.059798401 0.050936799
-0.11440262 0.0060043442 -0.029247105
-0.02611593 -0.059798401 0.050936799
-0.02611593 -0.059798401 0.050936799
-0.11329951 0.01794444 -0.026050694
-0.02611593 -0.059798401 0.050936799
-0.1183596 0.011999588 -0.02806418
-0.12137293 0.018045509 -0.029899016
-0.02611593 -0.059798401 0.050936799
-0.12338527 0.010035967 -0.029005915
-0.02611593 -0.059798401 0.050936799
-0.02611593 -0.059798401 0.050936799
-0.12028645 0.020969063 -0.025865108
-0.02611593 -0.059798401 0.050936799
-0.12532781 0.015006113 -0.026878923
-0.13136627 0.024098471 -0.030602664
-0.02611593 -0.059798401 0.050936799
-0.12830554 0.010981378 -0.024895307
-0.02611593 -0.059798401 0.050936799
-0.02611593 -0.059798401 0.050936799
-0.13127959 0.027025606 -0.026549958
-0.02611593 -0.059798401 0.050936799
-0.13632488 0.020062832 -0.027581804
-0.14335921 0.030158604 -0.031268727
-0.02611593 -0.059798401 0.050936799
-0.14434215 0.020109635 -0.028431129
-0.02611593 -0.059798401 0.050936799
-0.02611593 -0.059798401 0.050936799
-0.14127292 0.033078562 -0.027253605
-0.02611593 -0.059798401 0.050936799
-0.15234278 0.029172983 -0.03011797
-0.15231922 0.035171967 -0.030009862
-0.02611593 -0.059798401 0.050936799
-0.15731621 0.026155267 -0.028078742
-0.02611593 -0.059798401 0.050936799
-0.02611593 -0.059798401 0.050936799
-0.1512288 0.039095346 -0.025957923
-0.02611593 -0.059798401 0.050936799
-0.16529417 0.036200367 -0.028747898
-0.16126442 0.039167415 -0.027769338
-0.02611593 -0.059798401 0.050936799
-0.17228203 0.034207739 -0.027652733
-0.02611593 -0.059798401 0.050936799
-0.02611593 -0.059798401 0.050936799
-0.16218843 0.044115879 -0.024661474
-0.02611593 -0.059798401 0.050936799
-0.18026002 0.044252835 -0.028321892
-0.17925929 0.049266491 -0.029250257
-0.02611593 -0.059798401 0.050936799
-0.19426833 0.04632083 -0.029022455
-0.02611593 -0.059798401 0.050936799
-0.02611593 -0.059798401 0.050936799
-0.17918347 0.054211378 -0.026161179
-0.02611593 -0.059798401 0.050936799
-0.19520713 0.052287221 -0.02689622
-0.19621691 0.059325799 -0.028750632
-0.02611593 -0.059798401 0.050936799
-0.21219224 0.055347726 -0.026522726
-0.02611593 -0.059798401 0.050936799
-0.02611593 -0.059798401 0.050936799
-0.19514127 0.064267091 -0.025680345
-0.02611593 -0.059798401 0.050936799
-0.21614136 0.063342631 -0.025303762
-0.21515149 0.070374027 -0.027195744
-0.02611593 -0.059798401 0.050936799
-0.2391284 0.070442073 -0.025745105
-0.02611593 -0.059798401 0.050936799
-0.02611593 -0.059798401 0.050936799
-0.21509047 0.076336838 -0.025088314
-0.02611593 -0.059798401 0.050936799
-0.24809833 0.082490414 -0.026359431
-0.23807751 0.083436273 -0.025529653
-0.02611593 -0.059798401 0.050936799
-0.9225508 0.48181492 -0.22657636
-0.02611593 -0.059798401 0.050936799
-0.02611593 -0.059798401 0.050936799
-0.24104162 0.092445508 -0.025311116
-0.9672572 0.50679129 -0.21528372
-0.95338321 0.52793646 -0.2261647
-0.26800132 0.10154086 -0.024641603
-0.02611593 -0.059798401 0.050936799
-0.97984189 0.51145726 -0.19395645
-0.96901578 0.53466707 -0.20774399
-0.02611593 -0.059798401 0.050936799
-0.26091984 0.10344306 -0.020738464
-0.98841274 0.51509082 -0.17172274
-0.98361099 0.54135787 -0.18734278
-1.004869 0.58484197 -0.20916557
-1.0542451 0.64962202 -0.24108014
-1.0070142 0.52481371 -0.15219195
-0.98819435 0.54197776 -0.16523828
-1.0926596 0.63916677 -0.20753869
-1.069863 0.65533477 -0.22167784
-1.0165622 0.52943271 -0.12892178
-1.0017937 0.54766518 -0.14487386
-1.1262645 0.65697825 -0.18958122
-1.0784415 0.65696877 -0.19948013
-1.0291204 0.53608018 -0.10655882
-1.0213912 0.55839145 -0.12530629
-1.1308141 0.65656203 -0.16549541
-1.0840286 0.65659231 -0.17737485
-1.0406641 0.54170614 -0.083233014
-1.1190331 0.61662477 -0.11642178
-1.1323496 0.65511715 -0.14048433
-1.0866053 0.65418738 -0.15436231
-1.0592053 0.55237454 -0.06068524
-1.1765854 0.65153748 -0.098706707
-1.128879 0.65063673 -0.11462158
-1.0911925 0.6538074 -0.1322758
-1.1557015 0.6094597 -0.043840259
-1.1750841 0.65004569 -0.07175266
-1.1324289 0.65021694 -0.09055455
-1.0967569 0.65441269 -0.10915284
-1.223135 0.65031689 -0.020830855
-1.1765782 0.64956445 -0.044724219
-1.1369522 0.65178239 -0.06543304
-1.1003255 0.65401101 -0.086085483
-1.2185967 0.64877814 0.0080661401
-1.1790831 0.65110457 -0.01864063
-1.1375065 0.65035194 -0.041440398
-1.1019022 0.65160245 -0.063091725
-1.2210563 0.65228176 0.036185093
-1.1765817 0.64960909 0.0082946122
-1.1370424 0.64889991 -0.016466893
-1.1034752 0.65019375 -0.040079951
-1.2095349 0.6467185 0.064878471
-1.176095 0.64913881 0.034285799
-1.1415654 0.65046531 0.0086546317
-1.1050483 0.64878505 -0.017068192
-1.2100176 0.64923322 0.091942169
-1.1715941 0.64763623 0.061183468
-1.1421161 0.65003473 0.032665286
-1.1056213 0.64737278 0.0059247836
-1.2005067 0.64569497 0.11970951
-1.1731179 0.6491909 0.086248621
-1.1386564 0.64757204 0.057564404
-1.1081862 0.64796734 0.028991386
-1.1939836 0.64516687 0.14758727
-1.1646441 0.64569235 0.11203542
-1.1361926 0.64611286 0.082500324
-1.1137468 0.64957243 0.052132368
-1.1795188 0.63964713 0.17322531
-1.1591623 0.6442042 0.13791464
-1.1377537 0.64770359 0.10556615
-1.1103096 0.64612806 0.076013803
-1.1789788 0.64313996 0.2012879
-1.156672 0.64472663 0.16388626
-1.1332942 0.64523745 0.13044646
-1.1118934 0.6467371 0.098061949
-1.1704788 0.64162308 0.22811042
-1.1482171 0.6412462 0.18867341
-1.1318225 0.6457814 0.15543723
-1.1124628 0.64632463 0.12107295
-1.1590207 0.63913172 0.25285918
-1.14275 0.64077604 0.21357098
-1.1263819 0.64332962 0.17929912
-1.1110135 0.6458869 0.14504603
-1.1525084 0.64062142 0.27977332
-1.1352644 0.64028054 0.23943065
-1.1189417 0.64087075 0.20312342
-1.1085871 0.64446384 0.16798262
-1.1400503 0.63812655 0.30450332
-1.1287975 0.63980681 0.26430944
-1.1184845 0.64243627 0.22715132
-1.1041651 0.64203382 0.19086364
-1.1335567 0.63963425 0.33041784
-1.1233263 0.64033645 0.28922501
-1.1180086 0.64398372 0.25217888
-1.1037118 0.64259952 0.21487352
-1.1220946 0.63814276 0.35518461
-1.1148864 0.63787395 0.31303054
-1.1046 0.63852191 0.27483672
-1.1002856 0.64117283 0.23779133
-1.1076558 0.63565868 0.37887737
-1.1114072 0.64041042 0.33801976
-1.102143 0.64008021 0.29882705
-1.1008284 0.64274198 0.26183802
-1.0981854 0.63617402 0.40371782
-1.1009635 0.63894057 0.36180568
-1.0966945 0.63962811 0.32272494
-1.0944028 0.64130455 0.28469947
-1.0837651 0.633708 0.42641091
-1.0875432 0.63647825 0.38451758
-1.090269 0.63819069 0.34558639
-1.0909578 0.6398598 0.30861694
-1.0673641 0.631253 0.44806677
-1.0820868 0.63802582 0.4084515
-1.082821 0.63773149 0.36944675
-1.0865279 0.63942939 0.33153397
-1.0549357 0.63079387 0.47083354
-1.0666894 0.63457453 0.43010816
-1.0753915 0.63729024 0.39230737
-1.0840712 0.64098775 0.35552433
-1.0435032 0.63133818 0.49363706
-1.0582378 0.63511151 0.45396769
-1.0639896 0.63485318 0.4140572
-1.0776454 0.63955033 0.37838572
-1.0340437 0.63387126 0.51751387
-1.0458319 0.63367063 0.47571677
-1.0605103 0.63738966 0.43904644
-1.0702201 0.63810933 0.4012284
-1.0186384 0.63241965 0.5392065
-1.0354217 0.63323677 0.4975214
-1.0461354 0.6329602 0.45970416
-1.0608177 0.63567942 0.42301583
-1.0022708 0.63100052 0.55888104
-1.0249665 0.63476646 0.52136141
-1.039698 0.63452232 0.48261964
-1.0553653 0.63622719 0.44693172
-0.99183029 0.63354814 0.58173943
-1.0115836 0.63234019 0.54207397
-1.0302651 0.63507378 0.5054608
-1.0459629 0.63379723 0.46871912
-0.97643989 0.63311446 0.60245049
-1.0021427 0.63489133 0.56495112
-1.0158902 0.63064432 0.52611852
-1.034561 0.63136017 0.49046892
-0.95809519 0.63070649 0.62106979
-0.98580176 0.63149077 0.58358997
-1.0074531 0.63219929 0.54899645
-1.0301044 0.63291132 0.5144217
-0.94174635 0.62930548 0.63974464
-0.97241092 0.63106424 0.60433853
-0.99804294 0.631769 0.57081985
-1.0226752 0.63247019 0.53728235
-0.92439765 0.62790096 0.65840071
-0.96001613 0.63164121 0.62512404
-0.98662919 0.63233143 0.59262365
-1.0132462 0.63202184 0.56010544
-0.90904075 0.62850326 0.67713046
-0.94364846 0.63022208 0.64479852
-0.97324222 0.63090509 0.61335433
-1.0067899 0.63356584 0.58402061
-0.88972992 0.62712777 0.69374967
-0.93027246 0.63081354 0.66456544
-0.96282834 0.63147104 0.63517702
-0.99143016 0.63015062 0.60367793
-0.87239599 0.62674117 0.71142411
-0.9129464 0.62842721 0.68220389
-0.95043337 0.63204795 0.65596241
-0.98299706 0.63070577 0.6265378
-0.8619436 0.63228816 0.7343365
-0.89954782 0.63000035 0.70298862
-0.93213415 0.62767643 0.67254633
-0.97158712 0.63026834 0.6483236
-0.84069717 0.62896013 0.74788314
-0.88517201 0.63058817 0.72273672
-0.91874331 0.6272499 0.69329488
-0.95722312 0.62785661 0.66801775
-0.82045043 0.62563556 0.7614485
-0.86588371 0.62823087 0.73833823
-0.90534854 0.62782323 0.71406156
-0.9477675 0.62938982 0.69187653
-0.79920006 0.62330735 0.77501315
-0.85250777 0.62882233 0.75810522
-0.89197642 0.62741476 0.73381042
-0.92946827 0.62501848 0.70846051
-0.78285813 0.62492394 0.79274243
-0.83323818 0.62648302 0.7727071
-0.87562364 0.62701362 0.75250334
-0.920986 0.62853682 0.73337376
-0.76067185 0.62064672 0.80325323
-0.81492716 0.62511116 0.78934509
-0.85732049 0.62364215 0.76910537
-0.90268677 0.62416542 0.74995768
-0.74139458 0.62030715 0.81789112
-0.7956537 0.62377185 0.80396497
-0.84493643 0.62623668 0.78892714
-0.89223135 0.62569499 0.77379769
-0.72606725 0.62294531 0.83465755
-0.77638423 0.6214326 0.8185668
-0.82661057 0.62384689 0.80654681
-0.8758598 0.62527579 0.79349023
-0.70776308 0.62459087 0.8503499
-0.76101935 0.62403452 0.83733261
-0.81223083 0.62543446 0.82631302
-0.86148787 0.6248638 0.81322044
-0.68852311 0.62428755 0.86298847
-0.74665052 0.62763995 0.85613513
-0.79098433 0.62210643 0.8398596
-0.84709334 0.6254335 0.83396828
-0.66539329 0.62006098 0.87048161
-0.7254228 0.62432992 0.86868209
-0.77269596 0.61975271 0.85547984
-0.82779038 0.62205833 0.85055143
-0.64515358 0.61975408 0.88310134
-0.70909566 0.62696451 0.88542974
-0.75633532 0.6213513 0.87420881
-0.81239605 0.6226244 0.87128043
-0.62690562 0.621454 0.89579475
-0.68981826 0.626625 0.90006763
-0.73903883 0.62100089 0.889884
-0.79406625 0.62123442 0.88891816
-0.60766178 0.62215042 0.90845132
-0.66862798 0.6233511 0.91061521
-0.72072381 0.62062871 0.90653998
-0.77573645 0.61984438 0.90655577
-0.58550519 0.61990911 0.91699886
-0.64354372 0.61715388 0.91603535
-0.70242363 0.62127453 0.92221439
-0.76035684 0.62142843 0.92630315
-0.56243145 0.61573678 0.92149287
-0.62719005 0.62176996 0.9338187
-0.68217307 0.61894983 0.93579775
-0.74202317 0.6210382 0.94395882
-0.54611516 0.62038904 0.9372769
-0.60501862 0.61851066 0.94334781
-0.66287303 0.61959207 0.95145333
-0.72075397 0.6186918 0.95852315
-0.52493179 0.6201328 0.94687891
-0.58382052 0.6172365 0.95393145
-0.64455014 0.62121958 0.96814537
-0.70335609 0.62025064 0.97923261
-0.50669861 0.6228506 0.95859063
-0.56457663 0.61793298 0.96658802
-0.62140161 0.61697489 0.97663808
-0.68404126 0.61987495 0.99586982
-0.48362496 0.61867833 0.9630847
-0.54435164 0.618644 0.97822618
-0.60016596 0.61566454 0.98922104
-0.65889698 0.61462319 1.0043069
-0.46345615 0.61944354 0.97172391
-0.5212366 0.6154353 0.98473758
-0.58088076 0.61732471 1.0038949
-0.63860112 0.61426204 1.0199257
-0.43943882 0.61532187 0.97320014
-0.50103039 0.61616439 0.99537605
-0.55866796 0.61502898 1.0154414
-0.61923707 0.6168496 1.0386163
-0.42118299 0.61902148 0.98592961
-0.48080546 0.61687535 1.0070143
-0.53842431 0.61572194 1.0280793
-0.59796393 0.61550313 1.0531986
-0.39720702 0.61393619 0.98538852
-0.45868626 0.6146701 1.0135624
-0.51526785 0.61347687 1.036608
-0.57472873 0.61418557 1.0657439
-0.37803417 0.61570489 0.99406451
-0.43747634 0.61639547 1.0242001
-0.49593735 0.61710054 1.0533173
-0.55247062 0.61385334 1.0793259
-0.35690305 0.61650264 1.0006855
-0.41537586 0.61420828 1.0297487
-0.46992823 0.61097205 1.0547199
-0.52734107 0.60961962 1.0867813
-0.33490402 0.61240637 1.0011997
-0.39133587 0.61106837 1.0322427
-0.44772628 0.61069411 1.0653028
-0.50606018 0.61027271 1.1013997
-0.31381032 0.61324036 1.0058215
-0.37210292 0.61378264 1.0439355
-0.42556575 0.60945255 1.0738683
-0.48377556 0.61192214 1.1160172
-0.29365638 0.61502355 1.013479
-0.34904006 0.61162812 1.047466
-0.40335989 0.61017442 1.0844693
-0.45861948 0.60966986 1.1245083
-0.27260798 0.61389405 1.0160654
-0.32878461 0.61532044 1.0601579
-0.38017291 0.61091083 1.0940518
-0.43442184 0.60838497 1.1350356
-0.25151429 0.61472809 1.0206871
-0.30669895 0.61415124 1.0647248
-0.35889894 0.61458153 1.1077244
-0.41019765 0.60908157 1.1465986
-0.23048458 0.6136167 1.0222738
-0.28360957 0.61397827 1.0692909
-0.33388576 0.60945648 1.1091639
-0.38601869 0.60781473 1.1561263
-0.20943226 0.61348701 1.0248781
-0.26154259 0.61282706 1.0728581
-0.31256643 0.61509073 1.124872
-0.36181325 0.60852945 1.1666895
-0.18842132 0.6123938 1.0254651
-0.23853593 0.61072683 1.0733896
-0.28569251 0.60808539 1.1192402
-0.33666801 0.60829502 1.174217
-0.16743302 0.61031872 1.0250345
-0.21642371 0.61153913 1.0789921
-0.26437321 0.61371958 1.1349484
-0.31052694 0.60705715 1.1817079
-0.14726725 0.6151014 1.0327462
-0.19337566 0.61040252 1.0815408
-0.23845769 0.60768157 1.1313527
-0.28627613 0.60973537 1.1943065
-0.1263164 0.61306256 1.0303161
-0.17125949 0.61221462 1.0871615
-0.21430445 0.6094504 1.138935
-0.25925934 0.60560298 1.1957264
-0.10532416 0.61198735 1.0299035
-0.14831294 0.60916883 1.084676
-0.19021524 0.60927385 1.1434823
-0.23491797 0.61220813 1.2123958
-0.084354587 0.6099304 1.0284733
-0.12619679 0.61098099 1.0902966
-0.16699779 0.61299157 1.1541185
-0.20604438 0.6051957 1.2067263
-0.064312942 0.61182213 1.0301328
-0.10320491 0.60989863 1.0898464
-0.1411197 0.60698974 1.1485234
-0.1808726 0.60694283 1.2152896
-0.043275408 0.61271036 1.0317556
-0.081171498 0.60978347 1.0914322
-0.11700393 0.60879475 1.1541066
-0.15382528 0.60579181 1.2177632
-0.023471143 0.60680252 1.0222746
-0.058134329 0.61066455 1.0930176
-0.092117816 0.60479617 1.1485664
-0.12677799 0.60464084 1.2202368
-0.0034521502 0.60771245 1.0229164
-0.036247678 0.60667676 1.0875338
-0.068084769 0.60467386 1.1501148
-0.10062119 0.60740232 1.2277997
0.016574696 0.61062205 1.0235945
-0.013101192 0.61146671 1.0941893
-0.042969145 0.60647517 1.155679
-0.072634175 0.60530216 1.2272375
0.036488287 0.60862297 1.0191839
0.0077481978 0.60751861 1.086725
-0.019056283 0.60446179 1.1511934
-0.045771085 0.60031462 1.2206421
0.056405813 0.60762376 1.0147915
0.030811939 0.61038136 1.0893457
0.005044722 0.60728467 1.1557949
-0.018569157 0.60503602 1.2302214
0.076447457 0.60951543 1.016451
0.052766539 0.60933876 1.086915
0.029994845 0.60523152 1.1532896
0.0073807854 0.60297924 1.2276975
0.096368901 0.60951596 1.0120765
0.074551731 0.60344166 1.0763969
0.053907707 0.60321808 1.1488041
0.034421146 0.60484576 1.2292255
0.11628643 0.60851675 1.0076841
0.096596926 0.6063261 1.0780369
0.078971088 0.60607356 1.1513872
0.062498771 0.60667259 1.2327341
0.13514012 0.60557568 1.0002754
0.11836731 0.60144693 1.0665373
0.10392906 0.60601997 1.1489183
0.085613757 0.5833503 1.1898648
0.15506549 0.60657614 0.99591893
0.14145762 0.60629117 1.0701938
0.12782712 0.60502452 1.1434509
0.1163086 0.60364217 1.2226683
0.1729233 0.6046384 0.98854709
0.16233359 0.6043247 1.0637652
0.15272501 0.60402542 1.1379647
0.14424337 0.6025961 1.2191253
0.19286343 0.60462093 0.98517227
0.18423596 0.60433614 1.0583534
0.17660044 0.6020481 1.1314797
0.17012237 0.6016115 1.2126207
0.21067986 0.60171968 0.97578299
0.20509319 0.60238773 1.0509251
0.20056646 0.60399789 1.1290656
0.19806106 0.60156524 1.2090956
0.23066929 0.60466546 0.97446162
0.22704086 0.60436273 1.0475489
0.22444579 0.60302043 1.1225985
0.2249625 0.6015588 1.2035899
0.25062123 0.60764748 0.97114086
0.24790204 0.60341412 1.0401386
0.24832907 0.60304284 1.1161495
0.25188661 0.60253412 1.1991019
0.26950148 0.60668796 0.96476787
0.26874056 0.60148388 1.0317106
0.27325353 0.6040253 1.1116992
0.27874666 0.60156393 1.1915789
0.28525817 0.60284829 0.95239919
0.2906695 0.60347688 1.0273347
0.29607296 0.6021058 1.102234
0.30348694 0.59870988 1.1780596
0.30521011 0.60583025 0.9490785
0.31047079 0.60158634 1.0169262
0.31993753 0.60214633 1.0947855
0.3303923 0.59970325 1.1725719
0.3230758 0.6058923 0.9417426
0.33242235 0.60456115 1.0135679
0.34169704 0.59928501 1.0823221
0.35621902 0.59977275 1.1630864
0.33985493 0.60303074 0.93037283
0.35117847 0.60071075 1.0011429
0.36454695 0.60034698 1.0739107
0.38204575 0.59984225 1.1536009
0.35980693 0.6060127 0.92705208
0.37311137 0.60370362 0.99678481
0.38947928 0.60332906 1.0694963
0.40789518 0.60089344 1.1451331
0.37660867 0.60413295 0.91670001
0.38974768 0.59796917 0.97836339
0.4112654 0.6024493 1.0580685
0.43368053 0.59999931 1.1336302
0.39237326 0.60229295 0.90436739
0.41270301 0.60194027 0.97500437
0.43301013 0.60060585 1.0446236
0.42596963 0.55651176 1.0509599
0.41228771 0.6053111 0.89904732
0.43253478 0.6030311 0.9656496
0.45479622 0.59972602 1.0331959
0.48430461 0.60217774 1.1127148
0.42808974 0.60343492 0.88871402
0.4523626 0.60312212 0.95627683
0.47867253 0.60276598 1.0258013
0.50907534 0.60230505 1.1002491
0.44696701 0.60649288 0.88141346
0.47114924 0.60225314 0.94490552
0.49942139 0.60192597 1.0123931
0.53176373 0.60051227 1.0837862
0.46381411 0.60657656 0.8730967
0.48889863 0.60142386 0.93155372
0.52017021 0.6010859 0.99898493
0.55551594 0.60066128 1.0703397
0.47853747 0.60377645 0.8587656
0.50973415 0.60351086 0.92219818
0.5419454 0.60222387 0.9865936
0.57923067 0.60084653 1.0548937
0.4963696 0.60487449 0.84944838
0.5285247 0.60364169 0.9108448
0.56167573 0.60140556 0.97220457
0.6029681 0.60201341 1.0404656
0.51217949 0.60499799 0.83915114
0.54423302 0.60185599 0.8955133
0.58240974 0.60158336 0.95781469
0.62261569 0.59926784 1.0220418
0.52588433 0.60221958 0.82383913
0.56504989 0.60396117 0.88515812
0.60318518 0.60272491 0.9454422
0.64529318 0.59949279 1.0046154
0.54476148 0.60527748 0.81653851
0.58178067 0.60315359 0.87082541
0.61983329 0.59999001 0.92707479
0.66701221 0.600685 0.98922515
0.55953014 0.60444087 0.80424267
0.59853423 0.60332769 0.85751033
0.64059389 0.60214949 0.91372061
0.6845814 0.59701902 0.96682227
0.57428002 0.60362238 0.79094726
0.61628747 0.60349828 0.84417653
0.66337681 0.6052835 0.90134656
0.70832658 0.60018563 0.95243013
0.59007514 0.60476381 0.77966833
0.63095862 0.60175222 0.82686442
0.67489779 0.59867573 0.87700313
0.72794467 0.5994758 0.93204302
0.60582876 0.60494149 0.76637208
0.64668971 0.60094827 0.81255049
0.69975215 0.60574764 0.86766255
0.74963015 0.60170406 0.91467142
0.6185565 0.60314846 0.75209647
0.66545063 0.6031149 0.79923391
0.71436316 0.60305613 0.84733337
0.76826704 0.60097969 0.89530283
0.63535529 0.60528606 0.74081683
0.68014449 0.60235065 0.78293943
0.73101914 0.60232085 0.82900196
0.78382957 0.60033846 0.87199199
0.65013176 0.60644913 0.72855705
0.69381577 0.60060823 0.7656461
0.74870151 0.60356361 0.81168759
0.80451524 0.6025703 0.85463911
0.66079575 0.60271788 0.7112841
0.71158075 0.60377836 0.75236636
0.76638389 0.6048063 0.7943731
0.81700641 0.5979948 0.82831359
0.67555356 0.60389894 0.69802457
0.72729695 0.60399228 0.7370708
0.77897656 0.60214007 0.7730819
0.83872247 0.60320443 0.81199569
0.6944012 0.60899276 0.68876076
0.73890865 0.60131145 0.71679801
0.79562157 0.60342258 0.75378686
0.85021782 0.59963232 0.785707
0.70506912 0.60626131 0.67150569
0.75665498 0.60449958 0.70251852
0.8092407 0.60273427 0.73351258
0.86884773 0.60192561 0.76539278
0.71575969 0.60451162 0.65526843
0.77135658 0.605735 0.68626016
0.82590443 0.60399878 0.71521729
0.88443673 0.603266 0.74311763
0.72948015 0.60573256 0.64002854
0.78199106 0.60403955 0.66702384
0.84357595 0.60725915 0.69693917
0.89493239 0.59969747 0.71684766
0.74526048 0.6078918 0.62776792
0.79465169 0.6043185 0.64878571
0.85415417 0.605618 0.67470396
0.91154778 0.60301578 0.69558936
0.75493246 0.6061638 0.61054969
0.8113755 0.60652846 0.63350737
0.86677337 0.60493338 0.65444839
0.92511457 0.60338163 0.67233407
0.76763052 0.60640657 0.59431088
0.81996894 0.60387659 0.61229128
0.87938184 0.60626638 0.63322926
0.93766296 0.60376912 0.64809793
0.78035522 0.6086309 0.57910776
0.8326335 0.60515535 0.59407115
0.88994133 0.60464329 0.60999435
0.95123363 0.60513479 0.62486064
0.791031 0.60789907 0.56188875
0.84529799 0.60643417 0.57585096
0.90052742 0.60500175 0.58779508
0.96176356 0.60554749 0.59966248
0.79968059 0.6051929 0.54367167
0.85491782 0.60576022 0.55565184
0.91515809 0.60730934 0.56755608
0.97433448 0.60691679 0.57644403
0.81138659 0.60743898 0.52748764
0.86960852 0.60901338 0.5384298
0.92374057 0.60667521 0.54537636
0.98081988 0.60538036 0.54928559
0.82206631 0.60770702 0.51028675
0.87720609 0.60736489 0.51725054
0.93330812 0.60705537 0.52219629
0.99237216 0.60677129 0.52508628
0.83577204 0.60994583 0.49406514
0.88580734 0.60671258 0.49607053
0.9428944 0.60741746 0.50001585
1.0009063 0.60819101 0.49994361
0.84240717 0.60826474 0.47490403
0.89645344 0.60801667 0.4768883
0.95348829 0.60977554 0.47785261
1.0063919 0.60665816 0.47280398
0.85411328 0.61051077 0.45872
0.90608108 0.6093424 0.45672521
0.95903009 0.60818851 0.45371196
1.017971 0.61003065 0.44964036
0.85972601 0.60785145 0.43855995
0.91368252 0.60869372 0.43556395
0.97062773 0.61154288 0.43154797
1.0264865 0.61146849 0.42349809
0.87646556 0.61406088 0.42335373
0.92128789 0.60904485 0.41442075
0.97821438 0.61191207 0.40940511
1.0279727 0.60995007 0.39643362
0.88007468 0.6104089 0.40321326
0.93293786 0.61134517 0.39523774
0.98881233 0.61527014 0.3872599
1.032485 0.61040246 0.37034845
0.88871735 0.61072028 0.38405058
0.94155091 0.6136924 0.3741118
0.99335808 0.61468655 0.36315608
1.0430492 0.61479646 0.34622198
0.8953563 0.61003906 0.36490747
0.95320475 0.61699247 0.35494682
0.99890763 0.61509907 0.33905146
1.0505689 0.61723769 0.32011652
0.90198064 0.6103757 0.34478271
0.95273578 0.61242747 0.33086488
1.0004314 0.6135444 0.31398636
1.0550851 0.61868989 0.29404938
0.91768295 0.61662483 0.32759595
0.95832276 0.61280388 0.30875957
1.0009551 0.61199343 0.28893998
1.0495423 0.61421514 0.26606274
0.92229974 0.61496896 0.30747274
0.96593601 0.61515468 0.28765237
1.0125607 0.61734748 0.26681206
1.054081 0.61664915 0.24101329
0.92692047 0.61431289 0.28736752
0.97052318 0.61553472 0.2655659
1.0130885 0.61679631 0.24178371
1.0586052 0.62010098 0.21498221
0.93154109 0.61365694 0.26726234
0.97511035 0.61591476 0.2434794
1.0166571 0.61719799 0.21871634
0.78076613 0.44627917 0.15301883
0.94320291 0.61895674 0.24813339
0.97669411 0.61530566 0.22143124
0.62318027 0.36212844 0.13944247
-0.02611593 -0.059798401 0.050936799
0.94580132 0.6173262 0.2270481
0.61733288 0.37203974 0.14573336
0.59778106 0.34554666 0.12161201
0.60034013 0.33391783 0.10034654
0.59541184 0.37204632 0.1501454
0.59796315 0.35841784 0.12884387
0.57943368 0.33290288 0.10572143
0.60507411 0.3381705 0.085329741
0.57906026 0.35839558 0.1341992
0.58262318 0.34776297 0.11293297
0.57616431 0.33116725 0.091746509
0.5797202 0.32355222 0.069534652
0.60393125 0.374484 0.12402113
0.57934976 0.34502748 0.098940015
0.56585771 0.32447568 0.07681337
-0.02611593 -0.059798401 0.050936799
0.56549126 0.34695077 0.10623676
0.5650509 0.33533266 0.08502765
0.56261098 0.32372177 0.063856125
-0.02611593 -0.059798401 0.050936799
0.56523997 0.34518623 0.093205124
0.56378508 0.33458972 0.071033165
0.57037097 0.32994527 0.04981865
0.57193124 0.32333723 0.0276624
0.56198537 0.34243271 0.080211848
0.5655452 0.33581749 0.058018006
0.56712425 0.32919139 0.036861416
-0.02611593 -0.059798401 0.050936799
0.56877506 0.34662399 0.068156451
-0.02611593 -0.059798401 0.050936799
0.55986631 0.32545233 0.023925282
-0.02611593 -0.059798401 0.050936799
0.55850214 0.33889636 0.055204615
0.56206983 0.33428082 0.033046816
0.56762636 0.33167589 0.0098878071
-0.02611593 -0.059798401 0.050936799
0.55727375 0.33811721 0.043209452
0.56283021 0.33551225 0.020050451
0.56937563 0.33492139 -0.0040909685
0.5928942 0.34733972 -0.032316234
0.55604523 0.337338 0.031214289
0.56158698 0.335751 0.0070736483
0.57413232 0.34015587 -0.01809008
0.6126163 0.36359084 -0.050397653
0.55880529 0.33856225 0.018180346
0.57133573 0.34398505 -0.0079650283
0.57686657 0.34441572 -0.033069298
0.60834014 0.36487636 -0.065299384
0.56457651 0.34277523 0.005144082
0.56708521 0.34223491 -0.020921506
0.58561552 0.35265341 -0.048089184
0.73289138 0.45215461 -0.10706669
0.57334024 0.34999496 -0.0088941604
0.57783777 0.35146523 -0.035960935
0.60032678 0.36592296 -0.066130698
0.76051247 0.47650227 -0.13215193
0.5620901 0.34325272 -0.020809531
0.58658665 0.35970289 -0.050980821
0.71890479 0.45018709 -0.10584
0.76015759 0.48186323 -0.15205505
0.59084499 0.3634527 -0.037988327
0.59732044 0.36895129 -0.067019932
0.76350981 0.48552614 -0.13404545
0.76678371 0.49223432 -0.17399892
0.57259917 0.35271814 -0.048844568
0.71189129 0.45123011 -0.10669011
0.76615441 0.49087632 -0.15400495
0.80530709 0.52566755 -0.2061263
0.60232437 0.37495044 -0.068005443
0.75749218 0.48556575 -0.13493235
0.76479977 0.49624085 -0.17388928
-0.02611593 -0.059798401 0.050936799
0.71289897 0.45322618 -0.10667286
0.76314807 0.49390462 -0.15489417
0.90203309 0.59883165 -0.23562379
-0.02611593 -0.059798401 0.050936799
0.75651497 0.48655108 -0.1338959
0.79871243 0.5232951 -0.18403828
-0.02611593 -0.059798401 0.050936799
0.18493359 0.094879776 -0.031244494
0.76216304 0.4928903 -0.15389374
0.92096138 0.6148873 -0.24269016
0.20098867 0.10480256 -0.030365299
-0.02611593 -0.059798401 0.050936799
0.81368881 0.53229398 -0.18715695
-0.02611593 -0.059798401 0.050936799
0.18794091 0.096868671 -0.031264827
0.15887551 0.078975804 -0.031044237
0.90203702 0.59983146 -0.23560578
0.20199242 0.10579881 -0.030366071
-0.02611593 -0.059798401 0.050936799
-0.02611593 -0.059798401 0.050936799
-0.02611593 -0.059798401 0.050936799
0.1919145 0.099889964 -0.033285253
0.16287176 0.08297886 -0.032046989
0.1368324 0.067056805 -0.030847065
0.20298831 0.10479538 -0.03040288
-0.02611593 -0.059798401 0.050936799
-0.02611593 -0.059798401 0.050936799
-0.02611593 -0.059798401 0.050936799
0.18496712 0.093843758 -0.029263195
0.16585642 0.083986014 -0.033084996
0.14380938 0.071067162 -0.032905843
0.11979624 0.057119507 -0.03070781
-0.02611593 -0.059798401 0.050936799
-0.02611593 -0.059798401 0.050936799
-0.02611593 -0.059798401 0.050936799
-0.02611593 -0.059798401 0.050936799
0.1589051 0.076939978 -0.029080953
0.14480922 0.071063571 -0.032924633
0.12278482 0.0591265 -0.031727813
0.10278272 0.048163973 -0.029550876
-0.02611593 -0.059798401 0.050936799
-0.02611593 -0.059798401 0.050936799
-0.02611593 -0.059798401 0.050936799
-0.02611593 -0.059798401 0.050936799
0.14182757 0.066039033 -0.030959036
0.12576947 0.060133655 -0.032765817
0.10775222 0.050181858 -0.03160812
0.092727467 0.043236885 -0.031452391
-0.02611593 -0.059798401 0.050936799
-0.02611593 -0.059798401 0.050936799
-0.02611593 -0.059798401 0.050936799
-0.02611593 -0.059798401 0.050936799
0.12180281 0.054094762 -0.029799789
0.11370674 0.053214092 -0.034665793
0.095712125 0.04424404 -0.032490399
0.078739986 0.036252141 -0.029316127
-0.02611593 -0.059798401 0.050936799
-0.02611593 -0.059798401 0.050936799
-0.02611593 -0.059798401 0.050936799
-0.02611593 -0.059798401 0.050936799
0.10875898 0.047160696 -0.030681301
0.099696591 0.045247599 -0.033547208
0.084690571 0.03828454 -0.032391809
0.070707008 0.032299623 -0.030237537
-0.02611593 -0.059798401 0.050936799
-0.02611593 -0.059798401 0.050936799
-0.02611593 -0.059798401 0.050936799
-0.02611593 -0.059798401 0.050936799
-0.02611593 -0.059798401 0.050936799
0.087656505 0.039309774 -0.034429498
0.074672759 0.033321276 -0.032293998
0.058737889 0.025289616 -0.027139202
-0.02611593 -0.059798401 0.050936799
-0.02611593 -0.059798401 0.050936799
-0.02611593 -0.059798401 0.050936799
-0.02611593 -0.059798401 0.050936799
0.083708562 0.033252794 -0.030463792
0.075668648 0.032317854 -0.032330807
0.065658703 0.029354252 -0.032196958
0.054663725 0.025376327 -0.031062685
-0.02611593 -0.059798401 0.050936799
-0.02611593 -0.059798401 0.050936799
-0.02611593 -0.059798401 0.050936799
-0.02611593 -0.059798401 0.050936799
0.069731951 0.024250306 -0.027363919
0.066650651 0.027351011 -0.032251783
0.05665943 0.024369318 -0.031118285
0.045683175 0.020373303 -0.028984338
-0.02611593 -0.059798401 0.050936799
-0.02611593 -0.059798401 0.050936799
-0.02611593 -0.059798401 0.050936799
-0.02611593 -0.059798401 0.050936799
0.063687734 0.022308357 -0.029286526
0.057651389 0.022366067 -0.03117311
0.050615229 0.022427369 -0.033040896
0.03672136 0.015352183 -0.025906328
-0.02611593 -0.059798401 0.050936799
-0.02611593 -0.059798401 0.050936799
-0.02611593 -0.059798401 0.050936799
-0.02611593 -0.059798401 0.050936799
0.054688476 0.017323416 -0.028207846
0.05259221 0.02143845 -0.034096163
0.04460847 0.020449249 -0.032964189
0.032684643 0.015402717 -0.027830493
-0.02611593 -0.059798401 0.050936799
-0.02611593 -0.059798401 0.050936799
-0.02611593 -0.059798401 0.050936799
-0.02611593 -0.059798401 0.050936799
0.045689203 0.01233848 -0.027129166
0.046570662 0.020478249 -0.035001099
0.039538421 0.021539371 -0.036850862
0.027644183 0.014457009 -0.029753879
-0.02611593 -0.059798401 0.050936799
