# .PCD v0.7 - Point Cloud Data file format
VERSION 0.7
FIELDS x y z
SIZE 4 4 4
TYPE F F F
COUNT 1 1 1
WIDTH 1382
HEIGHT 1
VIEWPOINT 0 0 0 1 0 0 0
POINTS 1382
DATA ascii
0.76113003 0.60122079 0.99447441
0.81621307 0.59696031 1.0523857
0.87843364 0.59454769 1.1171991
0.94256324 0.58820093 1.1779042
0.77978563 0.60047841 0.97610545
0.83172238 0.59235597 1.0270034
0.89586771 0.5900085 1.0877807
0.97015017 0.58949816 1.1554034
0.79846388 0.60071772 0.95875424
0.8584711 0.5965116 1.0125729
0.92357874 0.59419668 1.071332
0.99057281 0.58696598 1.1249651
0.81609702 0.59899718 0.93938643
0.87296575 0.59292877 0.98622775
0.93797594 0.58970451 1.0399705
1.0151042 0.58832836 1.0995218
0.83377546 0.59924006 0.92205393
0.8997559 0.59804809 0.97381455
0.96975428 0.59682363 1.0264997
1.038613 0.58871257 1.0730796
0.85041267 0.59852296 0.90272295
0.91222835 0.59349066 0.94648939
0.98212516 0.59035707 0.99414015
1.0641667 0.59105295 1.0486352
0.87111706 0.60073668 0.88636976
0.9379397 0.59768617 0.93007833
1.0088216 0.59556675 0.97672874
1.0836161 0.59050596 1.0192512
0.88570935 0.59806317 0.86504096
0.94634879 0.59119767 0.89979321
1.0212004 0.59109986 0.9444052
1.1040841 0.58993733 0.99084806
0.90030557 0.59638959 0.84373021
0.97410518 0.59734941 0.88537997
1.0478594 0.59634572 0.92499441
1.1245373 0.59038651 0.96146333
0.91897297 0.59864658 0.82541531
0.98049605 0.59088624 0.85413277
1.0562124 0.58991158 0.89171028
1.1449945 0.59183556 0.93209654
0.93663269 0.59890759 0.80708319
1.0103012 0.59999412 0.8417353
1.0849164 0.59711379 0.87429726
1.1624482 0.59229553 0.90276814
0.95530003 0.6011647 0.78876835
1.0156883 0.59253472 0.81048894
1.0932733 0.59167945 0.84103125
1.1819055 0.59374815 0.87342024
0.96787792 0.59951639 0.76649547
1.0464746 0.60165709 0.79707301
1.1209211 0.5989396 0.820638
1.1962959 0.59227353 0.84111315
0.98754901 0.60276967 0.74817979
1.0478022 0.59326649 0.7628848
1.128301 0.59449059 0.7884084
1.2147346 0.59374785 0.81078434
1.0041753 0.60407031 0.72788519
1.0765475 0.60143238 0.74748904
1.1529229 0.5997799 0.76703584
1.2291514 0.59425473 0.77951294
1.0167385 0.60343987 0.70463067
1.0829649 0.59695071 0.71727765
1.159288 0.5963524 0.73384351
1.244572 0.5957579 0.74824083
1.0282978 0.6018132 0.68137693
1.1086507 0.60418189 0.69892126
1.1798319 0.60072863 0.70852935
1.2488587 0.5914101 0.71106929
1.0439243 0.60311735 0.66110104
1.1049753 0.59480929 0.66480905
1.1862156 0.59728295 0.67633665
1.2642833 0.59391308 0.67981517
1.0605359 0.60543591 0.63982475
1.1326685 0.60403293 0.64645118
1.207782 0.60263729 0.65202141
1.2777042 0.59542352 0.64858073
1.0751441 0.60676169 0.61856806
1.1391087 0.60053307 0.61725736
1.2111437 0.59822077 0.6188674
1.2850584 0.59401011 0.61440581
1.0866923 0.60715282 0.5943507
1.1587129 0.60585845 0.59497911
1.230673 0.60361838 0.59259045
1.2964609 0.59554571 0.58220923
1.0982556 0.60652596 0.57111496
1.1661792 0.6043365 0.56680226
1.2310127 0.5982309 0.55847508
1.3078675 0.59808117 0.55003065
1.1067821 0.60594606 0.54593635
1.1847609 0.60868371 0.5435251
1.2515683 0.60560662 0.53321511
1.31927 0.59961677 0.51783395
1.1203527 0.60731167 0.52269912
1.1801124 0.60129642 0.51046729
1.2559564 0.60316795 0.50107795
1.3276545 0.60118127 0.48469406
1.1298789 0.6067282 0.49750161
1.2017051 0.60863227 0.4871878
1.2724636 0.60759467 0.47383973
1.3320132 0.60077846 0.45059359
1.1394278 0.60712647 0.47332186
1.2091943 0.60809213 0.46002862
1.2637782 0.60025787 0.43885776
1.3353759 0.60137916 0.41652998
1.1509802 0.60851741 0.44912252
1.218672 0.60956252 0.4318682
1.2863226 0.60964411 0.41259658
1.3467863 0.60491443 0.3843694
1.157503 0.6069448 0.42396343
1.2160872 0.60411346 0.40180784
1.285689 0.60624176 0.37953565
1.3410935 0.60058445 0.34838542
1.1690404 0.60935366 0.39878246
1.2316171 0.60952544 0.37560612
1.2991632 0.6117152 0.35037252
1.352512 0.60611933 0.3162609
1.1785746 0.61076975 0.37362105
1.2300359 0.60507256 0.34554496
1.2895007 0.60536373 0.31642705
1.2091544 0.53670835 0.25866985
1.1860824 0.61021155 0.34746152
1.2435476 0.61050987 0.31838116
1.2979453 0.6078738 0.28630412
1.1372396 0.50172907 0.21736956
1.1956204 0.61262757 0.32231811
1.2409892 0.60704231 0.28935647
1.1486176 0.53143114 0.23169866
-0.02611593 -0.059798401 0.050936799
1.2001288 0.6120801 0.29621497
1.2494713 0.6095162 0.26123291
1.1350495 0.52500361 0.20282665
0.72667521 0.30501813 0.12246594
1.2116474 0.61450702 0.27003431
1.1805854 0.57249022 0.22183952
-0.02611593 -0.059798401 0.050936799
0.71630168 0.30039856 0.10357019
1.2181635 0.61595207 0.24392959
0.93099993 0.44047034 0.16510507
0.71351784 0.3122445 0.11283973
0.72197926 0.30470195 0.085535616
1.2085906 0.6085102 0.2149644
0.74085146 0.3409256 0.12485085
0.72021401 0.31652623 0.095786035
0.72464961 0.30701646 0.067521386
-0.02611593 -0.059798401 0.050936799
0.72045624 0.33034295 0.1060349
0.72691011 0.32080793 0.078732342
0.72532028 0.30933812 0.049544737
0.7106728 0.33719674 0.11634555
0.72013402 0.32965064 0.089022651
0.72859544 0.32210809 0.061718538
0.73101658 0.31362343 0.03250983
0.71637994 0.33946428 0.10027426
0.7248227 0.33193985 0.071970493
0.73326927 0.32541525 0.043684743
0.73268706 0.31594151 0.014514381
0.72008365 0.34073922 0.08422254
0.72450441 0.33224735 0.054976255
0.73097003 0.32571182 0.027727745
0.74037212 0.32223737 -0.0035217293
0.72278738 0.34201768 0.068189614
0.73224175 0.33748916 0.039921105
0.73364431 0.32902616 0.0097315274
0.74002421 0.32458073 -0.022479255
0.72547251 0.34331423 0.051157024
0.73491198 0.33980364 0.021906873
0.73431498 0.33134785 -0.0082451291
0.74368739 0.32990924 -0.041457888
0.7261914 0.343582 0.036143318
0.73960453 0.34309271 0.0048727356
0.73999643 0.33665106 -0.02626168
0.74534315 0.33324525 -0.060434971
0.73388743 0.34786013 0.019070826
0.74027127 0.3444145 -0.013121933
0.74367052 0.3399618 -0.044276681
0.75001007 0.33956999 -0.079414375
0.73056179 0.34617874 0.0020969249
0.74095678 0.34571832 -0.030116946
0.74234158 0.34229064 -0.062215753
0.75065118 0.34392747 -0.099354327
0.73625821 0.35046405 -0.014937982
0.74463481 0.35002887 -0.048113931
0.74798566 0.34763002 -0.082231626
0.75429553 0.34927404 -0.11933261
0.74195051 0.35374951 -0.031990908
0.74829006 0.35335767 -0.067128599
0.75264859 0.35295489 -0.10122904
0.75992876 0.35663119 -0.14031211
0.74362099 0.35606763 -0.049986348
0.75196797 0.35766828 -0.08512558
0.75230461 0.35629812 -0.12016855
0.76257741 0.36298117 -0.16025358
0.74729508 0.35937831 -0.06800136
0.74763173 0.35800821 -0.10304433
0.75494933 0.36164829 -0.14012805
0.69643027 0.33225951 -0.16157131
0.74896562 0.36169642 -0.085996792
0.75828671 0.36632916 -0.12310009
0.76657456 0.37200147 -0.16216591
0.68514353 0.33057064 -0.17639557
0.75264347 0.36600697 -0.10399379
0.76193124 0.37167573 -0.14307839
0.76222348 0.37335938 -0.18106627
0.21286079 0.072764941 -0.031167373
0.75229168 0.36735052 -0.12296933
0.75461024 0.37100852 -0.15995911
0.76585311 0.37972385 -0.20202622
0.19880234 0.066852383 -0.033011746
0.7579546 0.37267184 -0.14198555
0.7672165 0.38137621 -0.18301541
0.21585329 0.075771749 -0.032169353
-0.02611593 -0.059798401 0.050936799
0.75760669 0.37501517 -0.16094306
0.76586884 0.38372317 -0.20195416
0.19882499 0.067834131 -0.03199406
0.16777173 0.052947935 -0.031681828
0.76024735 0.3793655 -0.18092059
0.2148574 0.076775178 -0.032132544
-0.02611593 -0.059798401 0.050936799
-0.02611593 -0.059798401 0.050936799
0.76587665 0.38572285 -0.20191811
0.2027986 0.070855416 -0.034014486
0.17673357 0.057969049 -0.034759838
0.14373294 0.042035937 -0.03142906
0.20888416 0.073761031 -0.030074537
-0.02611593 -0.059798401 0.050936799
-0.02611593 -0.059798401 0.050936799
-0.02611593 -0.059798401 0.050936799
0.1948366 0.06583073 -0.030955277
0.17573375 0.057972632 -0.034741048
0.15169495 0.047060639 -0.034488279
0.1257048 0.034101892 -0.03123498
-0.02611593 -0.059798401 0.050936799
-0.02611593 -0.059798401 0.050936799
-0.02611593 -0.059798401 0.050936799
-0.02611593 -0.059798401 0.050936799
0.17077905 0.054936819 -0.031702168
0.15467958 0.048067793 -0.035526298
0.12967448 0.036123376 -0.033273425
0.10671037 0.025135437 -0.029040806
-0.02611593 -0.059798401 0.050936799
-0.02611593 -0.059798401 0.050936799
-0.02611593 -0.059798401 0.050936799
-0.02611593 -0.059798401 0.050936799
0.1457513 0.042010672 -0.030466981
0.13265914 0.037130527 -0.034311444
0.11366864 0.029163895 -0.032099254
0.095659241 0.021211769 -0.030905504
-0.02611593 -0.059798401 0.050936799
-0.02611593 -0.059798401 0.050936799
-0.02611593 -0.059798401 0.050936799
-0.02611593 -0.059798401 0.050936799
0.12968929 0.035105456 -0.032291792
0.11862333 0.032199711 -0.035138134
0.10063266 0.024229497 -0.03294472
0.083645724 0.017255515 -0.030752089
-0.02611593 -0.059798401 0.050936799
-0.02611593 -0.059798401 0.050936799
-0.02611593 -0.059798401 0.050936799
-0.02611593 -0.059798401 0.050936799
0.10870609 0.024128428 -0.02909641
0.10162854 0.023226075 -0.032981526
0.086630374 0.018262675 -0.031790107
0.0716618 0.011263426 -0.028635398
-0.02611593 -0.059798401 0.050936799
-0.02611593 -0.059798401 0.050936799
-0.02611593 -0.059798401 0.050936799
-0.02611593 -0.059798401 0.050936799
0.096688643 0.01917235 -0.028961014
0.090596125 0.019284327 -0.033846576
0.078582607 0.015328072 -0.033693161
0.066587813 0.011353727 -0.032540083
-0.02611593 -0.059798401 0.050936799
-0.02611593 -0.059798401 0.050936799
-0.02611593 -0.059798401 0.050936799
-0.02611593 -0.059798401 0.050936799
0.083667457 0.013220021 -0.028824843
0.07958243 0.015324483 -0.033711951
0.067587636 0.011350138 -0.032558873
0.057592474 0.0073686228 -0.031443387
-0.02611593 -0.059798401 0.050936799
-0.02611593 -0.059798401 0.050936799
-0.02611593 -0.059798401 0.050936799
-0.02611593 -0.059798401 0.050936799
0.074634664 0.0092710946 -0.029727466
0.069564626 0.010361219 -0.03361414
0.061543439 0.0094081955 -0.034481499
0.047634773 0.0033509224 -0.028328571
-0.02611593 -0.059798401 0.050936799
-0.02611593 -0.059798401 0.050936799
-0.02611593 -0.059798401 0.050936799
-0.02611593 -0.059798401 0.050936799
0.064639509 0.0052895723 -0.028611973
0.062539324 0.0084047765 -0.034518305
0.05453686 0.0074336571 -0.034386002
0.04259431 0.0024052144 -0.030251954
-0.02611593 -0.059798401 0.050936799
-0.02611593 -0.059798401 0.050936799
-0.02611593 -0.059798401 0.050936799
-0.02611593 -0.059798401 0.050936799
0.059580326 0.0043619531 -0.031535026
0.054529008 0.0054339957 -0.03442204
0.044560429 0.0034340452 -0.032270834
0.03362162 -0.00059815554 -0.02813758
-0.02611593 -0.059798401 0.050936799
-0.02611593 -0.059798401 0.050936799
-0.02611593 -0.059798401 0.050936799
-0.02611593 -0.059798401 0.050936799
0.048618868 -0.00065198925 -0.028419439
0.046537414 0.002445126 -0.033326104
0.039519966 0.0024883375 -0.034194235
0.029584903 -0.00054762186 -0.030061737
-0.02611593 -0.059798401 0.050936799
-0.02611593 -0.059798401 0.050936799
-0.02611593 -0.059798401 0.050936799
-0.02611593 -0.059798401 0.050936799
0.041623164 -0.004644271 -0.027360316
0.043448277 0.0035461686 -0.038250022
0.033513214 0.00051021331 -0.034117531
0.02652929 -0.00048258784 -0.033004351
-0.02611593 -0.059798401 0.050936799
-0.02611593 -0.059798401 0.050936799
-0.02611593 -0.059798401 0.050936799
-0.02611593 -0.059798401 0.050936799
0.037567731 -0.0045756483 -0.030284133
0.0345091 -0.00049321004 -0.034154341
0.027506452 -0.0014679146 -0.034040824
0.019578878 -0.0025113863 -0.029909864
-0.02611593 -0.059798401 0.050936799
-0.02611593 -0.059798401 0.050936799
-0.02611593 -0.059798401 0.050936799
-0.02611593 -0.059798401 0.050936799
0.027643535 -0.0096293576 -0.025188018
0.028502343 -0.0024713306 -0.034077633
0.023473667 -0.00041755394 -0.035946961
0.013605641 -0.0055255233 -0.027851861
-0.02611593 -0.059798401 0.050936799
-0.02611593 -0.059798401 0.050936799
-0.02611593 -0.059798401 0.050936799
-0.02611593 -0.059798401 0.050936799
0.02458792 -0.0095643243 -0.028130628
0.022495586 -0.0044494583 -0.034000926
0.018451931 -0.0013813471 -0.036870684
0.0095728571 -0.0044751586 -0.029757999
-0.02611593 -0.059798401 0.050936799
-0.02611593 -0.059798401 0.050936799
-0.02611593 -0.059798401 0.050936799
-0.02611593 -0.059798401 0.050936799
0.019584902 -0.010546206 -0.028054696
0.017492576 -0.0054313443 -0.033924993
0.011516321 -0.0044280691 -0.032794565
0.0055696582 -0.0054606334 -0.029700857
-0.02611593 -0.059798401 0.050936799
-0.02611593 -0.059798401 0.050936799
-0.02611593 -0.059798401 0.050936799
-0.02611593 -0.059798401 0.050936799
0.015529471 -0.010477583 -0.030978519
0.013474582 -0.0053988998 -0.034849491
0.0075131254 -0.0054135444 -0.032737423
0.0015516669 -0.0054281889 -0.030625358
-0.02611593 -0.059798401 0.050936799
-0.02611593 -0.059798401 0.050936799
-0.02611593 -0.059798401 0.050936799
-0.02611593 -0.059798401 0.050936799
-0.02611593 -0.059798401 0.050936799
0.0084528467 -0.0063626962 -0.035773214
0.0034951344 -0.0053810994 -0.033661924
-0.0014960953 -0.0033634976 -0.033531934
-0.02611593 -0.059798401 0.050936799
-0.02611593 -0.059798401 0.050936799
-0.02611593 -0.059798401 0.050936799
-0.02611593 -0.059798401 0.050936799
-0.02611593 -0.059798401 0.050936799
0.0034833513 -0.0083805881 -0.033715978
-0.00055637211 -0.0043126461 -0.036567722
-0.0054805679 -0.0043670577 -0.032475125
-0.02611593 -0.059798401 0.050936799
-0.02611593 -0.059798401 0.050936799
-0.02611593 -0.059798401 0.050936799
-0.02611593 -0.059798401 0.050936799
-0.02611593 -0.059798401 0.050936799
-0.0005346383 -0.0083481427 -0.034640476
-0.0045743654 -0.0042802012 -0.037492227
-0.02611593 -0.059798401 0.050936799
-0.02611593 -0.059798401 0.050936799
-0.02611593 -0.059798401 0.050936799
-0.02611593 -0.059798401 0.050936799
-0.02611593 -0.059798401 0.050936799
-0.02611593 -0.059798401 0.050936799
-0.0055337246 -0.008330198 -0.034546524
-0.0094916197 -0.0073521938 -0.032454018
-0.013497827 -0.0043202573 -0.033324469
-0.02611593 -0.059798401 0.050936799
-0.02611593 -0.059798401 0.050936799
-0.02611593 -0.059798401 0.050936799
-0.02611593 -0.059798401 0.050936799
-0.02611593 -0.059798401 0.050936799
-0.0095665101 -0.0072798375 -0.036452662
-0.0125729 -0.0042514899 -0.037341904
-0.02611593 -0.059798401 0.050936799
-0.02611593 -0.059798401 0.050936799
-0.02611593 -0.059798401 0.050936799
-0.02611593 -0.059798401 0.050936799
-0.02611593 -0.059798401 0.050936799
-0.02611593 -0.059798401 0.050936799
-0.013517465 -0.0093194107 -0.033414561
-0.017557191 -0.0052514649 -0.036266301
-0.02611593 -0.059798401 0.050936799
-0.02611593 -0.059798401 0.050936799
-0.02611593 -0.059798401 0.050936799
-0.02611593 -0.059798401 0.050936799
-0.02611593 -0.059798401 0.050936799
-0.02611593 -0.059798401 0.050936799
-0.017535456 -0.0092869662 -0.034339055
-0.021522941 -0.0062731178 -0.034209836
-0.025476908 -0.0042952793 -0.032099314
-0.02611593 -0.059798401 0.050936799
-0.02611593 -0.059798401 0.050936799
-0.02611593 -0.059798401 0.050936799
-0.02611593 -0.059798401 0.050936799
-0.02611593 -0.059798401 0.050936799
-0.021583037 -0.0072186813 -0.037226841
-0.025585318 -0.0031869179 -0.038079266
-0.027510062 -0.0032520965 -0.03404304
-0.02611593 -0.059798401 0.050936799
-0.02611593 -0.059798401 0.050936799
-0.02611593 -0.059798401 0.050936799
-0.02611593 -0.059798401 0.050936799
-0.02611593 -0.059798401 0.050936799
-0.025582306 -0.0072043259 -0.037151679
-0.028521661 -0.0062479959 -0.034078304
-0.031505402 -0.0022379064 -0.033949859
-0.02611593 -0.059798401 0.050936799
-0.02611593 -0.059798401 0.050936799
-0.02611593 -0.059798401 0.050936799
-0.02611593 -0.059798401 0.050936799
-0.02611593 -0.059798401 0.050936799
-0.028581757 -0.0071935588 -0.037095308
-0.032535724 -0.0052157203 -0.034984786
-0.035519466 -0.0012056349 -0.034856338
-0.02611593 -0.059798401 0.050936799
-0.02611593 -0.059798401 0.050936799
-0.02611593 -0.059798401 0.050936799
-0.02611593 -0.059798401 0.050936799
-0.02611593 -0.059798401 0.050936799
-0.032532711 -0.009233132 -0.0340572
-0.036531065 -0.0042015342 -0.034891605
-0.038433161 -0.003284975 -0.029837698
-0.02611593 -0.059798401 0.050936799
-0.02611593 -0.059798401 0.050936799
-0.02611593 -0.059798401 0.050936799
-0.02611593 -0.059798401 0.050936799
-0.02611593 -0.059798401 0.050936799
-0.036509331 -0.0082370313 -0.03296436
-0.040545128 -0.0031692623 -0.03579808
-0.043495353 -0.00019518554 -0.033688337
-0.02611593 -0.059798401 0.050936799
-0.02611593 -0.059798401 0.050936799
-0.02611593 -0.059798401 0.050936799
-0.02611593 -0.059798401 0.050936799
-0.02611593 -0.059798401 0.050936799
-0.02611593 -0.059798401 0.050936799
-0.043477543 -0.0052305097 -0.031779103
-0.046476077 -0.00020250794 -0.032632306
-0.02611593 -0.059798401 0.050936799
-0.02611593 -0.059798401 0.050936799
-0.02611593 -0.059798401 0.050936799
-0.02611593 -0.059798401 0.050936799
-0.02611593 -0.059798401 0.050936799
-0.045541201 -0.0071687261 -0.034776542
-0.048535809 -0.0011408898 -0.035611719
-0.049408495 -0.0022637513 -0.028613318
-0.02611593 -0.059798401 0.050936799
-0.02611593 -0.059798401 0.050936799
-0.02611593 -0.059798401 0.050936799
-0.02611593 -0.059798401 0.050936799
-0.02611593 -0.059798401 0.050936799
-0.049499094 -0.0061907177 -0.032684043
-0.051486947 -0.0031840517 -0.032592408
-0.053418633 -0.00023165264 -0.029501788
-0.02611593 -0.059798401 0.050936799
-0.02611593 -0.059798401 0.050936799
-0.02611593 -0.059798401 0.050936799
-0.02611593 -0.059798401 0.050936799
-0.02611593 -0.059798401 0.050936799
-0.055579826 -0.0030792505 -0.037515551
-0.056530416 -0.00011235161 -0.03544338
-0.059476715 0.0038615598 -0.03331561
-0.02611593 -0.059798401 0.050936799
-0.02611593 -0.059798401 0.050936799
-0.02611593 -0.059798401 0.050936799
-0.02611593 -0.059798401 0.050936799
-0.02611593 -0.059798401 0.050936799
-0.058508318 -0.0041406672 -0.033478554
-0.06049224 -0.00013417401 -0.033368897
-0.062423922 0.0028182287 -0.030278265
-0.02611593 -0.059798401 0.050936799
-0.02611593 -0.059798401 0.050936799
-0.02611593 -0.059798401 0.050936799
-0.02611593 -0.059798401 0.050936799
-0.02611593 -0.059798401 0.050936799
-0.063518263 -0.002104972 -0.03434822
-0.066498078 0.0029049404 -0.034201756
-0.06641534 0.0048322454 -0.030167069
-0.02611593 -0.059798401 0.050936799
-0.02611593 -0.059798401 0.050936799
-0.02611593 -0.059798401 0.050936799
-0.02611593 -0.059798401 0.050936799
-0.0634147 -0.0092304107 -0.027476721
-0.0684947 -0.0011052897 -0.033236589
-0.069460094 0.0028795293 -0.032146066
-0.070410684 0.0058464319 -0.030073889
-0.02611593 -0.059798401 0.050936799
-0.02611593 -0.059798401 0.050936799
-0.02611593 -0.059798401 0.050936799
-0.02611593 -0.059798401 0.050936799
-0.068428583 -0.0081945425 -0.028364409
-0.074552782 0.0029879189 -0.037050419
-0.076517984 0.0069763232 -0.035941105
-0.076416515 0.0088855466 -0.030906755
-0.02611593 -0.059798401 0.050936799
-0.02611593 -0.059798401 0.050936799
-0.02611593 -0.059798401 0.050936799
-0.02611593 -0.059798401 0.050936799
-0.073419809 -0.0061769402 -0.028234418
-0.079529218 0.0039876052 -0.035938784
-0.080461085 0.0069364114 -0.032866955
-0.080393136 0.0098816436 -0.029813908
-0.02611593 -0.059798401 0.050936799
-0.02611593 -0.059798401 0.050936799
-0.02611593 -0.059798401 0.050936799
-0.02611593 -0.059798401 0.050936799
-0.076363094 -0.0062204404 -0.025179069
-0.083472319 0.0039476939 -0.032864638
-0.084418982 0.0079144277 -0.030774448
-0.084369756 0.010877733 -0.028721076
-0.02611593 -0.059798401 0.050936799
-0.02611593 -0.059798401 0.050936799
-0.02611593 -0.059798401 0.050936799
-0.02611593 -0.059798401 0.050936799
-0.084402092 -0.0021381392 -0.027955648
-0.090477981 0.0069903899 -0.03367871
-0.091439433 0.011975043 -0.032570168
-0.089342266 0.01287725 -0.027591418
-0.02611593 -0.059798401 0.050936799
-0.02611593 -0.059798401 0.050936799
-0.02611593 -0.059798401 0.050936799
-0.02611593 -0.059798401 0.050936799
-0.089378528 -0.0011384569 -0.026844017
-0.096450299 0.0089935027 -0.032530271
-0.096397147 0.01295664 -0.030458871
-0.09636271 0.016937874 -0.029387131
-0.02611593 -0.059798401 0.050936799
-0.02611593 -0.059798401 0.050936799
-0.02611593 -0.059798401 0.050936799
-0.02611593 -0.059798401 0.050936799
-0.097380072 0.0029076624 -0.02762128
-0.1003934 0.0089535918 -0.029456116
-0.10339887 0.016999174 -0.031254929
-0.099287271 0.016876284 -0.025332123
-0.02611593 -0.059798401 0.050936799
-0.02611593 -0.059798401 0.050936799
-0.02611593 -0.059798401 0.050936799
-0.02611593 -0.059798401 0.050936799
-0.10233386 0.0048890901 -0.025491972
-0.11042418 0.015042724 -0.032159094
-0.1083566 0.017980766 -0.029143624
-0.10933678 0.022983506 -0.029034741
-0.02611593 -0.059798401 0.050936799
-0.02611593 -0.059798401 0.050936799
-0.02611593 -0.059798401 0.050936799
-0.02611593 -0.059798401 0.050936799
-0.11234984 0.0099603105 -0.027213294
-0.11434462 0.015984554 -0.028067268
-0.11735404 0.023030307 -0.029884085
-0.11731568 0.02801137 -0.028794326
-0.02611593 -0.059798401 0.050936799
-0.02611593 -0.059798401 0.050936799
-0.02611593 -0.059798401 0.050936799
-0.02611593 -0.059798401 0.050936799
-0.12031394 0.013970248 -0.025991235
-0.12435668 0.022055598 -0.029770568
-0.12330763 0.025015322 -0.027735986
-0.12125484 0.028971283 -0.025702164
-0.02611593 -0.059798401 0.050936799
-0.02611593 -0.059798401 0.050936799
-0.02611593 -0.059798401 0.050936799
-0.02611593 -0.059798401 0.050936799
-0.13031512 0.018023543 -0.026730914
-0.1343352 0.027090641 -0.029492572
-0.13734068 0.035136223 -0.031291381
-0.13124818 0.035024244 -0.026405811
-0.02611593 -0.059798401 0.050936799
-0.02611593 -0.059798401 0.050936799
-0.02611593 -0.059798401 0.050936799
-0.02611593 -0.059798401 0.050936799
-0.14228544 0.025065422 -0.026379302
-0.14833866 0.0351757 -0.031084683
-0.14528999 0.038128249 -0.02908767
-0.14122669 0.04005928 -0.026127815
-0.02611593 -0.059798401 0.050936799
-0.02611593 -0.059798401 0.050936799
-0.02611593 -0.059798401 0.050936799
-0.02611593 -0.059798401 0.050936799
-0.15527429 0.032128982 -0.02700856
-0.16232342 0.043242682 -0.031677127
-0.1582749 0.046191629 -0.029698916
-0.1521972 0.047097564 -0.025794987
-0.02611593 -0.059798401 0.050936799
-0.02611593 -0.059798401 0.050936799
-0.02611593 -0.059798401 0.050936799
-0.02611593 -0.059798401 0.050936799
-0.16621125 0.038131259 -0.024694424
-0.17425628 0.050248377 -0.029326193
-0.17022651 0.053215422 -0.02834763
-0.16820723 0.058207385 -0.028295118
-0.02611593 -0.059798401 0.050936799
-0.02611593 -0.059798401 0.050936799
-0.02611593 -0.059798401 0.050936799
-0.02611593 -0.059798401 0.050936799
-0.19122267 0.053290792 -0.027953029
-0.19322832 0.061332785 -0.029770628
-0.18819873 0.064296238 -0.028810862
-0.18316913 0.067259699 -0.027851097
-0.02611593 -0.059798401 0.050936799
-0.02611593 -0.059798401 0.050936799
-0.02611593 -0.059798401 0.050936799
-0.02611593 -0.059798401 0.050936799
-0.21115707 0.064342603 -0.026379347
-0.21417736 0.0734061 -0.029159803
-0.20715207 0.075362548 -0.028255641
-0.19811232 0.076293908 -0.026407406
-0.02611593 -0.059798401 0.050936799
-0.02611593 -0.059798401 0.050936799
-0.02611593 -0.059798401 0.050936799
-0.02611593 -0.059798401 0.050936799
-0.23507898 0.078408279 -0.024676464
-0.23408911 0.085439667 -0.026568446
-0.22205777 0.084360592 -0.024812631
-0.21604709 0.087338544 -0.02487132
-0.02611593 -0.059798401 0.050936799
-0.02611593 -0.059798401 0.050936799
-0.02611593 -0.059798401 0.050936799
-0.02611593 -0.059798401 0.050936799
-0.91433501 0.52272499 -0.22298895
-0.26099867 0.10251558 -0.02475512
-0.2529923 0.10448653 -0.024869405
-0.24500461 0.10647557 -0.025983363
-0.96306247 0.5517512 -0.21354839
-0.02611593 -0.059798401 0.050936799
-0.02611593 -0.059798401 0.050936799
-0.02611593 -0.059798401 0.050936799
-0.98066413 0.56147039 -0.19403639
-1.0741017 0.65658414 -0.23458025
-1.0271251 0.65743333 -0.23644504
-0.02611593 -0.059798401 0.050936799
-1.080425 0.62283701 -0.19205791
-1.077637 0.65514636 -0.20953158
-1.0327121 0.65705693 -0.21433976
-0.98378897 0.65393579 -0.21831352
-1.1330236 0.65576833 -0.17647214
-1.0861927 0.65776211 -0.18631622
-1.0372806 0.65665883 -0.19125357
-0.98740298 0.65157062 -0.19728152
-1.1315073 0.65325862 -0.14853644
-1.0867097 0.6562956 -0.16032423
-1.0418679 0.65627879 -0.16916709
-0.99702972 0.65526217 -0.17802796
-1.1370077 0.65580928 -0.12237845
-1.0902408 0.65585768 -0.13525754
-1.0424448 0.65386665 -0.14619215
-1.0046499 0.65592891 -0.1578664
-1.1315001 0.65128553 -0.094553977
-1.0927871 0.65643412 -0.11119129
-1.0500237 0.65549707 -0.12401323
-1.0052495 0.65253508 -0.13590913
-1.1259885 0.64776158 -0.06671147
-1.0893166 0.65195376 -0.085328534
-1.0515965 0.65408838 -0.10100147
-1.0108701 0.65319467 -0.11578515
-1.1274935 0.64929819 -0.040646657
-1.0978459 0.656551 -0.061077461
-1.057153 0.65669334 -0.077842452
-1.0174717 0.65383977 -0.094642714
-1.1210009 0.64578867 -0.013822608
-1.0903989 0.65107459 -0.036307558
-1.0567303 0.65427768 -0.054886281
-1.0240881 0.65550274 -0.074481927
-1.1225059 0.64732528 0.012242191
-1.0849433 0.64760494 -0.011464059
-1.0613097 0.65589726 -0.032763749
-1.0226882 0.65210164 -0.052562237
-1.1209967 0.64783311 0.039232269
-1.0884856 0.64918476 0.012639008
-1.0528892 0.64843565 -0.0090483427
-1.0272901 0.65273958 -0.031457372
-1.1145226 0.64434171 0.065056667
-1.0830263 0.64671499 0.037500553
-1.0584645 0.65105867 0.013110995
-1.0298964 0.65237051 -0.010408126
-1.1160387 0.64789599 0.090157837
-1.089556 0.65130514 0.061714046
-1.0630212 0.65366006 0.03625121
-1.0265008 0.64796239 0.011455983
-1.1075798 0.64541543 0.114963
-1.077155 0.64384717 0.084354632
-1.0655822 0.65525454 0.05933582
-1.0330945 0.65060717 0.032634452
-1.1001021 0.64292032 0.14078663
-1.0826623 0.64941543 0.10956701
-1.0621599 0.65282792 0.082235619
-1.0346972 0.65123433 0.053682931
-1.0956308 0.64345354 0.16572101
-1.0752261 0.6459567 0.13337329
-1.0488005 0.6444028 0.10284008
-1.0332932 0.6488331 0.075620651
-1.0871682 0.64197278 0.1905442
-1.0678045 0.64351588 0.15619792
-1.0443784 0.64197278 0.12572108
-1.0299311 0.64546108 0.095503442
-1.0807199 0.64151716 0.21442333
-1.0633559 0.64306736 0.18011463
-1.0449585 0.64357805 0.14776844
-1.0265275 0.6430527 0.11740358
-1.0732532 0.64103973 0.23928332
-1.0599219 0.6436404 0.20306846
-1.043528 0.64315838 0.17074186
-1.0340947 0.64768261 0.13963655
-1.0658051 0.64058053 0.26314366
-1.0544736 0.6431883 0.22696638
-1.0470772 0.64775586 0.19389933
-1.038666 0.65130192 0.16179511
-1.0563573 0.64011407 0.28696638
-1.0480478 0.64175087 0.24982783
-1.0406741 0.64533669 0.21574309
-1.0282983 0.64488715 0.18249199
-1.0459325 0.63866234 0.30975267
-1.0406412 0.64032799 0.27167082
-1.0312796 0.64090711 0.23749445
-1.0338696 0.6485101 0.20466933
-1.0365036 0.63821399 0.33257577
-1.0312161 0.63887984 0.29447588
-1.0258687 0.64049119 0.25939304
-1.0294623 0.64709789 0.2265687
-1.0270705 0.63876545 0.35541686
-1.0258012 0.63946372 0.31639251
-1.0244304 0.64207125 0.28240249
-1.0260551 0.64568937 0.24848685
-1.0156647 0.63732821 0.37718469
-1.0193677 0.64002597 0.33928996
-1.0160464 0.63966298 0.30320901
-1.0206666 0.64429164 0.26936778
-1.0032589 0.63588738 0.39893374
-1.0050155 0.63461477 0.35893005
-1.0126312 0.64025408 0.32516319
-1.0152634 0.64187616 0.29123032
-0.99186784 0.63546801 0.41971993
-1.0005699 0.63818371 0.38191918
-1.0141579 0.64582616 0.34930074
-1.0059063 0.63748276 0.31098238
-0.98442668 0.63802624 0.44263467
-0.98918664 0.63576478 0.40266934
-0.99880975 0.63941151 0.36890399
-1.0114285 0.64406902 0.33521309
-0.97500855 0.63959569 0.46449411
-0.97977644 0.63533449 0.42449272
-0.99241775 0.63901013 0.38978416
-1.0040444 0.64166427 0.35603839
-0.95569468 0.63420278 0.48204091
-0.96543503 0.63194102 0.44316918
-0.98303008 0.63759816 0.4105899
-0.99169177 0.63626033 0.37571606
-0.94329977 0.63477969 0.50282633
-0.96296644 0.63649887 0.46721357
-0.9746384 0.63718957 0.43143246
-0.99621403 0.64284295 0.399928
-0.92992777 0.63437122 0.52257526
-0.94664407 0.6331163 0.48485279
-0.96625066 0.63578111 0.45225698
-0.97891158 0.63445765 0.4174583
-0.91855133 0.63496977 0.54237986
-0.94119865 0.63668162 0.50782305
-0.95388615 0.63337666 0.47198871
-0.97844261 0.63902271 0.44154027
-0.90517533 0.63556117 0.56214678
-0.92489898 0.63231742 0.52444458
-0.9484635 0.63596022 0.49394131
-0.97105461 0.63761783 0.4623836
-0.88294077 0.62922996 0.57562053
-0.91549969 0.63390493 0.54530442
-0.93709493 0.63455909 0.51370984
-0.96661288 0.64018691 0.48535472
-0.8705833 0.62984306 0.5944066
-0.90115047 0.6325112 0.56401688
-0.93562222 0.64012039 0.53779101
-0.9493292 0.63181973 0.50188535
-0.85524905 0.62946361 0.6121186
-0.8897928 0.63312787 0.58282179
-0.91932255 0.63575613 0.5544126
-0.9399603 0.63042587 0.52169144
-0.8477962 0.63502145 0.63508749
-0.87446636 0.63074875 0.60049784
-0.9089312 0.63534033 0.57521755
-0.93056875 0.63001364 0.54251522
-0.82362205 0.62773752 0.64550662
-0.86408585 0.63235068 0.62033916
-0.89362746 0.63197958 0.59187591
-0.92712301 0.63358623 0.56552315
-0.81125289 0.63135004 0.66434681
-0.84582013 0.62901527 0.63494176
-0.87830102 0.62960035 0.60955179
-0.90982747 0.62821853 0.58210778
-0.7900517 0.62605852 0.67585802
-0.83443981 0.63061368 0.65476429
-0.86497426 0.62722856 0.62726545
-0.90734011 0.63275832 0.60715187
-0.77865964 0.63065642 0.69573462
-0.81619281 0.62729627 0.66836727
-0.85952103 0.63279355 0.65027177
-0.89301348 0.63038278 0.62484664
-0.75843161 0.62734991 0.70830035
-0.80380875 0.62989104 0.68818915
-0.8432135 0.63042891 0.66692936
-0.88359934 0.63095242 0.6466881
-0.74117655 0.62603587 0.72195816
-0.78556168 0.62657362 0.70179206
-0.82890165 0.6290713 0.68364251
-0.86927271 0.62857682 0.66438287
-0.72489864 0.62570709 0.73665243
-0.77124596 0.62621588 0.71852314
-0.8194797 0.63164055 0.70551997
-0.8559233 0.62718666 0.68311417
-0.70666242 0.62440753 0.74929172
-0.75692236 0.6278578 0.73529041
-0.80221373 0.62830871 0.72014147
-0.84552413 0.62877059 0.70395517
-0.68842238 0.62410778 0.76194906
-0.73769426 0.62455493 0.74787498
-0.78592098 0.62696201 0.73581731
-0.83512884 0.62935466 0.72477823
-0.6711821 0.6238116 0.77462524
-0.72630221 0.62915289 0.76775157
-0.77355969 0.62857497 0.75462145
-0.81979847 0.6279754 0.74247217
-0.65100634 0.62155926 0.78421003
-0.70513839 0.62389743 0.77726346
-0.75333554 0.62426871 0.76716918
-0.80446815 0.62659603 0.76016617
-0.63767081 0.62620425 0.80105013
-0.68887925 0.62358677 0.79095811
-0.7399931 0.62589604 0.78495479
-0.79011101 0.62720197 0.77891469
-0.61652189 0.62196678 0.80958039
-0.67062044 0.6232689 0.80461508
-0.72367769 0.62553108 0.80164844
-0.77382231 0.62485546 0.79457259
-0.59541041 0.61776543 0.81611133
-0.6533801 0.62297279 0.81729126
-0.70544547 0.62323177 0.81426972
-0.76142341 0.62643218 0.81537604
-0.58009392 0.62242132 0.83191413
-0.63612109 0.62265849 0.83096707
-0.68814903 0.62288129 0.82994491
-0.74510807 0.62606728 0.83206964
-0.55900115 0.61823809 0.83744544
-0.61885816 0.623344 0.84466094
-0.67380673 0.62450504 0.84771174
-0.72779685 0.62469882 0.84872639
-0.54079461 0.61897439 0.84812146
-0.60261375 0.62405127 0.85737389
-0.65654773 0.62419081 0.86138761
-0.71050435 0.62334865 0.86438352
-0.52454227 0.62168127 0.86087042
-0.58341914 0.62178451 0.86797708
-0.63831156 0.62289125 0.87402695
-0.69027638 0.6200422 0.87694931
-0.50344557 0.61849791 0.86641979
-0.56323951 0.62053204 0.87757987
-0.62101114 0.62354064 0.88972008
-0.6788094 0.62456775 0.90082455
-0.48719335 0.62120479 0.87916875
-0.54405969 0.61928308 0.88720149
-0.59888119 0.61931765 0.89723188
-0.6576004 0.62127584 0.91237181
-0.46611539 0.61803949 0.88371843
-0.52583444 0.62000126 0.89887714
-0.58059967 0.61998153 0.9119066
-0.64028132 0.62190711 0.92906457
-0.44505218 0.61589211 0.88728642
-0.50665069 0.61975217 0.90851682
-0.56431389 0.62165242 0.92663687
-0.62102658 0.62058586 0.94268483
-0.42784145 0.61763179 0.89799935
-0.4884254 0.62047035 0.92019248
-0.54602844 0.62331617 0.9413296
-0.60174918 0.62024635 0.95732272
-0.40869126 0.61841869 0.90565759
-0.46730602 0.61826867 0.92675948
-0.5258528 0.62106383 0.95091438
-0.58149469 0.61892152 0.9709242
-0.39051816 0.62019098 0.91435236
-0.44812226 0.61801952 0.9363991
-0.50467336 0.61980778 0.96049839
-0.5612362 0.61859649 0.98454362
-0.36950025 0.61608011 0.91588503
-0.42991173 0.61975569 0.94709313
-0.48351651 0.61756992 0.96906471
-0.54195094 0.6202566 0.99921757
-0.35041407 0.61492163 0.92050827
-0.4078753 0.61562312 0.94960666
-0.46235579 0.61633193 0.97764897
-0.52169251 0.61993152 1.0128369
-0.33223709 0.61769372 0.92922103
-0.38868371 0.6173737 0.95928228
-0.44217613 0.6150794 0.98725182
-0.49854004 0.61668676 1.0213478
-0.31121135 0.61558247 0.93078977
-0.3666473 0.61324114 0.96179581
-0.42292446 0.61777556 0.99994445
-0.4783003 0.61637974 1.0339675
-0.29120806 0.6124931 0.93135953
-0.34749702 0.61402804 0.96945411
-0.40180513 0.61557394 1.0065114
-0.45703414 0.61805087 1.0476042
-0.27211791 0.61233449 0.93600082
-0.32641119 0.61286247 0.97403973
-0.38159493 0.61730289 1.0171679
-0.43581334 0.61775839 1.0592054
-0.25395966 0.61512464 0.9437139
-0.30721566 0.61561286 0.98373342
-0.35758156 0.61218143 1.0186262
-0.41167581 0.61552787 1.0667158
-0.2339485 0.61403501 0.94431973
-0.2862165 0.61152005 0.98426646
-0.33826581 0.61682296 1.0343537
-0.38666651 0.60940301 1.0681373
-0.2148771 0.61389446 0.94796139
-0.26608518 0.6123215 0.99090624
-0.31713858 0.61662096 1.0409569
-0.36728674 0.61598998 1.0868999
-0.1958244 0.61377198 0.95060337
-0.24497274 0.61313742 0.99652767
-0.29409844 0.61348456 1.0434695
-0.34412637 0.61474472 1.0954467
-0.1758773 0.61073691 0.94817418
-0.2249015 0.61299324 1.0001504
-0.27192611 0.61524254 1.0520892
-0.32002631 0.61255044 1.1009575
-0.15680197 0.61159617 0.95183378
-0.20298134 0.60796952 0.99664801
-0.24981776 0.61505502 1.0576738
-0.29496384 0.61038876 1.1044505
-0.13780935 0.61052817 0.95145875
-0.18282343 0.61075246 1.0043236
-0.22587925 0.61000592 1.0551333
-0.27084109 0.6091761 1.1109791
-0.11879412 0.61044192 0.95210147
-0.16179375 0.60964108 1.0059102
-0.20474811 0.61080372 1.0617543
-0.24671443 0.60896337 1.1175257
-0.099778876 0.61035562 0.95274407
-0.14078282 0.60854787 1.0064973
-0.18261322 0.61259782 1.0683746
-0.22258383 0.60975039 1.1240904
-0.080722257 0.611233 0.95540404
-0.12064365 0.61134887 1.0131732
-0.15865204 0.60853052 1.066852
-0.19847587 0.60955578 1.1296374
-0.061744444 0.61118287 0.95404732
-0.099760719 0.60636485 1.0076902
-0.13653588 0.61034268 1.0724726
-0.1743906 0.6083793 1.1341667
-0.042770579 0.61013299 0.95267266
-0.07961762 0.61016572 1.014384
-0.11448374 0.61020941 1.0750582
-0.14934292 0.60723555 1.1366779
-0.024773872 0.61006838 0.9523344
-0.058666762 0.60812688 1.0119541
-0.091454424 0.60909081 1.0766072
-0.12427261 0.60707349 1.1402069
-0.0067092143 0.61294895 0.95504922
-0.037583932 0.61097866 1.0156122
-0.068421192 0.60897213 1.0781745
-0.10013809 0.60886037 1.1467896
0.012181912 0.60997176 0.94963992
-0.016719745 0.60601264 1.0091295
-0.045470707 0.60692614 1.0757068
-0.07423345 0.6048401 1.1422302
0.030159898 0.60992521 0.94830191
0.0022354079 0.60498077 1.0067551
-0.022373442 0.60875279 1.080309
-0.04911783 0.60664147 1.1477945
0.049118973 0.6098932 0.94594562
0.023386186 0.61077785 1.0134662
-0.0013960078 0.60869545 1.0789149
-0.024213005 0.60262471 1.143254
0.067059517 0.60988289 0.94260842
0.04323183 0.60583353 1.0060028
0.021535762 0.60666758 1.0754476
-0.00015337579 0.60448408 1.145838
0.084932096 0.60692728 0.93621814
0.064167894 0.60481256 1.0025911
0.04457685 0.60854852 1.0770507
0.025860589 0.60437268 1.1463491
0.10289136 0.6068989 0.93388063
0.0841268 0.60477698 1.000216
0.067444593 0.60457522 1.0705484
0.050837293 0.6043011 1.1448797
0.12185436 0.60786676 0.93154222
0.10504413 0.60377407 0.99580479
0.090384215 0.6045469 1.0671175
0.075855374 0.60519302 1.1454276
0.13979883 0.60885626 0.92822307
0.12494291 0.60279298 0.99041265
0.11236539 0.60548592 1.0657223
0.10179051 0.60415423 1.1419221
0.15773937 0.60884589 0.92488587
0.14492448 0.60373908 0.98905522
0.1353011 0.60445774 1.0622731
0.12668841 0.60315502 1.136436
0.17459734 0.60691184 0.91753274
0.16480455 0.60277605 0.98266339
0.15711679 0.60154212 1.0528088
0.15162374 0.60211974 1.1329491
0.19254182 0.60790139 0.91421354
0.18474472 0.60275859 0.97928858
0.18012042 0.60345918 1.0524126
0.17546171 0.60017872 1.124465
0.21042225 0.60694546 0.90785933
0.20569256 0.60473704 0.97593105
0.20202279 0.60347068 1.0470009
0.20037831 0.59916151 1.1199785
0.22732553 0.6069749 0.90254158
0.22563666 0.60571945 0.97257423
0.22490233 0.60249686 1.0405527
0.22630653 0.60114014 1.1155274
0.24522863 0.60700071 0.89720505
0.24449819 0.60477799 0.96520162
0.24682733 0.60349011 1.0361587
0.25124967 0.60210454 1.1120765
0.26319966 0.60997182 0.8949216
0.26438218 0.60481477 0.95882785
0.26764712 0.60157788 1.0267311
0.27506897 0.60018158 1.1025926
0.27899775 0.60709578 0.8845703
0.28324372 0.60387337 0.95145518
0.28953078 0.60160744 1.0203198
0.29889214 0.59925848 1.0931268
0.29588225 0.60714334 0.87825286
0.30208656 0.60295004 0.94308281
0.3124595 0.60359693 1.0159249
0.32275668 0.59929895 1.0856782
0.31383461 0.61013246 0.87496972
0.32095203 0.60300851 0.93572819
0.33226079 0.60170639 1.0055165
0.34762499 0.6003356 1.0782286
0.32861021 0.60627824 0.86361945
0.34086257 0.60502678 0.93039006
0.35408434 0.60079044 0.99608815
0.37042964 0.59943414 1.0677819
0.34654379 0.60928553 0.85933661
0.35864159 0.60216171 0.91900152
0.37387079 0.59991771 0.98469812
0.39530182 0.60147071 1.0603505
0.36441338 0.61034739 0.85201883
0.37749225 0.60323805 0.91066521
0.39467579 0.59902346 0.97428888
0.40129974 0.57631826 1.0117668
0.37923822 0.60945654 0.842722
0.39742547 0.60623813 0.90634483
0.41654858 0.60107082 0.96691382
0.44295996 0.60262382 1.0414727
0.39714912 0.61148202 0.83742154
0.4152084 0.6043728 0.89497429
0.43635768 0.6011799 0.95654142
0.46366352 0.59982044 1.0260291
0.41088745 0.60766762 0.82409072
0.43199539 0.60351104 0.88364053
0.45720798 0.60224909 0.94816756
0.48747972 0.6019147 1.0156176
0.42673475 0.60775495 0.8157928
0.4498049 0.60362732 0.87330574
0.47906595 0.60531431 0.93981093
0.50716472 0.5991329 0.99919313
0.4415448 0.60788196 0.80551434
0.46868211 0.60668522 0.86600512
0.49675134 0.60253966 0.92342407
0.52996242 0.60124898 0.98780078
0.4584372 0.60992914 0.79923302
0.48336017 0.60192168 0.84963864
0.51447803 0.60072863 0.90905458
0.55171502 0.60140526 0.97439182
0.47113827 0.6061545 0.78392172
0.50323725 0.60497594 0.84231919
0.53631735 0.60381198 0.89969826
0.5724076 0.60061944 0.95798457
0.4869895 0.60724163 0.7756418
0.52107328 0.60707384 0.83302009
0.55302548 0.60202265 0.88434786
0.5921005 0.59983724 0.94159615
0.50282198 0.60834682 0.76636225
0.53477812 0.60429549 0.81770802
0.57178247 0.60318947 0.87101328
0.61387968 0.60197502 0.92922294
0.51661348 0.60849553 0.75510287
0.55257279 0.60542965 0.8063916
0.59158081 0.60531628 0.85967726
0.63355374 0.60121095 0.91183478
0.53346848 0.61057895 0.74682224
0.56625891 0.60266936 0.79007983
0.6051842 0.60062873 0.83933079
0.65325451 0.60242844 0.89548242
0.54825979 0.61072403 0.73554409
0.58305371 0.60380715 0.77878213
0.62394512 0.60279536 0.82601422
0.66884667 0.59975135 0.8741349
0.55998361 0.60793471 0.72126931
0.59676647 0.60302836 0.76350623
0.6416797 0.60298401 0.81168079
0.68856609 0.60095072 0.85878217
0.57582402 0.6110397 0.71202576
0.61354256 0.60418433 0.75120878
0.65633214 0.60125607 0.79336894
0.70213985 0.59829897 0.83647245
0.59164172 0.6131627 0.70176446
0.62827766 0.60438377 0.73693168
0.67305213 0.60246623 0.77807266
0.72388548 0.6014728 0.82211792
0.60541451 0.61332953 0.68950552
0.64403528 0.60556126 0.72365344
0.69079053 0.60365468 0.76375717
0.73848176 0.5997991 0.80080706
0.61614251 0.61154372 0.67526752
0.65468061 0.60184807 0.7053808
0.70444709 0.60293019 0.74548221
0.7561453 0.60106003 0.782493
0.6268478 0.60877603 0.66001189
0.6704421 0.60402542 0.69212067
0.72012591 0.60318029 0.72818732
0.76870048 0.59842992 0.75920248
0.64265072 0.61191714 0.64876902
0.6872074 0.60719913 0.67885965
0.73480874 0.60443389 0.71092927
0.7894581 0.60460675 0.74492073
0.6564275 0.61308372 0.63652802
0.69992417 0.60742378 0.66362047
0.74542058 0.60175663 0.69067532
0.8020134 0.60197669 0.72163022
0.66613692 0.6113196 0.6213091
0.71261829 0.60666674 0.64736354
0.76212573 0.60398471 0.67439729
0.8196848 0.60523713 0.70335209
0.67784995 0.61054802 0.60607076
0.7263388 0.60788763 0.63212359
0.77579004 0.60525995 0.65615833
0.83024436 0.60361403 0.68011719
0.69365293 0.61368901 0.59482789
0.7380144 0.60715228 0.61488587
0.78843194 0.60555696 0.63692051
0.84487104 0.60492182 0.65986007
0.70031756 0.60997206 0.57763004
0.74869025 0.60642046 0.59766692
0.80007404 0.60585761 0.61770147
0.85238582 0.60134602 0.63464618
0.71508324 0.61315292 0.56440663
0.76239598 0.60865927 0.58144528
0.80966729 0.60320204 0.5964666
0.86599404 0.6026755 0.61340821
0.72682285 0.61436296 0.55020386
0.77204925 0.60694939 0.56322742
0.82333946 0.60647696 0.57826376
0.8765614 0.60305202 0.59020936
0.73551381 0.61262041 0.53400421
0.78271019 0.60723549 0.54502684
0.83498544 0.60777736 0.55906272
0.89322221 0.60833389 0.57098639
0.74623096 0.61285233 0.51880252
0.79339385 0.6085034 0.52784389
0.84156054 0.60515076 0.53688455
0.89571524 0.60379422 0.5448488
0.75795186 0.61408037 0.50360018
0.80102885 0.60681868 0.50866401
0.85421026 0.60744745 0.51768273
0.90830874 0.6061452 0.52264804
0.76562423 0.61235946 0.48641956
0.81068599 0.60610861 0.49046415
0.86483371 0.60776973 0.49748284
0.91687655 0.60652894 0.49948668
0.77229285 0.60964239 0.46923974
0.82137358 0.60837632 0.47329929
0.87343895 0.60811734 0.47632083
0.92342198 0.6059382 0.47534525
0.78299522 0.61089218 0.45305648
0.83304226 0.61065847 0.45511591
0.88002193 0.6074903 0.45417872
0.93199366 0.60732174 0.45220196
0.79269773 0.61214548 0.436892
0.83865881 0.60899907 0.43497396
0.89167565 0.61079043 0.43501371
0.94056529 0.60870534 0.42905867
0.80037403 0.61142451 0.41972947
0.84327173 0.60634339 0.41483271
0.89423281 0.6081962 0.4119111
0.94813704 0.61009246 0.40593415
0.81005788 0.61269593 0.4025653
0.85494423 0.60962546 0.39666736
0.90486801 0.61151803 0.39176524
0.95064193 0.6085524 0.37985057
0.81873798 0.61297113 0.38540196
0.86461329 0.61191475 0.37852159
0.91145492 0.61189079 0.36964116
0.95318812 0.6079759 0.35578427
0.82744074 0.61422813 0.36925629
0.86923403 0.6112588 0.35841644
0.91503835 0.6112746 0.34755543
0.96076381 0.61036295 0.33267778
0.83309865 0.61353236 0.35113162
0.87888426 0.61356622 0.33927101
0.92465514 0.61461806 0.32642868
0.9693473 0.61474603 0.30958852
0.83975643 0.61283302 0.3329882
0.88350499 0.61291027 0.31916577
0.92721605 0.61302364 0.30334407
0.97189349 0.61416948 0.28552228
0.84539568 0.61215538 0.31386384
0.88610339 0.61127973 0.2980805
0.92879993 0.61241466 0.28129596
0.97242135 0.61361831 0.26049396
0.85207605 0.61243773 0.29673809
0.88970554 0.61064535 0.27699444
0.93439078 0.61379087 0.25920868
0.9779827 0.61703044 0.2364434
0.85974544 0.61473429 0.27862987
0.8943302 0.61098921 0.25690725
0.9359746 0.61318183 0.23716053
0.63057971 0.38279223 0.15668355
0.86235869 0.61208582 0.25852624
0.90198475 0.61430371 0.23781744
0.61163247 0.38582373 0.15909395
0.59910572 0.36128712 0.13587677
0.87205434 0.61635679 0.24141617
0.61782217 0.40569028 0.16533954
0.58520287 0.36626413 0.14022858
0.60082847 0.36255106 0.1208623
0.60291946 0.41067091 0.16971014
0.58838141 0.38314193 0.14647649
0.56683683 0.35363847 0.12333833
0.58850366 0.35588479 0.10496707
0.56643379 0.38116696 0.14985283
0.575041 0.37247989 0.13052797
0.56155992 0.34991032 0.10936495
0.57016021 0.34424084 0.089094505
0.55713791 0.37245405 0.13586453
0.5657531 0.36576661 0.11657571
0.55125338 0.34321874 0.09443181
0.55985767 0.33854908 0.074179381
-0.02611593 -0.059798401 0.050936799
0.55646116 0.35805357 0.10260542
0.55804712 0.34840986 0.082394436
0.5636254 0.3417694 0.061162684
0.5516246 0.36594349 0.10984115
0.55318791 0.35531807 0.088612489
0.55377394 0.34567797 0.068420291
0.55835629 0.34004092 0.047225345
0.55640686 0.36814231 0.097787306
0.55294055 0.3545534 0.075598873
0.55353451 0.34691295 0.055442713
0.5551095 0.33928701 0.034268104
0.54813355 0.3604075 0.084797889
0.54868615 0.35180342 0.06262438
0.55629832 0.34913704 0.042426787
0.56287342 0.34651035 0.020248652
0.55392349 0.36460239 0.072761282
0.5514726 0.35500923 0.05062614
0.54904056 0.34539798 0.029490655
0.56262308 0.34976313 0.0063074529
0.55768716 0.36682281 0.059726566
0.5572626 0.35920408 0.038589537
0.54780126 0.34663653 0.016531868
-0.02611593 -0.059798401 0.050936799
0.56648445 0.37300658 0.047669627
0.55902666 0.36143169 0.0255924
0.56258357 0.35883391 0.0024709739
-0.02611593 -0.059798401 0.050936799
0.57327813 0.37819767 0.035632253
0.55777955 0.36067063 0.012597572
0.56032181 0.35909432 -0.011486698
-0.02611593 -0.059798401 0.050936799
0.56200141 0.36947384 0.022681192
0.56052864 0.36391261 -0.0013999939
0.57107824 0.36932451 -0.02650813
0.59258229 0.38276792 -0.055677455
0.55475831 0.36471689 0.010726698
0.5602892 0.36514759 -0.014377568
0.56982023 0.37058115 -0.040466573
0.58930987 0.38504967 -0.070579953
0.58555824 0.38687325 -0.0044543147
0.57104558 0.37537774 -0.029398996
0.5765695 0.37882602 -0.055448879
0.60701758 0.4023259 -0.089605428
0.58931112 0.39111143 -0.018452667
0.57880956 0.38260105 -0.043418452
0.59230328 0.39307374 -0.072491497
0.91019112 0.63080591 -0.18017937
0.56105047 0.37139624 -0.028283503
0.58354741 0.38785365 -0.05841722
0.59602654 0.39934778 -0.088453144
0.89381474 0.6252082 -0.19898042
0.57779884 0.38462242 -0.044363283
0.59027797 0.39611655 -0.074399188
0.90119278 0.63083822 -0.18001026
0.89140415 0.63063049 -0.22184494
0.58454031 0.39086765 -0.059381623
0.60998535 0.41338557 -0.093462251
0.88781983 0.62622952 -0.19884965
0.87702447 0.6290428 -0.24161112
0.5902819 0.39711636 -0.074381173
0.89518988 0.62985992 -0.17991555
0.88542789 0.6316337 -0.22071451
0.21003507 0.12178545 -0.031227756
0.60101569 0.40636483 -0.090420268
0.88781285 0.62924707 -0.19979525
0.87605113 0.631028 -0.24055663
0.19598749 0.11385515 -0.032108508
0.89520466 0.62884206 -0.17893389
0.88342828 0.63164091 -0.22067693
0.20604667 0.11978207 -0.030188974
-0.02611593 -0.059798401 0.050936799
0.88682395 0.62723291 -0.19881284
0.87705493 0.63202423 -0.2405574
0.19201389 0.11083385 -0.030088075
0.16691817 0.09496247 -0.03190593
0.88941234 0.63263732 -0.22177131
0.2070504 0.12077831 -0.030189745
-0.02611593 -0.059798401 0.050936799
-0.02611593 -0.059798401 0.050936799
0.87806171 0.62900305 -0.23963062
0.19299889 0.11184818 -0.031088501
0.16693689 0.09494438 -0.030906264
0.1408788 0.079040401 -0.030706007
0.21004987 0.12076755 -0.030246116
-0.02611593 -0.059798401 0.050936799
-0.02611593 -0.059798401 0.050936799
-0.02611593 -0.059798401 0.050936799
0.18604364 0.1038023 -0.027102474
0.17090657 0.096965857 -0.032944709
0.14785577 0.083050773 -0.032764781
0.1228389 0.06810689 -0.030565977
-0.02611593 -0.059798401 0.050936799
-0.02611593 -0.059798401 0.050936799
-0.02611593 -0.059798401 0.050936799
-0.02611593 -0.059798401 0.050936799
0.1629515 0.088923573 -0.028939895
0.14686683 0.08103662 -0.031782378
0.12584226 0.069095947 -0.030604333
0.1048325 0.056137342 -0.028444652
-0.02611593 -0.059798401 0.050936799
-0.02611593 -0.059798401 0.050936799
-0.02611593 -0.059798401 0.050936799
-0.02611593 -0.059798401 0.050936799
0.14487022 0.077026397 -0.030817203
0.13179678 0.072128154 -0.033662006
0.11079093 0.060169399 -0.03148431
0.092792407 0.050199516 -0.029326938
-0.02611593 -0.059798401 0.050936799
-0.02611593 -0.059798401 0.050936799
-0.02611593 -0.059798401 0.050936799
-0.02611593 -0.059798401 0.050936799
0.12385651 0.063067958 -0.028675541
0.1187303 0.064212359 -0.035561204
0.099735864 0.055245899 -0.033367023
0.078797065 0.041215118 -0.027226716
-0.02611593 -0.059798401 0.050936799
-0.02611593 -0.059798401 0.050936799
-0.02611593 -0.059798401 0.050936799
-0.02611593 -0.059798401 0.050936799
0.10683122 0.05111292 -0.027572665
0.10172764 0.05323907 -0.033440638
0.082766742 0.043236598 -0.029265158
0.067794234 0.035237525 -0.026128467
-0.02611593 -0.059798401 0.050936799
-0.02611593 -0.059798401 0.050936799
