# .PCD v0.7 - Point Cloud Data file format
VERSION 0.7
FIELDS x y z
SIZE 4 4 4
TYPE F F F
COUNT 1 1 1
WIDTH 1418
HEIGHT 1
VIEWPOINT 0 0 0 1 0 0 0
POINTS 1418
DATA ascii
-1.194957 0.051920466 0.15587708
-1.1854656 0.066424876 0.1259516
-0.02611593 -0.059798401 0.050936799
-1.2198573 0.038912389 0.21712875
-1.1964471 0.052439071 0.18292354
-1.1989535 0.066986538 0.15322354
-0.02611593 -0.059798401 0.050936799
-1.2213287 0.039412901 0.24517485
-1.2178737 0.05397502 0.21336278
-1.1944528 0.06548395 0.18012121
-0.02611593 -0.059798401 0.050936799
-1.2586508 0.042915486 0.28094912
-1.2213448 0.054482706 0.24144647
-1.2139208 0.066049062 0.20850556
-1.2793832 0.029730255 0.35112256
-1.2760366 0.04540072 0.31333056
-1.2337729 0.055986352 0.27171662
-1.2213726 0.066553034 0.23766406
-0.02611593 -0.059798401 0.050936799
-1.3212596 0.0498414 0.35427147
-1.2780563 0.059477881 0.30962175
-1.2477605 0.06807074 0.27019662
-6.2388635 0.40635031 1.8452965
-1.3545036 0.054257102 0.39398721
-1.3033805 0.062937394 0.3451705
-0.02611593 -0.059798401 0.050936799
-3.0858011 0.17396367 1.0107762
-0.02611593 -0.059798401 0.050936799
-1.3037999 0.062380228 0.3761788
-0.02611593 -0.059798401 0.050936799
-3.1270502 0.18247017 1.1027336
-3.1029227 0.20927198 0.99773103
-0.02611593 -0.059798401 0.050936799
-1.3078159 0.072447136 0.37343517
-3.1841614 0.19190732 1.2020072
-3.1074228 0.21286364 1.076907
-3.1089988 0.23746961 0.98835164
-1.3360686 0.074845247 0.41302091
-3.2620175 0.20318435 1.3147069
-3.1715178 0.22130798 1.1772939
-3.0956304 0.23710589 1.0611194
-3.1160915 0.25665435 0.9798286
-3.3298566 0.2144074 1.4282186
-3.2474155 0.23161413 1.2879388
-3.164691 0.24453221 1.1635815
-3.093755 0.25327691 1.0513735
-3.4124794 0.22748491 1.5530443
-3.3103011 0.24085578 1.3993211
-3.2316585 0.25186086 1.2710043
-3.158843 0.25870726 1.1527247
-3.4770906 0.23947999 1.6785136
-3.3949125 0.25192276 1.5251482
-3.2985282 0.26009887 1.3834435
-3.2367561 0.26502129 1.2633352
-4.7590494 0.3612659 2.4149678
-3.4873276 0.26483724 1.6611582
-3.3841658 0.26918793 1.5082536
-3.2917187 0.26928931 1.3714782
-4.657506 0.36140522 2.4960966
-4.7961416 0.3936103 2.4042439
-3.4686503 0.27912846 1.6410601
-3.383322 0.27736384 1.4983822
-4.588623 0.36535487 2.5949121
-4.6619124 0.38690376 2.4696317
-4.8202047 0.41483757 2.3970759
-3.4619129 0.28437382 1.6260237
-3.4310257 0.26462355 2.0492315
-4.5931048 0.38590848 2.5653577
-4.691874 0.40504456 2.4685204
-4.8104901 0.41909039 2.3809655
-4.6249776 0.38916442 2.8911238
-3.4541125 0.27984822 2.0419366
-4.5774994 0.39626545 2.5422451
-4.684175 0.4053053 2.4523754
-3.3252759 0.27061135 2.1934087
-4.6491537 0.40548295 2.8788674
-3.4493146 0.28604633 2.0299551
-4.5816188 0.39438868 2.5362861
-4.4022126 0.38967893 3.0360115
-3.4984939 0.29564312 2.285136
-4.6563015 0.41067007 2.8700922
-3.4465029 0.28119925 2.0208116
-4.2958717 0.39099914 3.1060681
-4.4164777 0.39801717 3.0204241
-4.5379605 0.40291256 2.9417603
-4.6594481 0.40179086 2.8639884
-4.1895728 0.39135572 3.1741073
-4.3071771 0.39434564 3.0893345
-4.4265819 0.39514405 3.0155594
-3.541285 0.28958142 2.2978318
-2.7552347 0.24333474 2.1952431
-2.6064918 0.21877 1.9719385
-4.3192539 0.38844398 3.086453
-4.4267607 0.37825549 3.0092556
-3.9830446 0.39316261 3.306318
-2.7594705 0.24056669 2.1832685
-2.6006889 0.21191245 1.9627028
-4.3233323 0.36846173 3.0861678
-2.3863709 0.21790706 2.0828393
-3.9874156 0.38450411 3.2882373
-2.7615616 0.23162967 2.180145
-2.6037288 0.19690768 1.9634885
-1.89501 0.16624336 1.7345871
-2.3934903 0.21102381 2.0778463
-3.9905009 0.36753586 3.2869878
-2.755671 0.21364734 2.1777084
-1.8513322 0.16843735 1.7698209
-1.9020736 0.15930586 1.7325931
-2.3975184 0.19902211 2.0787051
-3.996464 0.33841765 3.2945752
-1.8321925 0.17228654 1.8295524
-1.8544456 0.15852214 1.7656984
-1.9021394 0.14732599 1.7313774
-2.3975406 0.17897123 2.0813434
-1.9983656 0.2023903 2.0822937
-1.833329 0.16138245 1.8243747
-1.8525158 0.14553528 1.7644269
-1.9031166 0.1292422 1.73607
-2.2043805 0.23855467 2.3959115
-2.0083439 0.18835619 2.0862281
-1.837275 0.14629082 1.8301775
-1.8544629 0.12541924 1.7711018
-3.3105526 0.40654495 3.7491195
-2.2035677 0.21966282 2.3895524
-2.0250332 0.1710583 2.1062346
-1.8598212 0.1268701 1.858258
-3.2173929 0.40909258 3.8094416
-3.3117607 0.37262672 3.7445269
-2.222137 0.19924602 2.4165399
-2.0415962 0.14761676 2.13413
-3.1261957 0.41161123 3.8718009
-3.2175572 0.37211698 3.8077755
-3.3009014 0.33257595 3.7445991
-2.2455354 0.16964971 2.4544556
-3.0281863 0.4142856 3.924032
-3.120466 0.37170503 3.8649697
-3.2105734 0.3299543 3.8148844
-3.2928221 0.28128457 3.7585247
-2.9409282 0.41776416 3.9894836
-3.0331633 0.3721298 3.9333658
-3.1163812 0.32644504 3.8780787
-3.1907034 0.27380157 3.8184979
-2.851764 0.42132595 4.0498991
-2.9390569 0.3707107 3.9915981
-3.0163252 0.32204109 3.9341447
-3.0984478 0.26722771 3.8856745
-2.7596416 0.42391333 4.1082411
-2.844924 0.37127316 4.0508657
-2.9231329 0.31853548 3.9973581
-3.0031888 0.2616429 3.9528127
-2.6714542 0.42846045 4.169693
-2.7517574 0.37080318 4.112134
-2.8309178 0.31601518 4.0616078
-2.8982391 0.25431198 4.0037327
-2.5792675 0.43299329 4.2310696
-2.6585867 0.37133306 4.17342
-2.7288768 0.31262198 4.1166544
-2.8059235 0.24868363 4.073926
-2.4872015 0.43563488 4.2864122
-2.563529 0.37196431 4.2286701
-2.6405449 0.31100732 4.1869955
-2.7087212 0.24314588 4.1380281
-2.396071 0.44022551 4.3448091
-2.4752223 0.37338531 4.2970657
-2.5444469 0.30758137 4.2451539
-2.6125374 0.2376298 4.201148
-2.3088048 0.44570374 4.4102969
-2.3810897 0.37394774 4.3563333
-2.4482887 0.30510098 4.3063293
-2.5144138 0.23116103 4.2612147
-2.2166789 0.44929087 4.4686565
-2.285032 0.37457541 4.4115648
-2.3560696 0.30358052 4.3705974
-2.4201508 0.22657961 4.3283892
-2.1216426 0.45395762 4.5219798
-2.194782 0.37604356 4.4769244
-2.2608511 0.30204928 4.4348087
-2.320061 0.22113964 4.3864369
-2.0304332 0.4594757 4.5843925
-2.1006265 0.37758771 4.53721
-2.1636517 0.30052897 4.4979825
-2.2207992 0.21654031 4.4535184
-1.9324387 0.46316805 4.6356425
-2.0034487 0.3801029 4.5984564
-2.0674524 0.29901224 4.5611753
-2.1226115 0.21201693 4.5166192
-0.97747308 0.21704435 2.489583
-1.0359641 0.17662978 2.5249591
-1.9692302 0.29847005 4.6253486
-2.0243456 0.20842102 4.5837369
-0.89552677 0.21072449 2.4339159
-0.94813514 0.16939707 2.4631631
-0.99868774 0.12800823 2.4953716
-1.045373 0.081714422 2.5214171
-0.81858349 0.20342271 2.3783243
-0.86428672 0.16216065 2.4024417
-0.91084009 0.12075743 2.4345751
-0.95645064 0.07438767 2.4646003
-0.74554199 0.19704469 2.3278241
-0.78822708 0.15575376 2.352885
-0.82987881 0.11342323 2.3799081
-0.86765927 0.067187555 2.4007862
-0.67463106 0.19080046 2.270364
-0.71335828 0.14853153 2.2933323
-0.75102943 0.10620472 2.3192806
-0.79046482 0.061650284 2.3582265
-0.61047161 0.18534604 2.2260492
-0.64240992 0.14225112 2.2378716
-0.67802143 0.10086271 2.2667997
-0.70970947 0.054515049 2.2925632
-0.54736811 0.17994945 2.1787539
-0.58104002 0.1376083 2.2046273
-0.6098814 0.095412016 2.2214096
-0.63770121 0.049176637 2.2401004
-0.490031 0.17635702 2.1436038
-0.51789522 0.13317539 2.1593497
-0.54383469 0.090058938 2.1710594
-0.56956118 0.043725926 2.194711
-0.43382868 0.17189491 2.1014564
-0.46061823 0.12863737 2.1211824
-0.48540807 0.085372612 2.1408703
-0.50354803 0.039408874 2.1423788
-0.38335925 0.168201 2.0734351
-0.40435976 0.12412104 2.0820339
-0.42524391 0.080932379 2.0966487
-0.44327152 0.034860078 2.1041553
-0.33292332 0.16554303 2.0434327
-0.35290921 0.12044159 2.0529943
-0.37088752 0.077332616 2.0625544
-0.38774684 0.031093929 2.0790391
-0.28539324 0.16280544 2.0184846
-0.30243582 0.11774747 2.024991
-0.3184934 0.07370384 2.0304966
-0.33421782 0.028334785 2.0539784
-0.24551162 0.16883218 2.0638623
-0.25990751 0.12008973 2.0522463
-0.27139354 0.072426789 2.0355935
-0.28608075 0.02701797 2.0610559
-0.20643871 0.17568147 2.1192737
-0.2198613 0.12495385 2.1066031
-0.23118281 0.076128289 2.0989292
-0.24303605 0.026854079 2.1162655
-0.16507745 0.18425187 2.1896782
-0.17760955 0.12961179 2.1719184
-0.18801397 0.078855336 2.1601911
-0.19706284 0.02775161 2.1674385
-0.23332807 0.48693669 4.8333273
-0.13308427 0.13700882 2.2512453
-0.14178559 0.082517192 2.2244134
-0.14994006 0.02850084 2.2265899
-0.1283769 0.48859566 4.8293905
-0.18168268 0.46687323 5.9353709
-0.244629 0.41088271 7.2799926
-0.26637286 0.23211418 7.3811998
-0.024560504 0.48938501 4.8184581
-0.046465568 0.45904729 5.8406653
-0.074480012 0.39487928 7.0764484
-0.087577596 0.21637742 7.1054745
0.078371085 0.48500755 4.7614326
0.082862273 0.45619619 5.8041801
0.08625482 0.37830633 6.8510628
0.077448756 0.20147371 6.8420258
0.18042037 0.48758668 4.762569
0.21299219 0.45658475 5.8097529
0.23363237 0.36112386 6.6069102
0.23210678 0.18901199 6.6118269
0.2806412 0.48494831 4.7206302
0.33859736 0.45143241 5.7352824
0.3737908 0.34622797 6.4039474
0.37589788 0.17646313 6.3888326
0.38344297 0.48675922 4.708734
0.49712193 0.482694 6.0749955
0.50695837 0.33335677 6.2011528
0.51213282 0.16652645 6.1890345
0.48295265 0.48585269 4.6818457
0.61581254 0.46837029 5.900455
0.62918019 0.319471 6.0015454
0.63935065 0.15664017 5.9884048
0.58015931 0.48424295 4.6389818
0.73694253 0.46168491 5.8010321
0.74682659 0.30820474 5.824079
0.75768262 0.14667761 5.7939434
-0.02611593 -0.059798401 0.050936799
-0.02611593 -0.059798401 0.050936799
-0.02611593 -0.059798401 0.050936799
-0.02611593 -0.059798401 0.050936799
-0.02611593 -0.059798401 0.050936799
0.17883906 0.044757165 1.1973794
0.18169412 0.01276993 1.1957467
0.18547016 -0.02014837 1.1900786
-0.02611593 -0.059798401 0.050936799
1.0507547 0.42924184 5.3684239
1.0670313 0.27933297 5.3584042
1.0845765 0.12510514 5.3102694
0.27721879 0.1064109 1.4177274
0.27980989 0.064642437 1.4039186
0.28241274 0.025873462 1.390164
0.2902956 -0.013184801 1.3913102
-0.02611593 -0.059798401 0.050936799
1.2313801 0.40864348 5.0845728
1.2523867 0.26198751 5.0595183
1.2781788 0.11351288 5.0233374
-0.02611593 -0.059798401 0.050936799
1.3157293 0.39782977 4.9447508
1.3376166 0.2542963 4.912734
1.3643414 0.10789005 4.8725715
1.264024 0.4907068 4.4642358
1.4026222 0.39150152 4.8329711
1.4243408 0.2481308 4.7919574
1.4519758 0.10281129 4.7467961
1.3658901 0.49446666 4.4553938
1.4833583 0.38333982 4.7132721
1.5029316 0.24112087 4.6643162
1.5377682 0.09959466 4.6290917
1.4634266 0.4955489 4.4295783
1.5559838 0.37531543 4.5877242
1.5848893 0.23675597 4.555666
-0.02611593 -0.059798401 0.050936799
1.5651016 0.49848992 4.4107213
-0.02611593 -0.059798401 0.050936799
-0.02611593 -0.059798401 0.050936799
0.45390129 -0.017518405 1.2631253
-0.02611593 -0.059798401 0.050936799
0.38670278 0.041012228 1.0823809
0.48358127 0.022864049 1.2913096
1.7649746 0.08821556 4.267509
0.49306628 0.10365517 1.3015969
0.50165629 0.061865166 1.2876754
1.8045348 0.22197193 4.2181716
1.8348114 0.08601997 4.152123
1.7978053 0.48669377 4.1820741
1.8440419 0.35176516 4.1667624
1.868361 0.21679842 4.1028438
1.9016821 0.082799189 4.0387745
1.8609647 0.48019838 4.0847411
1.8997866 0.34469303 4.0475507
1.9333444 0.21347621 3.9955308
1.9708413 0.081299499 3.940419
1.9283706 0.47445333 4.0003462
1.9629499 0.33919749 3.9502351
1.998515 0.20997319 3.8982141
2.0359409 0.07886862 3.8391221
1.9885906 0.46891433 3.9060867
2.0282891 0.33553165 3.8619158
2.0606863 0.20648092 3.8009539
2.0980079 0.077484533 3.7358999
2.0509973 0.46318716 3.8217862
2.0874944 0.3310141 3.7666934
2.1250112 0.20383653 3.7116716
2.167433 0.076731443 3.6515579
2.1072741 0.45760828 3.7306008
2.1447189 0.32648566 3.672508
2.1853025 0.20224252 3.6204829
2.2256129 0.075253181 3.554409
2.16257 0.4520148 3.6404335
2.2041194 0.32378688 3.5873179
2.2435913 0.19965591 3.529314
2.2848527 0.074716881 3.460258
2.2241759 0.44910979 3.5662024
2.263576 0.32103384 3.5051272
2.300921 0.19803651 3.4401813
2.3442085 0.075071871 3.3721235
2.2734542 0.44355607 3.4751484
2.3148615 0.31747252 3.4140716
2.3603814 0.19628331 3.3580084
2.3985054 0.074499249 3.2810657
2.3268893 0.43984285 3.3920527
2.3743968 0.31564698 3.3358977
2.4126935 0.19469994 3.2679696
2.4548583 0.07386519 3.1929693
2.3845332 0.43691608 3.319896
2.426836 0.31293714 3.2528386
2.4661026 0.19402237 3.182929
2.5143683 0.075075299 3.1128497
2.4329281 0.43225718 3.2348769
2.4762568 0.31025618 3.1688364
2.5226052 0.19324356 3.1028297
2.5688 0.075375877 3.0288076
2.4824386 0.42848593 3.1558549
2.5307934 0.30844858 3.0907562
2.5750706 0.19251537 3.0208063
2.6191761 0.075745076 2.9418416
2.5380871 0.42656618 3.0837541
2.5822928 0.30668789 3.0107329
2.6235003 0.19183764 2.9368589
2.6777425 0.076904505 2.8647399
2.5876577 0.42374048 3.0077488
2.63183 0.30489826 2.9327469
2.6801374 0.19193205 2.8637755
2.7322905 0.078096375 2.7867138
2.6392696 0.42187136 2.9337237
2.6865053 0.30496365 2.8617003
2.7234924 0.19134462 2.7759233
2.7827644 0.079374969 2.7047641
2.6847997 0.4180963 2.8557763
2.734024 0.30319926 2.7827518
2.7781341 0.19244605 2.7028952
2.8292017 0.080704093 2.6208901
2.734468 0.41618007 2.7847879
2.7836025 0.30237329 2.7067831
2.829735 0.19259462 2.6279068
2.8756578 0.082015127 2.5380161
2.7810621 0.41434687 2.7098567
2.837297 0.30242413 2.6367548
2.8731878 0.19291657 2.5450709
2.9749808 0.086306781 2.5002213
2.8317339 0.41342685 2.6388676
2.8736868 0.30082589 2.5510154
2.9674788 0.19826218 2.5053887
3.0315926 0.089436866 2.4251926
2.8712504 0.41069129 2.5600512
2.9721119 0.30703032 2.5182741
3.0231388 0.19934194 2.4333417
3.0841265 0.091653846 2.3462222
2.981966 0.41958085 2.5421333
3.0257914 0.30809915 2.4472642
3.0747664 0.20147206 2.3593886
3.1316609 0.093888745 2.2673461
3.0224822 0.41684175 2.4632986
3.0744114 0.30824038 2.3733313
3.1233342 0.20266739 2.282475
3.187258 0.098040365 2.1913545
3.0650394 0.41505909 2.3864434
3.1149166 0.30751902 2.2935326
3.1708875 0.20488423 2.2045979
3.2378109 0.10024641 2.1134212
3.1076152 0.41325837 2.3105881
3.1716557 0.30952266 2.2254837
3.2184556 0.20608315 2.127703
4.6623268 0.17224199 2.8583057
3.1491954 0.41246104 2.2347693
3.2172201 0.30972889 2.1486082
3.2721055 0.20918778 2.0547302
4.7332468 0.17698738 2.7460256
3.2090085 0.41438156 2.1706626
3.2648444 0.31087357 2.0747123
4.6870909 0.32287797 2.7635345
4.8052087 0.18269286 2.6357441
3.2495661 0.41260615 2.0938451
4.454638 0.44056872 2.6659825
4.7773108 0.32826558 2.6669102
4.5872869 0.17419897 2.377583
3.9742506 0.50882494 2.4241295
4.4864063 0.43858185 2.5473115
4.6139593 0.31399998 2.4396334
4.673512 0.18060078 2.2810516
4.0508399 0.51190132 2.3477252
4.7789354 0.46607676 2.5673389
4.6416664 0.31509933 2.3170929
4.9735689 0.19848467 2.2777562
4.0910044 0.5105058 2.2499149
4.62782 0.44551581 2.353724
4.7198324 0.32058427 2.217695
5.0888562 0.20772764 2.183733
4.1978703 0.51822042 2.1870322
4.697998 0.44901168 2.2554398
4.9351668 0.33747548 2.1769552
5.1556735 0.21459557 2.0655661
4.2440743 0.51776689 2.0911264
5.0142908 0.47965509 2.2620747
4.9577656 0.33970118 2.0485287
8.5352821 0.40086716 3.1470268
4.2842054 0.51740736 1.9913348
4.9078312 0.46532002 2.0817471
6.3476577 0.45132172 2.4336562
8.5017185 0.40538496 2.9036546
4.3556271 0.52066451 1.9060276
5.1552773 0.48800492 2.0455127
6.3998694 0.45681912 2.2837269
8.5739727 0.41674677 2.7014387
4.3887143 0.51836658 1.8043321
5.2252541 0.49269962 1.9362503
6.4681578 0.4631865 2.1375141
8.3565578 0.41173714 2.4163222
4.4379444 0.51988387 1.7094057
5.296155 0.49746314 1.8229705
6.4408698 0.46243894 1.9629523
8.4590797 0.42573756 2.227592
4.4972157 0.52232903 1.6163086
5.3771381 0.50411803 1.7135376
6.4719501 0.46713844 1.8064023
8.4530668 0.43263328 2.0127563
4.5332718 0.52205616 1.5125934
5.4047508 0.50530779 1.5859989
6.5111089 0.47273672 1.6537187
8.3044519 0.43361884 1.7684739
4.5764103 0.5236854 1.4127815
5.4705634 0.51117951 1.4678328
6.5532556 0.48034203 1.5000151
8.4160376 0.44953227 1.5826094
4.632587 0.52623171 1.3147424
5.549438 0.51894999 1.3524576
6.5311623 0.48139524 1.3353919
8.496419 0.46475613 1.3863134
4.6656299 0.52698761 1.210102
5.6211977 0.52585417 1.2311978
6.5321884 0.48525691 1.1763887
8.227829 0.45713767 1.1461229
4.7207694 0.52957362 1.1100825
5.580514 0.52056056 1.089816
6.5252309 0.48812935 1.0185175
8.1448822 0.46325567 0.9357152
4.7658553 0.53224993 1.0072519
5.6090965 0.52378261 0.96029514
6.5212989 0.49297252 0.86162549
6.1422281 0.34267417 0.57090545
4.8058825 0.53399855 0.90149832
5.6226416 0.52609479 0.82903892
6.5103469 0.49685913 0.70384735
5.9902587 0.34108594 0.41466904
4.8328319 0.53486633 0.79197234
5.619144 0.52650464 0.69606668
6.1026697 0.4668062 0.51787359
6.0706697 0.35531849 0.27337307
4.8728018 0.53666919 0.68321973
5.6517334 0.53171206 0.5665068
5.9877987 0.46297696 0.36690378
-0.02611593 -0.059798401 0.050936799
4.9318218 0.54236704 0.57618153
5.9096956 0.55980027 0.45014572
3.5446126 0.25335932 0.1547831
3.0506029 0.15976104 0.01729258
4.9547167 0.54330343 0.46373171
-0.02611593 -0.059798401 0.050936799
3.5270433 0.25493622 0.071112201
3.0762508 0.1659838 -0.056099929
5.0036407 0.54812783 0.35186505
3.5332701 0.31394932 0.12508141
3.0374279 0.21517822 -0.0024650078
3.1118674 0.17420648 -0.13164365
3.5765917 0.3747389 0.18338969
3.5177336 0.31448308 0.043354247
3.0740781 0.2223613 -0.076046199
2.7089174 0.14954019 -0.17355973
-0.02611593 -0.059798401 0.050936799
3.0301538 0.26464722 -0.026442097
3.049753 0.22372818 -0.14658995
2.7376812 0.15664347 -0.24099262
3.0052183 0.3048653 0.02276895
3.0668185 0.27081242 -0.099041641
2.6298752 0.18801624 -0.18238683
2.7693882 0.16379024 -0.31148088
3.0119209 0.30508488 -0.046376009
2.794683 0.24282119 -0.15147065
2.7385395 0.2019397 -0.25719485
2.3302116 0.13349782 -0.31080607
3.0225894 0.30632615 -0.11757743
2.6506207 0.22933184 -0.20403522
2.7542789 0.2071081 -0.32541916
2.3730366 0.14249626 -0.375467
2.6605799 0.26349771 -0.15958861
2.7163332 0.23935607 -0.27510831
2.3430591 0.17173414 -0.32636023
2.4038415 0.15055601 -0.44092014
2.6863513 0.26759416 -0.22601953
1.9457394 0.15655874 -0.2301632
2.3728971 0.17876147 -0.38981324
2.4744821 0.1616345 -0.5160678
2.7111189 0.27069435 -0.29244968
2.3368783 0.20204 -0.34170148
2.3977513 0.18478884 -0.4521907
2.7162967 0.18992491 -0.64012551
3.0132613 0.30847833 -0.40146008
2.3717158 0.20904939 -0.40524846
2.4962678 0.19889294 -0.5348081
2.6393895 0.19008419 -0.6876989
2.3376768 0.22732158 -0.35726437
2.3895633 0.21310219 -0.4675304
2.704212 0.22517908 -0.65126532
2.5138042 0.18409476 -0.71646559
2.3645267 0.23234195 -0.41969743
2.516959 0.23122817 -0.55761826
2.5894897 0.21827698 -0.68725449
2.4360244 0.18313119 -0.75704056
2.3983376 0.23737332 -0.48426136
2.6721177 0.25248834 -0.66117376
2.4758425 0.21129887 -0.71926379
2.4537413 0.19232789 -0.8272298
2.6223092 0.2665835 -0.59996557
2.544472 0.24054325 -0.69201046
2.4557679 0.21441591 -0.77685106
-0.02611593 -0.059798401 0.050936799
2.6190929 0.26776642 -0.66490591
2.4248888 0.2305149 -0.71996242
2.436693 0.21752936 -0.8344571
0.17943087 -0.038097754 -0.03254734
2.504426 0.25579283 -0.6969865
2.45454 0.23772311 -0.79341203
-0.02611593 -0.059798401 0.050936799
-0.02611593 -0.059798401 0.050936799
2.3480468 0.23868133 -0.71237338
2.3966923 0.23474237 -0.83739781
0.18736631 -0.035054617 -0.036642253
0.16037422 -0.038975127 -0.035207316
2.4264426 0.24996625 -0.80066699
-0.02611593 -0.059798401 0.050936799
-0.02611593 -0.059798401 0.050936799
-0.02611593 -0.059798401 0.050936799
-0.02611593 -0.059798401 0.050936799
0.18039022 -0.034047756 -0.035493035
0.16134445 -0.036942881 -0.037189402
0.13638951 -0.040906738 -0.03379273
0.19039623 -0.032083981 -0.035644904
-0.02611593 -0.059798401 0.050936799
-0.02611593 -0.059798401 0.050936799
-0.02611593 -0.059798401 0.050936799
-0.02611593 -0.059798401 0.050936799
0.1563641 -0.036943026 -0.036095783
0.14034045 -0.038867172 -0.036830839
0.11642668 -0.041870967 -0.031435609
0.16437051 -0.034972072 -0.036210071
-0.02611593 -0.059798401 0.050936799
-0.02611593 -0.059798401 0.050936799
-0.02611593 -0.059798401 0.050936799
-0.02611593 -0.059798401 0.050936799
0.13041718 -0.038903639 -0.032644283
0.11937389 -0.040827639 -0.034472942
0.10439143 -0.041791726 -0.033209447
0.13642001 -0.03792534 -0.032739006
-0.02611593 -0.059798401 0.050936799
-0.02611593 -0.059798401 0.050936799
-0.02611593 -0.059798401 0.050936799
-0.02611593 -0.059798401 0.050936799
0.1084656 -0.041878436 -0.029285967
0.10635361 -0.041762725 -0.035246346
0.089408964 -0.042755812 -0.031945944
0.12435817 -0.039827667 -0.035548542
-0.02611593 -0.059798401 0.050936799
-0.02611593 -0.059798401 0.050936799
-0.02611593 -0.059798401 0.050936799
-0.02611593 -0.059798401 0.050936799
0.10139197 -0.04178096 -0.033153076
0.096318007 -0.041690659 -0.037057769
0.082368866 -0.04369434 -0.033831745
0.10933827 -0.040755574 -0.036284372
-0.02611593 -0.059798401 0.050936799
-0.02611593 -0.059798401 0.050936799
-0.02611593 -0.059798401 0.050936799
-0.02611593 -0.059798401 0.050936799
0.08740934 -0.042748634 -0.031908363
0.084316276 -0.042647421 -0.0368503
0.073351793 -0.043643951 -0.034662299
0.090408787 -0.0427594 -0.031964734
-0.02611593 -0.059798401 0.050936799
-0.02611593 -0.059798401 0.050936799
-0.02611593 -0.059798401 0.050936799
-0.02611593 -0.059798401 0.050936799
0.077388503 -0.043694485 -0.032738142
0.075299196 -0.042597029 -0.037680846
0.06238734 -0.044640481 -0.032474302
0.082350142 -0.04367625 -0.034831412
-0.02611593 -0.059798401 0.050936799
-0.02611593 -0.059798401 0.050936799
-0.02611593 -0.059798401 0.050936799
-0.02611593 -0.059798401 0.050936799
0.066424035 -0.044691019 -0.030550137
0.061368797 -0.044618804 -0.033455163
0.054388795 -0.044611771 -0.032323979
0.073347874 -0.044643782 -0.034680318
-0.02611593 -0.059798401 0.050936799
-0.02611593 -0.059798401 0.050936799
-0.02611593 -0.059798401 0.050936799
-0.02611593 -0.059798401 0.050936799
0.055459574 -0.045687549 -0.028362144
0.055351168 -0.044579186 -0.034342088
0.047390077 -0.044586647 -0.032192446
0.062364686 -0.045622222 -0.033491973
-0.02611593 -0.059798401 0.050936799
-0.02611593 -0.059798401 0.050936799
-0.02611593 -0.059798401 0.050936799
-0.02611593 -0.059798401 0.050936799
0.050404318 -0.045615338 -0.03126717
0.050295912 -0.044506971 -0.037247121
0.03941026 -0.044576026 -0.031042453
0.057309423 -0.045550011 -0.036397014
-0.02611593 -0.059798401 0.050936799
-0.02611593 -0.059798401 0.050936799
-0.02611593 -0.059798401 0.050936799
-0.02611593 -0.059798401 0.050936799
0.044386692 -0.045575712 -0.032154091
0.044259567 -0.044449259 -0.039133701
0.036354646 -0.04451099 -0.033985067
0.046382405 -0.046582717 -0.032209691
-0.02611593 -0.059798401 0.050936799
-0.02611593 -0.059798401 0.050936799
-0.02611593 -0.059798401 0.050936799
-0.02611593 -0.059798401 0.050936799
0.035440587 -0.046597507 -0.029004008
0.037279569 -0.044442225 -0.038002502
0.029374646 -0.044503957 -0.032853868
0.042308245 -0.046496004 -0.03613317
-0.02611593 -0.059798401 0.050936799
-0.02611593 -0.059798401 0.050936799
-0.02611593 -0.059798401 0.050936799
-0.02611593 -0.059798401 0.050936799
0.031385146 -0.046528883 -0.031927831
0.031280667 -0.044420693 -0.03788976
0.025337934 -0.044453427 -0.03477804
0.034343228 -0.0475033 -0.03400154
-0.02611593 -0.059798401 0.050936799
-0.02611593 -0.059798401 0.050936799
-0.02611593 -0.059798401 0.050936799
-0.02611593 -0.059798401 0.050936799
0.026367342 -0.046492849 -0.032833531
0.026258934 -0.045384489 -0.038813494
-0.02611593 -0.059798401 0.050936799
0.030287789 -0.04743468 -0.036925364
-0.02611593 -0.059798401 0.050936799
-0.02611593 -0.059798401 0.050936799
-0.02611593 -0.059798401 0.050936799
-0.02611593 -0.059798401 0.050936799
-0.02611593 -0.059798401 0.050936799
0.022207424 -0.044316038 -0.041719288
0.016283413 -0.044366859 -0.037607901
0.024307612 -0.047431234 -0.035812959
-0.02611593 -0.059798401 0.050936799
-0.02611593 -0.059798401 0.050936799
-0.02611593 -0.059798401 0.050936799
-0.02611593 -0.059798401 0.050936799
-0.02611593 -0.059798401 0.050936799
0.015260947 -0.045345012 -0.038606796
-0.02611593 -0.059798401 0.050936799
0.019252354 -0.047359023 -0.038717993
-0.02611593 -0.059798401 0.050936799
-0.02611593 -0.059798401 0.050936799
-0.02611593 -0.059798401 0.050936799
-0.02611593 -0.059798401 0.050936799
-0.02611593 -0.059798401 0.050936799
0.011224231 -0.045294475 -0.040530954
-0.02611593 -0.059798401 0.050936799
-0.02611593 -0.059798401 0.050936799
-0.02611593 -0.059798401 0.050936799
-0.02611593 -0.059798401 0.050936799
-0.02611593 -0.059798401 0.050936799
-0.02611593 -0.059798401 0.050936799
-0.02611593 -0.059798401 0.050936799
-0.02611593 -0.059798401 0.050936799
-0.02611593 -0.059798401 0.050936799
-0.02611593 -0.059798401 0.050936799
-0.02611593 -0.059798401 0.050936799
-0.02611593 -0.059798401 0.050936799
-0.02611593 -0.059798401 0.050936799
-0.02611593 -0.059798401 0.050936799
-0.02611593 -0.059798401 0.050936799
-0.02611593 -0.059798401 0.050936799
-0.02611593 -0.059798401 0.050936799
-0.02611593 -0.059798401 0.050936799
-0.02611593 -0.059798401 0.050936799
-0.02611593 -0.059798401 0.050936799
-0.02611593 -0.059798401 0.050936799
-0.02611593 -0.059798401 0.050936799
-0.02611593 -0.059798401 0.050936799
-0.02611593 -0.059798401 0.050936799
-0.02611593 -0.059798401 0.050936799
-0.02611593 -0.059798401 0.050936799
-0.02611593 -0.059798401 0.050936799
-0.02611593 -0.059798401 0.050936799
-0.02611593 -0.059798401 0.050936799
-0.02611593 -0.059798401 0.050936799
-0.02611593 -0.059798401 0.050936799
-0.0058997879 -0.044107012 -0.047191117
-0.02611593 -0.059798401 0.050936799
-0.02611593 -0.059798401 0.050936799
-0.02611593 -0.059798401 0.050936799
-0.02611593 -0.059798401 0.050936799
-0.02611593 -0.059798401 0.050936799
-0.02611593 -0.059798401 0.050936799
-0.02611593 -0.059798401 0.050936799
-0.02611593 -0.059798401 0.050936799
-0.02611593 -0.059798401 0.050936799
-0.02611593 -0.059798401 0.050936799
-0.02611593 -0.059798401 0.050936799
-0.02611593 -0.059798401 0.050936799
-0.02611593 -0.059798401 0.050936799
-0.02611593 -0.059798401 0.050936799
-0.02611593 -0.059798401 0.050936799
-0.02611593 -0.059798401 0.050936799
-0.02611593 -0.059798401 0.050936799
-0.02611593 -0.059798401 0.050936799
-0.02611593 -0.059798401 0.050936799
-0.02611593 -0.059798401 0.050936799
-0.02611593 -0.059798401 0.050936799
-0.02611593 -0.059798401 0.050936799
-0.02611593 -0.059798401 0.050936799
-0.02611593 -0.059798401 0.050936799
-0.02611593 -0.059798401 0.050936799
-0.02611593 -0.059798401 0.050936799
-0.02611593 -0.059798401 0.050936799
-0.02611593 -0.059798401 0.050936799
-0.02611593 -0.059798401 0.050936799
-0.02611593 -0.059798401 0.050936799
-0.02611593 -0.059798401 0.050936799
-0.02611593 -0.059798401 0.050936799
-0.02611593 -0.059798401 0.050936799
-0.02611593 -0.059798401 0.050936799
-0.02611593 -0.059798401 0.050936799
-0.02611593 -0.059798401 0.050936799
-0.02611593 -0.059798401 0.050936799
-0.02611593 -0.059798401 0.050936799
-0.02611593 -0.059798401 0.050936799
-0.02611593 -0.059798401 0.050936799
-0.02611593 -0.059798401 0.050936799
-0.02611593 -0.059798401 0.050936799
-0.02611593 -0.059798401 0.050936799
-0.02611593 -0.059798401 0.050936799
-0.02611593 -0.059798401 0.050936799
-0.02611593 -0.059798401 0.050936799
-0.02611593 -0.059798401 0.050936799
-0.02611593 -0.059798401 0.050936799
-0.02611593 -0.059798401 0.050936799
-0.02611593 -0.059798401 0.050936799
-0.02611593 -0.059798401 0.050936799
-0.02611593 -0.059798401 0.050936799
-0.02611593 -0.059798401 0.050936799
-0.02611593 -0.059798401 0.050936799
-0.02611593 -0.059798401 0.050936799
-0.02611593 -0.059798401 0.050936799
-0.02611593 -0.059798401 0.050936799
-0.02611593 -0.059798401 0.050936799
-0.02611593 -0.059798401 0.050936799
-0.02611593 -0.059798401 0.050936799
-0.02611593 -0.059798401 0.050936799
-0.02611593 -0.059798401 0.050936799
-0.02611593 -0.059798401 0.050936799
-0.02611593 -0.059798401 0.050936799
-0.02611593 -0.059798401 0.050936799
-0.02611593 -0.059798401 0.050936799
-0.02611593 -0.059798401 0.050936799
-0.02611593 -0.059798401 0.050936799
-0.02611593 -0.059798401 0.050936799
-0.02611593 -0.059798401 0.050936799
-0.02611593 -0.059798401 0.050936799
-0.02611593 -0.059798401 0.050936799
-0.02611593 -0.059798401 0.050936799
-0.02611593 -0.059798401 0.050936799
-0.02611593 -0.059798401 0.050936799
-0.02611593 -0.059798401 0.050936799
-0.02611593 -0.059798401 0.050936799
-0.02611593 -0.059798401 0.050936799
-0.02611593 -0.059798401 0.050936799
-0.02611593 -0.059798401 0.050936799
-0.02611593 -0.059798401 0.050936799
-0.02611593 -0.059798401 0.050936799
-0.02611593 -0.059798401 0.050936799
-0.02611593 -0.059798401 0.050936799
-0.02611593 -0.059798401 0.050936799
-0.02611593 -0.059798401 0.050936799
-0.02611593 -0.059798401 0.050936799
-0.05486032 -0.040949751 -0.045216672
-0.02611593 -0.059798401 0.050936799
-0.02611593 -0.059798401 0.050936799
-0.02611593 -0.059798401 0.050936799
-0.02611593 -0.059798401 0.050936799
-0.02611593 -0.059798401 0.050936799
-0.02611593 -0.059798401 0.050936799
-0.02611593 -0.059798401 0.050936799
-0.02611593 -0.059798401 0.050936799
-0.02611593 -0.059798401 0.050936799
-0.02611593 -0.059798401 0.050936799
-0.02611593 -0.059798401 0.050936799
-0.02611593 -0.059798401 0.050936799
-0.02611593 -0.059798401 0.050936799
-0.02611593 -0.059798401 0.050936799
-0.02611593 -0.059798401 0.050936799
-0.02611593 -0.059798401 0.050936799
-0.02611593 -0.059798401 0.050936799
-0.02611593 -0.059798401 0.050936799
-0.02611593 -0.059798401 0.050936799
-0.02611593 -0.059798401 0.050936799
-0.02611593 -0.059798401 0.050936799
-0.02611593 -0.059798401 0.050936799
-0.02611593 -0.059798401 0.050936799
-0.06877894 -0.039972033 -0.040936943
-0.02611593 -0.059798401 0.050936799
-0.02611593 -0.059798401 0.050936799
-0.02611593 -0.059798401 0.050936799
-0.02611593 -0.059798401 0.050936799
-0.02611593 -0.059798401 0.050936799
-0.02611593 -0.059798401 0.050936799
-0.02611593 -0.059798401 0.050936799
-0.073778026 -0.039954089 -0.040842991
-0.071695641 -0.038033966 -0.036845889
-0.07270816 -0.046047103 -0.035971578
-0.02611593 -0.059798401 0.050936799
-0.02611593 -0.059798401 0.050936799
-0.02611593 -0.059798401 0.050936799
-0.02611593 -0.059798401 0.050936799
-0.02611593 -0.059798401 0.050936799
-0.077739842 -0.039975908 -0.038768504
-0.075653531 -0.037055954 -0.034753382
-0.077688523 -0.046047244 -0.034877967
-0.02611593 -0.059798401 0.050936799
-0.02611593 -0.059798401 0.050936799
-0.02611593 -0.059798401 0.050936799
-0.02611593 -0.059798401 0.050936799
-0.078620389 -0.043098435 -0.031806137
-0.082716279 -0.038976226 -0.03765687
-0.080652617 -0.03703801 -0.034659427
-0.082631439 -0.04608357 -0.031785026
-0.02611593 -0.059798401 0.050936799
-0.02611593 -0.059798401 0.050936799
-0.02611593 -0.059798401 0.050936799
-0.02611593 -0.059798401 0.050936799
-0.084619291 -0.043076903 -0.031693392
-0.088711254 -0.037954863 -0.037526108
-0.085629053 -0.036038328 -0.033547796
-0.090700939 -0.044982675 -0.035615332
-0.02611593 -0.059798401 0.050936799
-0.02611593 -0.059798401 0.050936799
-0.02611593 -0.059798401 0.050936799
-0.02611593 -0.059798401 0.050936799
-0.088577189 -0.042098895 -0.029600892
-0.091635816 -0.038016453 -0.033471093
-0.091642752 -0.034998875 -0.034416698
-0.096658453 -0.043997489 -0.033485252
-0.02611593 -0.059798401 0.050936799
-0.02611593 -0.059798401 0.050936799
-0.02611593 -0.059798401 0.050936799
-0.02611593 -0.059798401 0.050936799
-0.097627781 -0.041012499 -0.032412745
-0.10068641 -0.036930054 -0.036282942
-0.096619181 -0.03399919 -0.033305068
-0.10162012 -0.04401572 -0.031391971
-0.02611593 -0.059798401 0.050936799
-0.02611593 -0.059798401 0.050936799
-0.02611593 -0.059798401 0.050936799
-0.02611593 -0.059798401 0.050936799
-0.10156696 -0.040052578 -0.029320579
-0.10261115 -0.036995236 -0.032246716
-0.10056229 -0.034039099 -0.03023091
-0.1086149 -0.042990766 -0.031242419
-0.02611593 -0.059798401 0.050936799
-0.02611593 -0.059798401 0.050936799
-0.02611593 -0.059798401 0.050936799
-0.02611593 -0.059798401 0.050936799
-0.10754713 -0.040049136 -0.02820817
-0.11162037 -0.034945186 -0.033041228
-0.10450539 -0.034079015 -0.02715677
-0.12167954 -0.040872097 -0.034960747
-0.02611593 -0.059798401 0.050936799
-0.02611593 -0.059798401 0.050936799
-0.02611593 -0.059798401 0.050936799
-0.02611593 -0.059798401 0.050936799
-0.11857471 -0.037973817 -0.029964756
-0.12164813 -0.032873459 -0.0348166
-0.11556649 -0.030967688 -0.030894663
-0.1286369 -0.039883319 -0.03281188
-0.02611593 -0.059798401 0.050936799
-0.02611593 -0.059798401 0.050936799
-0.02611593 -0.059798401 0.050936799
-0.02611593 -0.059798401 0.050936799
-0.12758785 -0.036923602 -0.030777287
-0.13064255 -0.03184133 -0.034629468
-0.12659407 -0.028892372 -0.032651257
-0.13356109 -0.039937731 -0.028719284
-0.02611593 -0.059798401 0.050936799
-0.02611593 -0.059798401 0.050936799
-0.02611593 -0.059798401 0.050936799
-0.02611593 -0.059798401 0.050936799
-0.13554502 -0.035931241 -0.028609626
-0.13961826 -0.030827286 -0.033442676
-0.13255158 -0.027907187 -0.030521169
-0.14656958 -0.037873328 -0.029438619
-0.02611593 -0.059798401 0.050936799
-0.02611593 -0.059798401 0.050936799
-0.02611593 -0.059798401 0.050936799
-0.02611593 -0.059798401 0.050936799
-0.14753495 -0.033888511 -0.028348103
-0.14859003 -0.028813416 -0.032237865
-0.1415273 -0.026893146 -0.029334366
-0.15754099 -0.035852283 -0.028196234
-0.02611593 -0.059798401 0.050936799
-0.02611593 -0.059798401 0.050936799
-0.02611593 -0.059798401 0.050936799
-0.02611593 -0.059798401 0.050936799
-0.15750656 -0.031871051 -0.027124494
-0.1585429 -0.026814044 -0.030014597
-0.1484659 -0.025922459 -0.026185837
-0.17051204 -0.033824056 -0.026916254
-0.02611593 -0.059798401 0.050936799
-0.02611593 -0.059798401 0.050936799
-0.02611593 -0.059798401 0.050936799
-0.02611593 -0.059798401 0.050936799
-0.17349185 -0.028814141 -0.026769791
-0.17454693 -0.02373904 -0.03065956
-0.16045193 -0.022879904 -0.025906298
-0.19756627 -0.029655475 -0.03033549
-0.02611593 -0.059798401 0.050936799
-0.02611593 -0.059798401 0.050936799
-0.02611593 -0.059798401 0.050936799
-0.02611593 -0.059798401 0.050936799
-0.19552827 -0.024681592 -0.029283311
-0.19255057 -0.020656863 -0.031266931
-0.17948891 -0.018758126 -0.028476182
-0.21855067 -0.026580621 -0.029886831
-0.02611593 -0.059798401 0.050936799
-0.02611593 -0.059798401 0.050936799
-0.02611593 -0.059798401 0.050936799
-0.02611593 -0.059798401 0.050936799
-0.21750854 -0.020603318 -0.028797843
-0.21454957 -0.016560499 -0.031781126
-0.19746992 -0.014694205 -0.028065879
-0.24752571 -0.021477394 -0.029251814
-0.02611593 -0.059798401 0.050936799
-0.02611593 -0.059798401 0.050936799
-0.02611593 -0.059798401 0.050936799
-0.02611593 -0.059798401 0.050936799
-0.24650232 -0.015482 -0.029162489
-0.23750697 -0.011496893 -0.030259192
-0.22449757 -0.0085440604 -0.030449416
-0.94009346 0.097973846 -0.23519412
-0.02611593 -0.059798401 0.050936799
-0.02611593 -0.059798401 0.050936799
-0.02611593 -0.059798401 0.050936799
-0.96677327 0.10178062 -0.21862012
-0.96713924 0.12822843 -0.24314319
-0.27151072 -0.0043398808 -0.031493504
-0.2474402 -0.0044983709 -0.027945831
-0.98843527 0.10555139 -0.20114042
-0.97674036 0.12888429 -0.22194439
-0.02611593 -0.059798401 0.050936799
-0.02611593 -0.059798401 0.050936799
-0.99599528 0.1071637 -0.17796187
-0.98735601 0.13056163 -0.20170841
-0.97161734 0.15082642 -0.21964258
-0.94080365 0.1669476 -0.23293243
-1.0015785 0.10778711 -0.15583855
-1.0039666 0.13326037 -0.18134174
-0.98524725 0.15353248 -0.20033191
-0.97053111 0.17281909 -0.21926497
-1.0121566 0.10942829 -0.13360329
-1.0105495 0.13388735 -0.1591996
-0.99786651 0.15421717 -0.18007639
-0.98518354 0.17454697 -0.20095319
-1.0237308 0.1120729 -0.11133119
-1.0171324 0.13451436 -0.13705751
-1.005468 0.15486585 -0.15891516
-0.99879867 0.17623511 -0.18066089
-1.0373044 0.11472467 -0.089021534
-1.017683 0.13408381 -0.11304687
-1.0160649 0.15652511 -0.13767955
-0.99839067 0.17483731 -0.15868632
-1.0618871 0.11943367 -0.067468792
-1.0372889 0.13779311 -0.09260574
-1.0166341 0.15611266 -0.11466856
-1.0170196 0.1775613 -0.13928172
-1.0634336 0.12000653 -0.043421328
-1.0488633 0.14043772 -0.07033366
-1.0252166 0.15674679 -0.09248887
-1.0236253 0.17720656 -0.11815728
-1.0919927 0.12571165 -0.02077575
-1.0794595 0.14618617 -0.04964982
-1.0508366 0.16149558 -0.072916687
-1.0262128 0.17681935 -0.096108377
-1.090521 0.12625565 0.0042150095
-1.0930146 0.14881985 -0.026340507
-1.0654101 0.16415094 -0.05058822
-1.0388094 0.17848578 -0.074835174
-1.1210424 0.13193177 0.028897494
-1.0985562 0.15040691 -0.002199851
-1.0779841 0.16679913 -0.02829735
-1.057397 0.18217345 -0.053413205
-1.122566 0.13348636 0.053962633
-1.1140883 0.15402953 0.022164736
-1.0935388 0.16944002 -0.004950434
-1.072993 0.18385066 -0.032083631
-1.1390792 0.13709447 0.079345673
-1.115616 0.15458427 0.047211863
-1.1000988 0.17104873 0.018209342
-1.0765578 0.18444879 -0.008998245
-1.1365849 0.13861664 0.10533532
-1.1251382 0.15616763 0.072427332
-1.1156349 0.17367151 0.042555906
-1.0971075 0.18810743 0.014460634
-1.1690458 0.14524549 0.13307239
-1.1386518 0.15976496 0.097754002
-1.1241573 0.17525125 0.067752585
-1.1006576 0.18768767 0.03852766
-0.02611593 -0.059798401 0.050936799
-1.145152 0.16231926 0.12393078
-1.1376938 0.17786685 0.092061579
-1.1132128 0.19031776 0.061818201
-1.1859853 0.15131399 0.18851811
-1.1656229 0.16690537 0.15140632
-1.1442165 0.17943941 0.11722068
-1.1477295 0.19700801 0.086593866
-1.2193447 0.15985562 0.22130829
-1.1810987 0.17047371 0.17876989
-1.1636876 0.18402192 0.14467743
-0.02611593 -0.059798401 0.050936799
-0.02611593 -0.059798401 0.050936799
-1.1955335 0.1750021 0.20813201
-1.1821591 0.18860087 0.17211539
-1.1777228 0.20317745 0.13928488
-1.264087 0.17186081 0.28638524
-0.02611593 -0.059798401 0.050936799
-1.1886443 0.19013724 0.19927379
-0.02611593 -0.059798401 0.050936799
-0.02611593 -0.059798401 0.050936799
-1.2283833 0.18405518 0.2679311
-1.2230221 0.19870056 0.23108312
-1.2196312 0.21131727 0.19623606
-0.02611593 -0.059798401 0.050936799
-1.275616 0.19553801 0.30703637
-0.02611593 -0.059798401 0.050936799
-0.02611593 -0.059798401 0.050936799
-0.02611593 -0.059798401 0.050936799
-1.2889947 0.20000854 0.33937865
-1.2578155 0.20770651 0.29391879
-0.02611593 -0.059798401 0.050936799
-1.3244348 0.19362271 0.42395538
-1.2894062 0.20145105 0.37042302
-1.2881233 0.21518332 0.32963356
-1.2609137 0.2208598 0.28621209
-3.0974424 0.54805517 1.0117614
-1.3544513 0.21683502 0.41893554
-1.3173935 0.22262031 0.36732888
-1.2504179 0.21833585 0.31297898
-3.1217911 0.56060857 1.0974734
-3.114821 0.58963382 0.98382938
-1.3048754 0.22107095 0.39507592
-0.02611593 -0.059798401 0.050936799
-3.1937361 0.58298886 1.2032611
-3.0925024 0.59129173 1.0534651
-3.1430032 0.62805349 0.96704638
-1.2990471 0.23024686 0.38412905
-3.238795 0.6013633 1.303471
-3.1665072 0.61273366 1.1562734
-3.0859179 0.61976838 1.0258476
-1.3213227 0.23665893 0.42167479
-3.3115225 0.62654763 1.4203278
-3.2115932 0.62912655 1.2554477
-3.131124 0.63427007 1.1189879
-3.0892615 0.64219147 1.0033082
-3.3217428 0.63892418 1.5127745
-3.2496803 0.64549428 1.3544904
-3.1713347 0.64775413 1.2120162
-3.0957615 0.64579028 1.0825219
-3.253643 0.63459885 1.5714411
-3.2044191 0.64310646 1.4216226
-3.1578839 0.64931768 1.2888187
-3.1131723 0.65235573 1.1659949
-3.1449764 0.62250769 1.6082002
-3.1463215 0.63781732 1.4804591
-3.1285594 0.64793283 1.3592684
-3.0878739 0.64900368 1.2354841
-3.0789702 0.61827993 1.6619062
-3.0644734 0.6276598 1.5267587
-3.0694892 0.6406585 1.4170505
-3.0566185 0.64466643 1.3028435
-3.0307689 0.6199531 1.7250555
-3.0113673 0.6243881 1.5857251
-3.006521 0.63146055 1.4697231
-3.0223818 0.64033663 1.3691463
-2.9697349 0.6177249 1.779891
-2.9671543 0.62405783 1.6499132
-2.9613569 0.62816334 1.5318389
-2.9722722 0.63305825 1.4290969
-2.9097161 0.61651826 1.8337636
-2.9210017 0.62277484 1.7110466
-2.9182119 0.6248914 1.5929927
-2.9370546 0.62874287 1.4943817
-2.8447771 0.61436617 1.8835257
-2.8709285 0.62054998 1.7680882
-2.8879216 0.62453908 1.6614423
-2.9196641 0.62934655 1.5680921
-2.780875 0.6122539 1.9313073
-2.8149168 0.61735809 1.822
-2.8507111 0.62323403 1.7257439
-2.8784852 0.62504578 1.6312647
-2.6489737 0.59278339 1.9284847
-2.7609234 0.61419129 1.8749497
-2.8056035 0.61999112 1.7848607
-2.8551409 0.62366444 1.7028267
-2.6571043 0.60907972 2.0249643
-2.6753752 0.60430896 1.9051796
-2.7634318 0.61870438 1.8470689
-2.8218775 0.62131965 1.7701845
-2.5981972 0.6079852 2.0728579
-2.6519663 0.60989028 1.9788673
-2.712404 0.61451244 1.9020563
-2.7767367 0.61704081 1.8312825
-2.5206089 0.60311252 2.1043277
-2.6107786 0.61260641 2.0411663
-2.6455972 0.60746258 1.9456928
-2.7385304 0.61473238 1.8955474
-2.4519179 0.60018146 2.1410012
-2.5361414 0.60569066 2.0756557
-2.6241357 0.61199695 2.0223989
-2.6509833 0.59982556 1.9266491
-1.9234401 0.46893772 1.7606035
-2.4792383 0.60360348 2.1235685
-2.5662444 0.60690671 2.0702393
-2.6699588 0.61199921 2.0322604
-1.8581346 0.46337968 1.7772861
-2.3673255 0.58620441 2.1211576
-2.5211477 0.60568154 2.1283922
-2.6287715 0.60969806 2.095469
-1.8183811 0.4655157 1.8165936
-1.8774198 0.46171957 1.7626121
-2.4662108 0.60256553 2.1783245
-2.5924823 0.60932422 2.163806
-1.9726818 0.52580637 2.0566545
-1.8258979 0.45801249 1.7905898
-1.8916094 0.4559336 1.75377
-2.5423985 0.60508162 2.2218113
-2.1226873 0.58981073 2.3117075
-1.9164916 0.49823117 1.9650726
-1.8361148 0.45023057 1.780637
-1.9116074 0.44597095 1.755965
-2.0698612 0.59182775 2.3547692
-2.1127 0.57167894 2.2611752
-1.8738039 0.47223562 1.8997811
-1.8511817 0.43730479 1.779685
-1.999455 0.58816087 2.3763924
-2.1313176 0.59354335 2.383961
-2.0622659 0.5388729 2.1836112
-1.8369061 0.44204509 1.846526
-1.933928 0.58640319 2.4041429
-2.0657234 0.58971369 2.4156742
-2.2072244 0.59578806 2.4424427
-2.0273798 0.5056901 2.1303396
-1.871415 0.58567423 2.4309685
-1.9991858 0.58593464 2.44437
-2.1366806 0.58897716 2.4720085
-2.2556713 0.58138752 2.4751
-1.8069439 0.58397442 2.455739
-1.9375454 0.58408278 2.4781938
-2.0788524 0.58695877 2.5159042
-2.2407584 0.59053004 2.5750203
-1.744431 0.5832454 2.4825647
-1.8778448 0.58318365 2.5150723
-2.0209866 0.58490413 2.5617993
-2.1759059 0.58545089 2.6207294
-1.6790162 0.58159631 2.5043173
-1.8152196 0.58234614 2.5478957
-1.9572345 0.58293658 2.6015835
-2.1247878 0.585186 2.6797876
-1.6136389 0.57998323 2.5240707
-1.7545979 0.58051592 2.5807388
-1.9032855 0.58282363 2.6515884
-2.0628934 0.58108115 2.7275708
-1.5502571 0.57937723 2.5438797
-1.6939536 0.57966745 2.6145995
-1.8386497 0.57996118 2.6853378
-2.0009766 0.57795817 2.7763717
-1.4878794 0.57777506 2.5636897
-1.6294638 0.57794952 2.6403694
-1.7788781 0.57798994 2.726197
-1.947877 0.57770407 2.8343923
-1.4226329 0.5762887 2.5764456
-1.5669734 0.57623881 2.6661773
-1.7152009 0.57609463 2.7619827
-1.8859185 0.57554471 2.8852105
-1.3602926 0.57472265 2.5942562
-1.4986234 0.5726335 2.684839
-1.6515237 0.57419944 2.7977681
-1.8191375 0.57153046 2.9269018
-1.2989666 0.5741781 2.6111035
-1.4341483 0.57193351 2.7096274
-1.5800617 0.57047486 2.8223712
-1.7600542 0.57227284 2.9838285
-1.2366371 0.57462984 2.6279509
-1.3726352 0.57120806 2.7364719
-1.5183052 0.56951427 2.862211
-1.6903111 0.56828403 3.0234637
-1.1686052 0.57133204 2.6296179
-1.3062954 0.56962764 2.7542071
-1.4565822 0.56958967 2.9000697
-1.6215451 0.56528062 3.064136
-1.1073955 0.56989622 2.6404493
-1.2457408 0.56986952 2.7830875
-1.3890181 0.56778866 2.9297824
-1.5537561 0.56326246 3.1058443
-0.99668431 0.53755867 2.5237522
-1.1794798 0.56736159 2.7968061
-1.3244345 0.5659802 2.9605505
-1.4878693 0.56216097 3.1526067
-0.91189402 0.52033842 2.4618323
-0.99985158 0.49959397 2.5221243
-1.2550018 0.56429869 2.9832282
-1.4171371 0.56018639 3.1912599
-0.83396745 0.50401646 2.4070594
-0.9121635 0.4804537 2.4551136
-0.98836374 0.45588398 2.5031118
-1.3482282 0.56005573 3.2389834
-0.75899523 0.48966879 2.3543782
-0.83031261 0.46418983 2.3962667
-0.90246129 0.4385516 2.447171
-0.97362196 0.40991032 2.4980028
-0.6909014 0.4772374 2.3078628
-0.75624651 0.44975534 2.348603
-0.81968945 0.42135662 2.3842893
-0.88205469 0.38886461 2.4248829
-0.62290514 0.46389657 2.2563307
-0.68429631 0.43443668 2.2949603
-0.74556327 0.40786767 2.3396423
-0.80112487 0.37353182 2.3700716
-0.56083298 0.45050496 2.2089105
-0.61632264 0.42011416 2.2424111
-0.67172962 0.39165059 2.2799461
-0.72321707 0.35722798 2.3142993
-0.50167739 0.43905148 2.1655812
-0.55410755 0.40959534 2.2020421
-0.60369992 0.37727377 2.2303958
-0.65030056 0.34294173 2.2586567
-0.44547993 0.4285723 2.1243253
-0.49399358 0.3971746 2.1566768
-0.53764307 0.36488572 2.1819181
-0.582192 0.32949242 2.2131228
-0.393985 0.42183912 2.0982304
-0.43485677 0.38573909 2.1123476
-0.47645053 0.35338879 2.1405506
-0.51523292 0.31619138 2.1596103
-0.34084314 0.41142496 2.0540323
-0.38151985 0.37714377 2.078182
-0.42013678 0.34380096 2.1053112
-0.45491999 0.30658919 2.1242957
-0.29338494 0.40474236 2.0260134
-0.33008504 0.36946499 2.0490701
-0.36483768 0.33523461 2.0691082
-0.39576054 0.29613543 2.0809841
-0.25376156 0.4120222 2.0574138
-0.28160828 0.36276066 2.022032
-0.31336543 0.32751966 2.041996
-0.34138632 0.28750032 2.048799
-0.21462366 0.42583406 2.1149507
-0.24255708 0.37364545 2.075516
-0.26826525 0.32624984 2.0471303
-0.28991404 0.27978542 2.0216866
-0.17434706 0.44151539 2.1795018
-0.20323196 0.38727644 2.143049
-0.22624119 0.33514225 2.0995219
-0.24793923 0.28571454 2.0720251
-0.13265391 0.46281224 2.2651355
-0.15912157 0.39908883 2.1994562
-0.18394321 0.34678093 2.1659634
-0.20564911 0.29535353 2.1384301
-0.094960868 0.55663264 2.6562593
-0.13847435 0.54846424 2.8970079
-0.13764596 0.35840523 2.2323291
-0.15830372 0.30492035 2.2077403
-0.038143728 0.55559105 2.6461732
-0.074606262 0.54634345 2.8897715
-0.11419503 0.53927749 3.1794829
-0.15838635 0.52887684 3.544246
0.017654873 0.55457115 2.6351063
-0.011595137 0.54709911 2.889605
-0.041956954 0.54078364 3.1911619
-0.074330769 0.52750319 3.5466483
0.071435109 0.55357653 2.6230776
0.051337168 0.54692721 2.8854225
0.029812142 0.53772467 3.1787586
0.0076237209 0.5242275 3.5440536
0.12751153 0.55630261 2.6260779
0.11311202 0.54490399 2.873225
0.10173887 0.53652078 3.1743884
0.091743335 0.52479917 3.5494907
0.1811115 0.55247134 2.6049981
0.17585318 0.54391325 2.8590276
0.17254952 0.53442913 3.1640215
0.1747804 0.52344728 3.5509121
0.23481685 0.55154902 2.5889702
0.2376093 0.5419082 2.8458309
0.24669755 0.53701824 3.1706822
0.25966728 0.52223283 3.5442986
0.29062331 0.55252874 2.5779393
0.29909939 0.5391565 2.8186207
0.31849319 0.53594095 3.1593146
0.34247574 0.52009809 3.5337059
-0.02611593 -0.059798401 0.050936799
-0.02611593 -0.059798401 0.050936799
0.38921022 0.53393978 3.1439493
0.42740402 0.51984727 3.5291097
0.39607573 0.55165499 2.5479391
0.15916097 0.18803978 1.1873362
-0.02611593 -0.059798401 0.050936799
-0.02611593 -0.059798401 0.050936799
0.44882262 0.5517 2.5339477
0.48479626 0.54175973 2.8001845
0.53184706 0.53375214 3.1232686
0.58848566 0.51309919 3.4799552
0.27243236 0.28591344 1.4480743
0.26518294 0.2460358 1.4424868
0.25892243 0.20817231 1.4359168
0.67571008 0.51656914 3.4903886
0.30341583 0.28781995 1.4465282
0.60519379 0.54188621 2.7669215
0.66886598 0.52916217 3.0706022
0.75519687 0.51375288 3.4628401
0.33428299 0.28883511 1.438966
0.66259086 0.53923941 2.7347879
0.74169201 0.5310626 3.0602694
0.84203905 0.51558501 3.453244
0.36846495 0.29354945 1.4474142
0.72329891 0.5392918 2.718647
0.81035721 0.53012264 3.0419607
0.92258972 0.51471055 3.4287119
0.39511514 0.29177848 1.428877
0.78089511 0.53946352 2.696564
0.87998867 0.53021514 3.021652
1.003159 0.51381803 3.405179
0.42604244 0.29373926 1.4243319
0.83850622 0.53861731 2.675463
0.94538832 0.52853936 2.9893861
1.0837096 0.51294351 3.3806469
0.45059544 0.29106608 1.4008157
0.89500505 0.53788322 2.6483827
1.0171771 0.53047961 2.977073
1.1632082 0.51312673 3.3531525
0.4793655 0.29117909 1.3882749
0.9536612 0.53899688 2.6292982
-0.02611593 -0.059798401 0.050936799
-0.02611593 -0.059798401 0.050936799
-0.02611593 -0.059798401 0.050936799
-0.02611593 -0.059798401 0.050936799
0.38768831 0.14740665 1.0612799
0.49115551 0.15977944 1.295646
