# .PCD v0.7 - Point Cloud Data file format
VERSION 0.7
FIELDS x y z
SIZE 4 4 4
TYPE F F F
COUNT 1 1 1
WIDTH 1377
HEIGHT 1
VIEWPOINT 0 0 0 1 0 0 0
POINTS 1377
DATA ascii
0.64484096 0.60875618 0.7126925
0.68852884 0.60391515 0.74979949
0.7372424 0.60103774 0.78784835
0.79203761 0.60006613 0.82981908
0.65552366 0.60500681 0.69641918
0.70322263 0.6031509 0.73350513
0.75494343 0.60226238 0.77153355
0.8127085 0.60331583 0.81148463
0.67030406 0.60716963 0.68417734
0.7179203 0.60338646 0.71722865
0.76960367 0.60253417 0.75325775
0.82422256 0.5997256 0.78619552
0.68301696 0.60639453 0.66892016
0.73161817 0.6036256 0.70097101
0.78422654 0.60284203 0.7329827
0.83778548 0.59909159 0.76292229
0.6967749 0.60757929 0.65567952
0.74531615 0.60386485 0.68471336
0.79684186 0.60115755 0.71270919
0.85847902 0.60332316 0.74560547
0.70744294 0.60484779 0.63842452
0.75797272 0.60314399 0.66645712
0.81250978 0.60342538 0.69445068
0.87204194 0.60268909 0.72233218
0.7201823 0.60605431 0.62420303
0.77470058 0.60635376 0.65119684
0.8271513 0.60371524 0.67517525
0.88053781 0.59912777 0.69609976
0.73392153 0.60725707 0.6099627
0.7843352 0.60466188 0.63197935
0.83875197 0.60305226 0.65393883
0.89817184 0.60242444 0.67582238
0.74461603 0.60650718 0.59374344
0.79701453 0.60492277 0.61474079
0.85239762 0.6043455 0.63470024
0.91174257 0.60379004 0.65258515
0.75935906 0.60870624 0.57950234
0.80560791 0.60227084 0.59352475
0.86400229 0.60468233 0.61348182
0.92533201 0.60513765 0.63034755
0.76803517 0.60798162 0.56232095
0.81624621 0.60157526 0.57430649
0.87560689 0.60501915 0.59226346
0.9338358 0.60357594 0.60415125
0.77872962 0.6072318 0.54610169
0.83095968 0.60581017 0.55810207
0.88721156 0.60535592 0.5710451
0.94640666 0.60494518 0.58093274
0.78942811 0.60748178 0.52990037
0.84262043 0.60609263 0.53988278
0.89679778 0.60571802 0.54886472
0.95392925 0.60336906 0.55575484
0.79908538 0.60677153 0.51170057
0.8512404 0.60542232 0.51970237
0.90840626 0.60705465 0.5276643
0.96448183 0.60476351 0.53157431
0.81080616 0.60799974 0.4964982
0.86390883 0.607701 0.50150025
0.91801137 0.60739863 0.50648355
0.97301215 0.60518348 0.5064137
0.82553834 0.61221653 0.4812935
0.87252891 0.60703057 0.4813199
0.926579 0.60778236 0.4833222
0.98559088 0.6085524 0.48323128
0.83116972 0.60953915 0.46213314
0.88115275 0.60736006 0.46115756
0.93618405 0.60812634 0.46214142
0.99414384 0.609954 0.4590883
0.83982712 0.60883272 0.44395211
0.89484757 0.61161661 0.44397235
0.94577819 0.61048806 0.43999702
0.99865216 0.60940659 0.43298513
0.84951091 0.61010408 0.42678797
0.90447527 0.6129424 0.4238092
0.95134246 0.60988277 0.41687408
1.0102164 0.61379695 0.40883985
0.86119837 0.61236817 0.40960428
0.9100731 0.611301 0.40266755
0.96194035 0.61324072 0.39472887
1.0116987 0.61127865 0.38175735
0.86683363 0.61069071 0.39046195
0.91970462 0.6136266 0.38252249
0.96750474 0.61263537 0.37160587
1.0232816 0.61565101 0.35861176
0.8764987 0.6119802 0.37229818
0.92328417 0.6120106 0.36041874
0.96904325 0.6100629 0.34752238
1.0217645 0.6131435 0.33158562
0.88213795 0.61130255 0.35317385
0.92888606 0.61136907 0.33929509
0.97864127 0.61342442 0.32539597
1.0232736 0.61260676 0.30553886
0.88878101 0.6116212 0.33404875
0.93649524 0.61272007 0.31816989
0.98219121 0.61384422 0.30132896
1.0277897 0.61405897 0.27947173
0.89642382 0.61193615 0.31490487
0.945131 0.61604911 0.29806161
0.99379683 0.6191982 0.27920103
1.0303248 0.61550027 0.25444186
0.90206695 0.61225832 0.29579854
0.94468462 0.6124658 0.27499735
0.98730618 0.61367303 0.25421414
1.0308342 0.61496711 0.22841385
0.91272098 0.61556196 0.27665237
0.95432407 0.61679101 0.2548883
0.99288237 0.61606717 0.23114523
0.96600682 0.57385522 0.19287187
0.91533816 0.61391336 0.2565667
0.95791143 0.61717463 0.23282057
0.6766991 0.40558708 0.15823294
0.63499075 0.36226627 0.12922037
0.92198503 0.61523169 0.23745964
0.62357014 0.38483509 0.15585147
0.60503286 0.35732055 0.13269298
0.61763632 0.35263649 0.11236538
0.61071235 0.39177206 0.16221985
0.59916675 0.36724991 0.13798422
0.58265966 0.34270951 0.11584185
0.58522272 0.33208054 0.094594389
0.58327514 0.37021637 0.14333722
0.58483052 0.35759127 0.12207252
0.57636422 0.33900312 0.1008876
-0.02611593 -0.059798401 0.050936799
0.56594241 0.35655108 0.12840948
0.56850553 0.34592208 0.10716202
0.58413893 0.34420869 0.08783178
-0.02611593 -0.059798401 0.050936799
0.57774305 0.3637239 0.11631419
0.5652321 0.34318656 0.093169086
0.5718289 0.33652443 0.072918199
0.57438499 0.328913 0.050725136
0.58653241 0.367908 0.10422122
0.56197757 0.34043303 0.080175802
0.56254488 0.33081102 0.058983948
-0.02611593 -0.059798401 0.050936799
0.5601778 0.34827605 0.089354485
0.55872285 0.33767951 0.067182526
0.56230545 0.332046 0.046006374
0.59292012 0.3453486 0.022665905
0.55191225 0.34254095 0.076401107
0.55948323 0.33891085 0.054186162
0.55304402 0.32731432 0.033089798
0.57061106 0.332683 0.0088497959
0.55567598 0.34476143 0.063366383
0.55725497 0.3381353 0.042209793
0.55280459 0.3285493 0.020112224
0.5773564 0.339928 -0.0061505213
0.54943281 0.34000087 0.051393107
0.5560078 0.33737418 0.029214969
0.562572 0.33676532 0.0060732104
0.60910779 0.36413473 -0.024313278
0.55522269 0.34419569 0.0393565
0.56376779 0.34359771 0.0151775
0.56732863 0.34199974 -0.0079259053
-0.02611593 -0.059798401 0.050936799
0.55397558 0.34343463 0.026361678
0.5645321 0.34582898 0.0021991543
0.57106274 0.34625608 -0.022923909
0.61055452 0.37168711 -0.055214219
0.56175041 0.34864023 0.01330585
0.56429261 0.34706393 -0.01077842
0.58081543 0.35548997 -0.037944566
0.61327404 0.3769649 -0.071175076
0.55851841 0.3468684 0.0013302527
0.57004911 0.35229477 -0.024796329
0.57256174 0.35275432 -0.050843887
0.73982185 0.4682534 -0.11390756
0.58929962 0.36904281 -0.014850419
0.57278335 0.35655469 -0.039775543
0.59727997 0.37300488 -0.06994684
0.75743604 0.48562002 -0.13793135
0.59004122 0.37029234 -0.02884645
0.58652443 0.36779201 -0.055834986
0.70784372 0.45329839 -0.10957789
0.76308107 0.49597669 -0.15885678
0.56678051 0.3555764 -0.039680816
0.59326988 0.37503701 -0.070835307
0.76143712 0.49564016 -0.13982566
0.91730994 0.61255831 -0.22365749
0.58453268 0.36979884 -0.055761367
0.69386411 0.44831336 -0.10740559
0.87184405 0.5790959 -0.18839958
0.93381983 0.63203675 -0.25362441
0.59526247 0.37804741 -0.071818501
0.80333823 0.5297007 -0.15199816
0.93526506 0.6305992 -0.22966936
0.2020525 0.10674436 -0.027349066
0.68287992 0.44231763 -0.10530769
0.91672993 0.61416364 -0.2016101
0.93084693 0.63402903 -0.25253233
0.19398209 0.10282802 -0.030269802
0.82530344 0.54570943 -0.15712154
0.93126577 0.63061351 -0.2295942
0.21202593 0.11476137 -0.030391809
-0.02611593 -0.059798401 0.050936799
0.91175646 0.61114591 -0.19957089
0.92585868 0.63202929 -0.25147477
0.19498584 0.10382427 -0.030270576
0.16293186 0.083924428 -0.029029988
0.93428791 0.63158453 -0.22863287
0.21102218 0.11376514 -0.030391037
-0.02611593 -0.059798401 0.050936799
-0.02611593 -0.059798401 0.050936799
0.92289579 0.62698662 -0.2485095
0.19697067 0.104835 -0.031289797
0.16295058 0.083906338 -0.028030328
0.14285487 0.073034257 -0.030851696
0.20106748 0.10573003 -0.026348636
-0.02611593 -0.059798401 0.050936799
-0.02611593 -0.059798401 0.050936799
-0.02611593 -0.059798401 0.050936799
0.19100437 0.098803297 -0.028286189
0.17290136 0.090941615 -0.03209075
0.15081689 0.078058951 -0.033910915
0.12481888 0.063100547 -0.03069365
-0.02611593 -0.059798401 0.050936799
-0.02611593 -0.059798401 0.050936799
-0.02611593 -0.059798401 0.050936799
-0.02611593 -0.059798401 0.050936799
0.16593131 0.083913662 -0.029086359
0.15083167 0.077041037 -0.032929268
0.12880336 0.064104117 -0.031750463
0.10977148 0.055173833 -0.031555612
-0.02611593 -0.059798401 0.050936799
-0.02611593 -0.059798401 0.050936799
-0.02611593 -0.059798401 0.050936799
-0.02611593 -0.059798401 0.050936799
0.14686893 0.072001971 -0.029945217
0.13377678 0.067121834 -0.033789679
0.11375597 0.0561774 -0.032612406
0.095761351 0.047207352 -0.030437022
-0.02611593 -0.059798401 0.050936799
-0.02611593 -0.059798401 0.050936799
-0.02611593 -0.059798401 0.050936799
-0.02611593 -0.059798401 0.050936799
0.12584044 0.059061468 -0.028785199
0.11674061 0.057184547 -0.033650424
0.10073085 0.049225248 -0.032494258
0.080766201 0.038226541 -0.02831801
-0.02611593 -0.059798401 0.050936799
-0.02611593 -0.059798401 0.050936799
-0.02611593 -0.059798401 0.050936799
-0.02611593 -0.059798401 0.050936799
0.10881907 0.048106261 -0.027664304
0.10469659 0.050246891 -0.034550734
0.086720712 0.041258764 -0.031375684
0.074721992 0.036284588 -0.030240625
-0.02611593 -0.059798401 0.050936799
-0.02611593 -0.059798401 0.050936799
-0.02611593 -0.059798401 0.050936799
-0.02611593 -0.059798401 0.050936799
0.096775055 0.041168608 -0.028564606
0.093656324 0.044305485 -0.035451811
0.074714139 0.034284927 -0.030276664
0.060764097 0.02726401 -0.026141077
-0.02611593 -0.059798401 0.050936799
-0.02611593 -0.059798401 0.050936799
-0.02611593 -0.059798401 0.050936799
-0.02611593 -0.059798401 0.050936799
0.084749758 0.034212861 -0.028465249
0.079664908 0.03632091 -0.033333562
0.067666188 0.031346746 -0.032198504
0.055704914 0.026336391 -0.02906413
-0.02611593 -0.059798401 0.050936799
-0.02611593 -0.059798401 0.050936799
-0.02611593 -0.059798401 0.050936799
-0.02611593 -0.059798401 0.050936799
0.073742993 0.027235443 -0.027385022
0.067691848 0.028311066 -0.030253239
0.059655868 0.028375957 -0.032102231
0.046724375 0.021333359 -0.026985791
-0.02611593 -0.059798401 0.050936799
-0.02611593 -0.059798401 0.050936799
-0.02611593 -0.059798401 0.050936799
-0.02611593 -0.059798401 0.050936799
0.064728931 0.02326842 -0.027287979
0.062632672 0.027383454 -0.033176288
0.051660351 0.024387263 -0.031024333
0.041683905 0.020387659 -0.028909173
-0.02611593 -0.059798401 0.050936799
-0.02611593 -0.059798401 0.050936799
-0.02611593 -0.059798401 0.050936799
-0.02611593 -0.059798401 0.050936799
0.055729665 0.018283486 -0.026209291
0.053618614 0.023416432 -0.033079248
0.044649843 0.021412894 -0.030946851
0.033692315 0.017398782 -0.027813245
-0.02611593 -0.059798401 0.050936799
-0.02611593 -0.059798401 0.050936799
-0.02611593 -0.059798401 0.050936799
-0.02611593 -0.059798401 0.050936799
0.051655509 0.018370196 -0.030132774
0.044652857 0.017395481 -0.030019257
0.039609384 0.020467192 -0.032870237
0.030655414 0.017445728 -0.029756192
-0.02611593 -0.059798401 0.050936799
-0.02611593 -0.059798401 0.050936799
-0.02611593 -0.059798401 0.050936799
-0.02611593 -0.059798401 0.050936799
0.042671032 0.012367335 -0.02807245
0.040597428 0.017464105 -0.032943081
0.031628657 0.015460572 -0.030810688
0.024652593 0.016467437 -0.029661469
-0.02611593 -0.059798401 0.050936799
-0.02611593 -0.059798401 0.050936799
-0.02611593 -0.059798401 0.050936799
-0.02611593 -0.059798401 0.050936799
0.033724006 0.0063282959 -0.024012804
0.035556968 0.016518403 -0.034866475
0.028576968 0.016525436 -0.033735283
0.01867542 0.012453469 -0.027621478
-0.02611593 -0.059798401 0.050936799
-0.02611593 -0.059798401 0.050936799
-0.02611593 -0.059798401 0.050936799
-0.02611593 -0.059798401 0.050936799
0.029668566 0.0063969181 -0.026936628
0.02857998 0.012508025 -0.032807689
0.02257021 0.01454731 -0.033658575
0.01465743 0.012485914 -0.028545976
-0.02611593 -0.059798401 0.050936799
-0.02611593 -0.059798401 0.050936799
-0.02611593 -0.059798401 0.050936799
-0.02611593 -0.059798401 0.050936799
0.021740077 0.00033621152 -0.021896102
0.024543267 0.012558559 -0.03473185
0.016611766 0.010515253 -0.030618921
0.0096692163 0.010486108 -0.027488403
-0.02611593 -0.059798401 0.050936799
-0.02611593 -0.059798401 0.050936799
-0.02611593 -0.059798401 0.050936799
-0.02611593 -0.059798401 0.050936799
0.019654682 0.0024334923 -0.026820794
0.018540435 0.011580262 -0.034637127
0.012560256 0.011583706 -0.033524726
0.0046662013 0.0095042298 -0.02741247
-0.02611593 -0.059798401 0.050936799
-0.02611593 -0.059798401 0.050936799
-0.02611593 -0.059798401 0.050936799
-0.02611593 -0.059798401 0.050936799
0.014666468 0.00043369015 -0.025763214
0.014503723 0.011630796 -0.036561284
0.0085422657 0.011616152 -0.034449223
0.0016480259 0.0095330859 -0.028355755
-0.02611593 -0.059798401 0.050936799
-0.02611593 -0.059798401 0.050936799
-0.02611593 -0.059798401 0.050936799
-0.02611593 -0.059798401 0.050936799
0.010629753 0.000484224 -0.027687378
0.0085452776 0.007598747 -0.033521637
0.0035875668 0.0085803438 -0.031410329
-0.0023699636 0.0095655303 -0.029280253
-0.02611593 -0.059798401 0.050936799
-0.02611593 -0.059798401 0.050936799
-0.02611593 -0.059798401 0.050936799
-0.02611593 -0.059798401 0.050936799
0.0056415377 -0.0015155819 -0.026629802
0.004527288 0.007631192 -0.034446135
-0.00043042272 0.0086127892 -0.032334834
-0.0073207365 0.007529546 -0.026223358
-0.02611593 -0.059798401 0.050936799
-0.02611593 -0.059798401 0.050936799
-0.02611593 -0.059798401 0.050936799
-0.02611593 -0.059798401 0.050936799
0.0025898451 -0.00045072101 -0.029554389
-0.00047572283 0.0066492981 -0.034370199
-0.0044780066 0.010681066 -0.035222623
-0.0094169946 0.011644574 -0.032111667
-0.02611593 -0.059798401 0.050936799
-0.02611593 -0.059798401 0.050936799
-0.02611593 -0.059798401 0.050936799
-0.02611593 -0.059798401 0.050936799
-0.02611593 -0.059798401 0.050936799
-0.0044937162 0.0066817431 -0.035294697
-0.0084959976 0.01071351 -0.036147121
-0.014338177 0.0075727575 -0.027091485
-0.02611593 -0.059798401 0.050936799
-0.02611593 -0.059798401 0.050936799
-0.02611593 -0.059798401 0.050936799
-0.02611593 -0.059798401 0.050936799
-0.02611593 -0.059798401 0.050936799
-0.0085117072 0.0067141876 -0.036219195
-0.013431974 0.0076596141 -0.032108579
-0.017356351 0.0076016136 -0.028034769
-0.02611593 -0.059798401 0.050936799
-0.02611593 -0.059798401 0.050936799
-0.02611593 -0.059798401 0.050936799
-0.02611593 -0.059798401 0.050936799
-0.010430424 -0.001385803 -0.030327797
-0.013432888 0.0026423717 -0.031199005
-0.016461015 0.0097062206 -0.034015499
-0.021366488 0.0096337199 -0.028923232
-0.02611593 -0.059798401 0.050936799
-0.02611593 -0.059798401 0.050936799
-0.02611593 -0.059798401 0.050936799
-0.02611593 -0.059798401 0.050936799
-0.02611593 -0.059798401 0.050936799
-0.016514171 0.0057430761 -0.036086891
-0.020508595 0.011774497 -0.036903281
-0.024395527 0.011680318 -0.030830141
-0.02611593 -0.059798401 0.050936799
-0.02611593 -0.059798401 0.050936799
-0.02611593 -0.059798401 0.050936799
-0.02611593 -0.059798401 0.050936799
-0.02611593 -0.059798401 0.050936799
-0.021450147 0.002689172 -0.032048345
-0.024444755 0.0087170117 -0.032883529
-0.027350593 0.0086373333 -0.027828846
-0.02611593 -0.059798401 0.050936799
-0.02611593 -0.059798401 0.050936799
-0.02611593 -0.059798401 0.050936799
-0.02611593 -0.059798401 0.050936799
-0.02611593 -0.059798401 0.050936799
-0.025430694 0.0026854388 -0.030973516
-0.027459003 0.0097456984 -0.033808801
-0.031331141 0.0086336005 -0.026754025
-0.02611593 -0.059798401 0.050936799
-0.02611593 -0.059798401 0.050936799
-0.02611593 -0.059798401 0.050936799
-0.02611593 -0.059798401 0.050936799
-0.02611593 -0.059798401 0.050936799
-0.027411604 0.0026745275 -0.029936284
-0.031424753 0.008724045 -0.031752329
-0.034326661 0.0096441973 -0.026679639
-0.02611593 -0.059798401 0.050936799
-0.02611593 -0.059798401 0.050936799
-0.02611593 -0.059798401 0.050936799
-0.02611593 -0.059798401 0.050936799
-0.02611593 -0.059798401 0.050936799
-0.031444389 0.0037248919 -0.031842422
-0.03548713 0.011810242 -0.035621759
-0.037307389 0.0096368752 -0.025623608
-0.02611593 -0.059798401 0.050936799
-0.02611593 -0.059798401 0.050936799
-0.02611593 -0.059798401 0.050936799
-0.02611593 -0.059798401 0.050936799
-0.02611593 -0.059798401 0.050936799
-0.035428863 0.0027213278 -0.030785613
-0.038404748 0.0087310784 -0.030621126
-0.04130666 0.0096512306 -0.025548443
-0.02611593 -0.059798401 0.050936799
-0.02611593 -0.059798401 0.050936799
-0.02611593 -0.059798401 0.050936799
-0.02611593 -0.059798401 0.050936799
-0.02611593 -0.059798401 0.050936799
-0.040468406 0.006792855 -0.033618577
-0.043429498 0.011784686 -0.032472454
-0.045350313 0.012719338 -0.028418202
-0.02611593 -0.059798401 0.050936799
-0.02611593 -0.059798401 0.050936799
-0.02611593 -0.059798401 0.050936799
-0.02611593 -0.059798401 0.050936799
-0.02611593 -0.059798401 0.050936799
-0.044467676 0.0068072104 -0.033543415
-0.047458354 0.013834881 -0.034360573
-0.049341727 0.014733355 -0.028307006
-0.02611593 -0.059798401 0.050936799
-0.02611593 -0.059798401 0.050936799
-0.02611593 -0.059798401 0.050936799
-0.02611593 -0.059798401 0.050936799
-0.044401556 -0.00028204208 -0.028671235
-0.047429677 0.0067817993 -0.031487718
-0.050405566 0.01279155 -0.031323235
-0.053337067 0.015747542 -0.028213825
-0.02611593 -0.059798401 0.050936799
-0.02611593 -0.059798401 0.050936799
-0.02611593 -0.059798401 0.050936799
-0.02611593 -0.059798401 0.050936799
-0.049430229 0.001771742 -0.030540563
-0.052473154 0.0098535102 -0.034338698
-0.055434242 0.014845334 -0.033192575
-0.056313865 0.01674005 -0.027139775
-0.02611593 -0.059798401 0.050936799
-0.02611593 -0.059798401 0.050936799
-0.02611593 -0.059798401 0.050936799
-0.02611593 -0.059798401 0.050936799
-0.053425569 0.0027859283 -0.030447382
-0.05643497 0.0098316874 -0.032264218
-0.060473781 0.018916868 -0.036025528
-0.061338618 0.019793665 -0.028991092
-0.02611593 -0.059798401 0.050936799
-0.02611593 -0.059798401 0.050936799
-0.02611593 -0.059798401 0.050936799
-0.02611593 -0.059798401 0.050936799
-0.057387393 0.0027641058 -0.028372902
-0.06248913 0.014924724 -0.036060024
-0.064402096 0.017859031 -0.031969741
-0.064300619 0.019768253 -0.026935395
-0.02611593 -0.059798401 0.050936799
-0.02611593 -0.059798401 0.050936799
-0.02611593 -0.059798401 0.050936799
-0.02611593 -0.059798401 0.050936799
-0.061382733 0.0037782921 -0.028279718
-0.066450946 0.014902901 -0.033985537
-0.068412222 0.019891143 -0.032858204
-0.069310576 0.021803942 -0.027805064
-0.02611593 -0.059798401 0.050936799
-0.02611593 -0.059798401 0.050936799
-0.02611593 -0.059798401 0.050936799
-0.02611593 -0.059798401 0.050936799
-0.065329753 0.0027385501 -0.025223598
-0.071427383 0.015902586 -0.032873906
-0.073384732 0.021890651 -0.031728555
-0.068151027 0.014620653 -0.017953377
-0.02611593 -0.059798401 0.050936799
-0.02611593 -0.059798401 0.050936799
-0.02611593 -0.059798401 0.050936799
-0.02611593 -0.059798401 0.050936799
-0.070320994 0.0047561559 -0.025093611
-0.077448025 0.019959621 -0.034688409
-0.077361353 0.022886749 -0.030635707
-0.072142437 0.016634671 -0.017842177
-0.02611593 -0.059798401 0.050936799
-0.02611593 -0.059798401 0.050936799
-0.02611593 -0.059798401 0.050936799
-0.02611593 -0.059798401 0.050936799
-0.07532309 0.0087915128 -0.025927242
-0.081391126 0.019919708 -0.031614266
-0.083348475 0.025907775 -0.030468907
-0.078177862 0.021709617 -0.020638328
-0.02611593 -0.059798401 0.050936799
-0.02611593 -0.059798401 0.050936799
-0.02611593 -0.059798401 0.050936799
-0.02611593 -0.059798401 0.050936799
-0.080299519 0.0097911982 -0.024815612
-0.087378249 0.022940729 -0.031447466
-0.086291753 0.025864273 -0.027413551
-0.087234482 0.03083084 -0.025305349
-0.02611593 -0.059798401 0.050936799
-0.02611593 -0.059798401 0.050936799
-0.02611593 -0.059798401 0.050936799
-0.02611593 -0.059798401 0.050936799
-0.087316051 0.014851645 -0.026593305
-0.093365364 0.025961753 -0.03128067
-0.093293481 0.029906802 -0.028209612
-0.093251199 0.035887696 -0.027101833
-0.02611593 -0.059798401 0.050936799
-0.02611593 -0.059798401 0.050936799
-0.02611593 -0.059798401 0.050936799
-0.02611593 -0.059798401 0.050936799
-0.091259152 0.014811733 -0.023519158
-0.10136298 0.031007707 -0.032039911
-0.10233923 0.037010271 -0.031913009
-0.1002342 0.039912134 -0.026898228
-0.02611593 -0.059798401 0.050936799
-0.02611593 -0.059798401 0.050936799
-0.02611593 -0.059798401 0.050936799
-0.02611593 -0.059798401 0.050936799
-0.10130079 0.022918615 -0.027185746
-0.1063355 0.033007216 -0.030910261
-0.10627449 0.038970023 -0.028802816
-0.10418817 0.04188998 -0.024787705
-0.02611593 -0.059798401 0.050936799
-0.02611593 -0.059798401 0.050936799
-0.02611593 -0.059798401 0.050936799
-0.02611593 -0.059798401 0.050936799
-0.10826901 0.025925143 -0.0260005
-0.11228517 0.035992064 -0.028744131
-0.1132575 0.042994469 -0.02859921
-0.11118598 0.046932332 -0.02556574
-0.02611593 -0.059798401 0.050936799
-0.02611593 -0.059798401 0.050936799
-0.02611593 -0.059798401 0.050936799
-0.02611593 -0.059798401 0.050936799
-0.11421867 0.028909981 -0.023834381
-0.12430379 0.045087866 -0.03135547
-0.12426151 0.051068753 -0.030247699
-0.11713565 0.049917184 -0.023399625
-0.02611593 -0.059798401 0.050936799
-0.02611593 -0.059798401 0.050936799
-0.02611593 -0.059798401 0.050936799
-0.02611593 -0.059798401 0.050936799
-0.12319347 0.034941267 -0.023557156
-0.13023867 0.047054786 -0.028207697
-0.13122578 0.055075109 -0.029044427
-0.12612523 0.056966383 -0.024104036
-0.02611593 -0.059798401 0.050936799
-0.02611593 -0.059798401 0.050936799
-0.02611593 -0.059798401 0.050936799
-0.02611593 -0.059798401 0.050936799
-0.1351825 0.042001236 -0.0242052
-0.14020935 0.054089498 -0.027893662
-0.14016312 0.061070215 -0.026767883
-0.13408542 0.06197615 -0.022863962
-0.02611593 -0.059798401 0.050936799
-0.02611593 -0.059798401 0.050936799
-0.02611593 -0.059798401 0.050936799
-0.02611593 -0.059798401 0.050936799
-0.15018879 0.054107297 -0.026706103
-0.15520085 0.065177634 -0.029412936
-0.15315892 0.071151339 -0.028342739
-0.14910649 0.075100131 -0.026346508
-0.02611593 -0.059798401 0.050936799
-0.02611593 -0.059798401 0.050936799
-0.02611593 -0.059798401 0.050936799
-0.02611593 -0.059798401 0.050936799
-0.16012594 0.060105987 -0.024410766
-0.16917379 0.076244101 -0.029951323
-0.16612118 0.080196463 -0.027936295
-0.16005434 0.083120167 -0.024995998
-0.02611593 -0.059798401 0.050936799
-0.02611593 -0.059798401 0.050936799
-0.02611593 -0.059798401 0.050936799
-0.02611593 -0.059798401 0.050936799
-0.18211526 0.076236486 -0.026708055
-0.18210256 0.084253207 -0.027563572
-0.18107131 0.092248261 -0.027438216
-0.17400858 0.094168521 -0.024534725
-0.02611593 -0.059798401 0.050936799
-0.02611593 -0.059798401 0.050936799
-0.02611593 -0.059798401 0.050936799
-0.02611593 -0.059798401 0.050936799
-0.20003824 0.090280615 -0.025117915
-0.19601934 0.095265411 -0.025102984
-0.19298153 0.10023572 -0.024069596
-0.1889587 0.10622033 -0.024036646
-0.02611593 -0.059798401 0.050936799
-0.02611593 -0.059798401 0.050936799
-0.02611593 -0.059798401 0.050936799
-0.02611593 -0.059798401 0.050936799
-0.22597758 0.10938878 -0.025286656
-0.21994425 0.11334849 -0.024327677
-0.2159214 0.11933311 -0.024294727
-0.2099068 0.12331088 -0.024335396
-0.02611593 -0.059798401 0.050936799
-0.02611593 -0.059798401 0.050936799
-0.02611593 -0.059798401 0.050936799
-0.02611593 -0.059798401 0.050936799
-0.25988796 0.13552448 -0.025178969
-0.24685682 0.13444182 -0.023441941
-0.2398424 0.13841601 -0.023501404
-0.22781108 0.13733692 -0.021745581
-0.02611593 -0.059798401 0.050936799
-0.02611593 -0.059798401 0.050936799
-0.02611593 -0.059798401 0.050936799
-0.02611593 -0.059798401 0.050936799
-0.87811643 0.64787245 -0.18238951
-0.83911961 0.6487323 -0.18310432
-0.02611593 -0.059798401 0.050936799
-0.25874075 0.16347995 -0.022693921
-0.88271838 0.64851034 -0.16128466
-0.84176731 0.6473996 -0.16407239
-0.81078678 0.65332347 -0.16654614
-0.02611593 -0.059798401 0.050936799
-0.88231832 0.64511293 -0.13934615
-0.84540695 0.64806998 -0.14498566
-0.81646353 0.6540373 -0.14942113
-0.77953422 0.65195912 -0.15315139
-0.88693118 0.6477685 -0.11920493
-0.85004628 0.64874411 -0.12588012
-0.82114041 0.65474755 -0.13231491
-0.7872442 0.65371621 -0.13797012
-0.89052939 0.64940268 -0.098100856
-0.85169411 0.64740777 -0.10686702
-0.82381064 0.65243304 -0.11430068
-0.79094392 0.65344113 -0.12190038
-0.88714856 0.6460126 -0.077218391
-0.85132754 0.64504635 -0.086909808
-0.82748777 0.65313977 -0.097213261
-0.79365158 0.6511628 -0.10588546
-0.88775128 0.64663613 -0.05618871
-0.85596305 0.64672023 -0.067786276
-0.82915425 0.65182143 -0.079199798
-0.79735523 0.6498878 -0.089833736
-0.887362 0.64525646 -0.035213836
-0.85561126 0.64537674 -0.048810735
-0.82882512 0.6494962 -0.06124194
-0.80105489 0.64961278 -0.073763996
-0.88596511 0.64587277 -0.01422172
-0.86225331 0.65007538 -0.030595198
-0.83350199 0.65020651 -0.04413572
-0.80475068 0.65033758 -0.057676248
-0.8855719 0.64549291 0.0067711622
-0.85789138 0.64669985 -0.010731205
-0.8341648 0.64988452 -0.026123025
-0.80444813 0.64603072 -0.04075408
-0.88220191 0.64412057 0.026689988
-0.85654372 0.64435279 0.0082075372
-0.83782315 0.65057302 -0.0080359504
-0.81013572 0.64876229 -0.024592705
-0.87881327 0.64273006 0.04760848
-0.85718387 0.64501256 0.027237903
-0.84049648 0.65227598 0.0090506896
-0.81184363 0.64648044 -0.0085965842
-0.87743497 0.64336455 0.067600928
-0.85682422 0.64566875 0.046249479
-0.84016728 0.64995068 0.02700856
-0.81750846 0.65019375 0.0085824728
-0.87308395 0.6420067 0.086501315
-0.85546869 0.64532143 0.065224253
-0.83684266 0.64661479 0.044892032
-0.8192125 0.64891171 0.024596617
-0.87269771 0.64464438 0.10654858
-0.85014439 0.64197838 0.083070144
-0.8384974 0.64829612 0.062959552
-0.82089382 0.64861137 0.041628435
-0.8663283 0.64326119 0.12641105
-0.8487848 0.64263093 0.10206294
-0.83618736 0.64598173 0.079880171
-0.82157928 0.64730757 0.058623441
-0.86095864 0.6418817 0.1462923
-0.84545231 0.64129472 0.11998244
-0.83684623 0.64665955 0.097910866
-0.82226086 0.64700359 0.075636469
-0.85560387 0.64152002 0.16519192
-0.84309697 0.64094388 0.13893843
-0.8375051 0.64733738 0.11594159
-0.82196528 0.6457144 0.091613032
-0.85025299 0.64015859 0.18407349
-0.84173357 0.64259624 0.15794924
-0.83219951 0.64401245 0.13278782
-0.8226468 0.64541048 0.10862606
-0.84389836 0.63979334 0.20295431
-0.83739728 0.64225626 0.17586797
-0.83285445 0.64569002 0.15083653
-0.82830781 0.65012366 0.12582314
-0.83853966 0.64043152 0.22187196
-0.83405691 0.64291972 0.19382352
-0.82555324 0.64135808 0.16762719
-0.82300609 0.64579886 0.14265135
-0.83616853 0.64407998 0.24089998
-0.83072042 0.64258343 0.21176104
-0.83316064 0.65004158 0.18693322
-0.82368761 0.64549494 0.15966436
-0.82881403 0.64371115 0.25976199
-0.82339257 0.64023298 0.22958738
-0.82089865 0.64071065 0.20254014
-0.8193779 0.64317346 0.17654741
-0.8185094 0.64036822 0.27651429
-0.8190524 0.6408928 0.24752411
-0.8185541 0.6423775 0.22053251
-0.82005554 0.64386928 0.19357847
-0.81017387 0.64001393 0.29435787
-0.81371236 0.64154911 0.2654421
-0.81424445 0.64005595 0.23741555
-0.81574976 0.64054799 0.2104435
-0.80383009 0.64166647 0.31227505
-0.81136787 0.64321601 0.28343445
-0.80992693 0.63973409 0.25433463
-0.81243598 0.63922989 0.22736333
-0.79651308 0.64133388 0.32913777
-0.80305493 0.64187998 0.30026037
-0.8065865 0.64039755 0.27229017
-0.81210983 0.64092201 0.24439359
-0.78619659 0.64099044 0.34594411
-0.79476082 0.64056206 0.31608659
-0.80424201 0.64206439 0.29028252
-0.80879599 0.63960385 0.26131347
-0.7729339 0.63667315 0.36062267
-0.78842485 0.64021486 0.33396775
-0.79695159 0.63975024 0.30610952
-0.80249053 0.63627535 0.2781409
-0.76264012 0.63534802 0.37641132
-0.78012681 0.63989675 0.349812
-0.78966117 0.63743603 0.32193655
-0.80511469 0.64094162 0.29728091
-0.75431538 0.63701141 0.39329129
-0.77280974 0.6395641 0.36667466
-0.7823481 0.63610363 0.33878124
-0.79981995 0.63963437 0.31316352
-0.74601334 0.63769311 0.40915352
-0.76351577 0.63824248 0.38248217
-0.77802658 0.63678151 0.35571831
-0.79351062 0.63730568 0.33000898
-0.73274279 0.6353755 0.42386815
-0.75127161 0.63394696 0.39617983
-0.77467835 0.63944465 0.37370992
-0.78819323 0.63698024 0.34690925
-0.72146791 0.63406485 0.43863833
-0.74297345 0.63362879 0.41202408
-0.76835716 0.64011544 0.39060941
-0.78487551 0.63666201 0.36384717
-0.70723879 0.63077986 0.45131683
-0.73269838 0.63232172 0.42681307
-0.76105893 0.63980091 0.40647247
-0.78053534 0.63732183 0.3817839
-0.69892895 0.63346136 0.46721515
-0.72736531 0.63599557 0.44378543
-0.75079179 0.63649416 0.42122543
-0.77324098 0.63600743 0.3976289
-0.68372267 0.6291911 0.47885713
-0.71611309 0.63370323 0.45753795
-0.74546647 0.63816839 0.43816173
-0.76989663 0.6376707 0.41560248
-0.67738199 0.63486099 0.49584675
-0.70483816 0.63239253 0.47230816
-0.73419946 0.63485807 0.45289588
-0.76160645 0.63535297 0.4314107
-0.66119862 0.62960541 0.50645226
-0.69358587 0.63010019 0.48606068
-0.72592002 0.63455808 0.46774051
-0.7533161 0.63303512 0.44721889
-0.65093035 0.63131601 0.52029562
-0.687253 0.63377041 0.50301421
-0.71859521 0.63622504 0.48463923
-0.74699509 0.63370597 0.46411842
-0.63771206 0.63005239 0.53202927
-0.67304265 0.63050359 0.51469308
-0.70634711 0.63292927 0.49835494
-0.73870081 0.63238794 0.47994465
-0.62253934 0.62681824 0.54168999
-0.66670585 0.63517368 0.53166461
-0.69806772 0.63262922 0.51319957
-0.72940683 0.63106632 0.4957521
-0.61324835 0.62951404 0.55656981
-0.65054113 0.62993622 0.54127049
-0.68778867 0.63232201 0.52800655
-0.72208595 0.6317336 0.51263285
-0.6000222 0.63025016 0.56833947
-0.64028084 0.62964714 0.55507785
-0.67750973 0.63201481 0.54281354
-0.71476501 0.63240081 0.52951354
-0.58387232 0.62603068 0.57696378
-0.62703985 0.62936527 0.56782919
-0.66527629 0.62973684 0.5555476
-0.70251691 0.62910497 0.54322928
-0.57261914 0.62875545 0.58980668
-0.61774892 0.63206118 0.58270907
-0.65304297 0.62745893 0.56828171
-0.69224572 0.62679815 0.55800027
-0.55648798 0.62455398 0.5974313
-0.603576 0.62883049 0.59238857
-0.64471436 0.63012224 0.58517963
-0.68392104 0.62846148 0.57488018
-0.5413301 0.6223377 0.60611027
-0.59233063 0.62955576 0.60519546
-0.63347691 0.62884772 0.59795052
-0.67067313 0.62516212 0.58857715
-0.53202736 0.62803304 0.62104422
-0.57910836 0.62929201 0.61694711
-0.61826682 0.62557739 0.60961062
-0.66139394 0.62485844 0.60340291
-0.51784265 0.6278019 0.63077778
-0.5639357 0.6260578 0.62660778
-0.60702538 0.62530279 0.62239945
-0.65206939 0.62651831 0.62026405
-0.50368065 0.62658906 0.63949358
-0.54878175 0.62284172 0.63526881
-0.59673852 0.62699521 0.63724256
-0.63981336 0.62522221 0.63401586
-0.48951474 0.62637597 0.64822751
-0.53848702 0.62653381 0.65014791
-0.58252031 0.62572807 0.64895737
-0.62853462 0.62491143 0.64880407
-0.47437161 0.62517762 0.65592492
-0.52237457 0.62235039 0.65677279
-0.56930196 0.62446451 0.66069102
-0.61821032 0.6265676 0.66564643
-0.46120158 0.62596798 0.66469562
-0.51014429 0.62409002 0.66857934
-0.55899245 0.62713861 0.6765517
-0.60399604 0.62430072 0.67734319
-0.44605842 0.62476963 0.67239308
-0.49886844 0.62779653 0.68243998
-0.54479301 0.6258896 0.68726695
-0.5907402 0.62300092 0.69107622
-0.43383896 0.62852693 0.68323588
-0.48468775 0.62656552 0.69215548
-0.53157073 0.62562585 0.6990186
-0.57748044 0.62270105 0.70482719
-0.41776398 0.62437969 0.6878615
-0.47147238 0.62931949 0.7029615
-0.51834452 0.62636191 0.71078825
-0.56619376 0.62438989 0.71965146
-0.4035902 0.62616628 0.69663143
-0.45537868 0.62515414 0.70858681
-0.50411844 0.62709451 0.72253907
-0.5499838 0.62111592 0.73129267
-0.3904123 0.62895638 0.70543808
-0.44119009 0.6259228 0.71833831
-0.48991898 0.62584543 0.73325437
-0.53771603 0.6228193 0.74509847
-0.37337497 0.62484175 0.7080456
-0.42602432 0.62570614 0.7270534
-0.47378391 0.62264383 0.74089694
-0.52247936 0.62153041 0.7577942
-0.35926518 0.62468296 0.71378046
-0.41087732 0.62550765 0.73476881
-0.46053115 0.62536144 0.75370222
-0.50728005 0.62027776 0.76849061
-0.34415561 0.6245206 0.71949661
-0.39380246 0.62135684 0.73937565
-0.44436944 0.62414145 0.76238054
-0.49303526 0.62099218 0.78124118
-0.32902333 0.62533993 0.72623038
-0.38154167 0.62607783 0.75223583
-0.42916626 0.62388861 0.77309495
-0.47779068 0.62170309 0.79397291
-0.3130272 0.62026536 0.7268393
-0.36641335 0.62589735 0.7589516
-0.41397789 0.6246537 0.78282779
-0.46254614 0.62241387 0.80670464
-0.29789102 0.62208456 0.73359114
-0.34842151 0.61981571 0.75950491
-0.39977053 0.62540436 0.79357892
-0.44443408 0.61822331 0.81329197
-0.28381869 0.62196195 0.73732674
-0.3332479 0.62159872 0.76825601
-0.38266921 0.62323511 0.79922146
-0.4291895 0.61893421 0.8260237
-0.26681879 0.6178835 0.73793483
-0.31718379 0.61946929 0.77191806
-0.36552644 0.62202954 0.80688125
-0.41011509 0.61477619 0.83059293
-0.25461021 0.62365854 0.74781412
-0.30201015 0.6212523 0.78066921
-0.35031143 0.62477624 0.81764978
-0.39386675 0.61648333 0.84332395
-0.23669715 0.61664939 0.74435073
-0.28690055 0.62108994 0.78638524
-0.33134243 0.61770922 0.81716663
-0.37668261 0.6162414 0.85300112
-0.22255687 0.61947203 0.7511394
-0.27076849 0.62190568 0.7931003
-0.31610873 0.62043786 0.82893473
-0.35854009 0.61503226 0.86064214
-0.2075261 0.61838216 0.75283879
-0.25470048 0.62077612 0.79678023
-0.29899946 0.62026829 0.83461326
-0.34235182 0.61579376 0.87035614
-0.1924766 0.61727428 0.75553787
-0.23769663 0.61769748 0.79740644
-0.28095844 0.61714995 0.83721995
-0.3222737 0.6126321 0.87492454
-0.17841515 0.61916941 0.75830984
-0.22256047 0.61951667 0.80415815
-0.2638078 0.61794406 0.84491587
-0.30506298 0.61437178 0.8856374
-0.16238454 0.61807591 0.75999051
-0.20551133 0.61840165 0.80681974
-0.24667591 0.61875623 0.85161197
-0.28693917 0.61318064 0.89227879
-0.14834967 0.61798948 0.7617268
-0.19039388 0.6202389 0.81257182
-0.23052123 0.62055379 0.85934472
-0.2678116 0.61298585 0.89891934
-0.13418283 0.62279367 0.7695511
-0.17336741 0.61814207 0.81421578
-0.21151774 0.617468 0.85993326
-0.2496838 0.61279458 0.90557879
-0.11914419 0.62370348 0.77128655
-0.1572876 0.62001193 0.81794971
-0.19436324 0.61926192 0.86764723
-0.22964308 0.60966915 0.90814793
-0.10410948 0.62361348 0.773004
-0.14123435 0.61990029 0.82064807
-0.17631428 0.61814326 0.87028992
-0.21051548 0.60947436 0.91478848
-0.089161471 0.62059641 0.7706688
-0.12513579 0.62175202 0.82538182
-0.1582427 0.61800629 0.87395036
-0.19142143 0.6103155 0.91944784
-0.074118905 0.62250602 0.77242231
-0.10723756 0.6157608 0.82093674
-0.14019373 0.61688757 0.87659305
-0.17133541 0.60915351 0.92405224
-0.059216179 0.61752534 0.76805168
-0.091199122 0.61666697 0.82265353
-0.12220882 0.61382347 0.8762008
-0.15222262 0.60997659 0.92971128
-0.044150975 0.62041682 0.77082288
-0.075141951 0.6175552 0.82536983
-0.10413329 0.61468637 0.87987924
-0.13217013 0.60985047 0.93233442
-0.029176367 0.61938119 0.76952332
-0.058103681 0.61845779 0.82706779
-0.086053841 0.61654913 0.88357568
-0.11303469 0.61165529 0.9390111
-0.015175004 0.62033081 0.76927829
-0.042155843 0.61543709 0.82471371
-0.067042522 0.61546296 0.88420027
-0.092959523 0.61251104 0.94265199
-0.0011775661 0.62028056 0.76901519
-0.025140233 0.61535794 0.82539392
-0.049031019 0.61438048 0.88484371
-0.071929842 0.61139965 0.9442386
0.013823617 0.62122655 0.76875138
-0.0091431588 0.61530054 0.82509327
-0.030992944 0.6152795 0.88652283
-0.051941361 0.60932827 0.94382679
0.02780233 0.62119442 0.7674886
0.0068765627 0.61622488 0.82581037
-0.012064368 0.61226606 0.88311273
-0.031990319 0.60729295 0.94141567
0.0416678 0.61625355 0.76113749
0.022854913 0.61618549 0.82451004
0.004973894 0.61316872 0.88481069
-0.010870047 0.61010855 0.9470731
0.056759581 0.62112653 0.76494443
0.038810611 0.61516446 0.82219201
0.0229706 0.6131041 0.88447243
0.0081077535 0.61005849 0.94571638
0.070651628 0.61816722 0.75962901
0.055811428 0.61610323 0.82189059
0.0419484 0.61305404 0.88311577
0.029054683 0.60701978 0.94326842
0.084566317 0.61618966 0.75533122
0.071771055 0.61608201 0.81959063
0.059926391 0.61300755 0.88177782
0.048968278 0.6050207 0.93885785
0.099643305 0.62208056 0.75815648
0.087658815 0.61211574 0.81421959
0.078885458 0.61297554 0.87942153
0.069009915 0.60691243 0.94051743
0.11349005 0.61715776 0.75080568
0.10361844 0.61209452 0.81191963
0.096886091 0.61391073 0.87910134
0.08998736 0.60685509 0.93912321
0.12745003 0.61714369 0.74854332
0.11953668 0.61110961 0.80760235
0.11482663 0.61390042 0.87576407
0.10985956 0.60389239 0.93269533
0.14134601 0.61518425 0.7432459
0.13656801 0.61502981 0.80835462
0.13272189 0.61192656 0.87039149
0.13086751 0.60681653 0.93235481
0.15533651 0.61815161 0.74203718
0.15357667 0.61796826 0.80808926
0.15061709 0.60995275 0.86501896
0.15076239 0.60483551 0.92694461
0.1692778 0.6181556 0.73877513
0.16836315 0.61209637 0.79770261
0.16856158 0.61094224 0.86169976
0.17070256 0.60481799 0.92356986
0.18320034 0.61817771 0.73451346
0.18328552 0.61211491 0.79342216
0.18750192 0.6109283 0.85834378
0.19066931 0.60678208 0.92123079
0.19712289 0.61819983 0.73025173
0.19918503 0.61114812 0.78810513
0.20542768 0.61193591 0.85402495
0.21159451 0.60777897 0.91685545
0.21002296 0.61724377 0.72499114
0.21617499 0.61410469 0.78684014
0.22228564 0.61000192 0.84667176
0.23149723 0.60779756 0.91148138
0.22394943 0.61826575 0.72074747
0.23211981 0.61510134 0.78355855
0.24018873 0.61002773 0.84133524
0.25244507 0.60977614 0.90812391
0.23680422 0.61534619 0.71345145
0.24695943 0.61319256 0.77524334
0.25707331 0.61007529 0.83501786
0.26915631 0.60396934 0.89370114
0.25075331 0.6173498 0.71022546
0.26291212 0.61618882 0.77199775
0.27602541 0.61306083 0.83171588
0.28906289 0.60498786 0.88834494
0.26467979 0.61837178 0.70598173
0.27775174 0.6142801 0.76368254
0.29390982 0.61310476 0.82537973
0.30999598 0.60798442 0.88400578
0.27756509 0.61843371 0.69973958
0.29263669 0.61433482 0.75740278
0.3097305 0.61121047 0.81604606
0.32779759 0.60610098 0.87363487
0.29151425 0.62043744 0.69651353
0.3096118 0.61830926 0.75515604
0.32557389 0.61029798 0.80773008
0.34771213 0.60911918 0.8683148
0.30437687 0.61951751 0.68925357
0.32236511 0.61348051 0.74282575
0.34453389 0.61528313 0.80446422
0.36547238 0.6062721 0.85592663
0.31828463 0.62055761 0.68401021
0.33827645 0.61551321 0.73756284
0.359272 0.61146516 0.79111469
0.38432306 0.6073485 0.84759033
0.33014742 0.61964124 0.67676914
0.35107502 0.61264795 0.72726792
0.37613785 0.61153078 0.78379762
0.40317371 0.6084249 0.83925402
0.34194621 0.61677963 0.666493
0.36492267 0.61274242 0.71900749
0.38988012 0.60871619 0.77048486
0.41887423 0.60463941 0.82388639
0.35381296 0.61686313 0.65926981
0.38081136 0.61379337 0.71272695
0.40777627 0.6117596 0.76420277
0.43773276 0.60771543 0.81558609
0.36667562 0.61594337 0.6520099
0.39566672 0.61588395 0.70448381
0.42358607 0.6118831 0.75390548
0.45347857 0.60589349 0.8022539
0.37959138 0.61898661 0.64682144
0.40744674 0.61304033 0.69320798
0.43939593 0.6120066 0.74360824
0.47231841 0.60898763 0.79295397
0.39245793 0.61906654 0.63957942
0.42232081 0.61511284 0.68596452
0.45420599 0.61213356 0.73332977
0.48806813 0.6081655 0.77963972
0.40223446 0.61523032 0.62832326
0.43512729 0.61424714 0.67570567
0.46899727 0.61227876 0.72205162
0.50379521 0.60636163 0.76530778
0.41613135 0.6182881 0.62211621
0.44896016 0.6153596 0.66646361
0.48481107 0.61340207 0.71177238
0.52366537 0.61243355 0.75704277
0.42797938 0.61838973 0.61389351
0.46278909 0.61547214 0.65720361
0.49960235 0.61354721 0.70049429
0.53735143 0.60967332 0.74073106
0.43880492 0.61751324 0.60467184
0.4755995 0.61560643 0.64696276
0.51028901 0.6107977 0.68423891
0.55721766 0.61474538 0.7324481
0.45472801 0.62254542 0.59946299
0.48839116 0.61575872 0.63572222
0.52715176 0.61488068 0.67599434
0.56577665 0.60811222 0.71016026
0.46246353 0.61775273 0.58622694
0.50016034 0.61493284 0.62348276
0.53678948 0.60917139 0.65770435
0.57949322 0.60833329 0.6949023
0.47533795 0.61983234 0.57902104
0.51399714 0.61704504 0.61425877
0.5516113 0.61229795 0.64748001
0.59625453 0.61050713 0.68162328
0.48614869 0.61997378 0.56881773
0.5237214 0.61426294 0.6000216
0.5653466 0.61250097 0.63322157
0.6079489 0.60975367 0.66538525
0.49286181 0.61420298 0.55458283
0.53141952 0.60950643 0.58478624
0.57912332 0.61366761 0.62098068
0.62266922 0.61097097 0.6501264
0.50574011 0.61728239 0.54739499
0.54526418 0.61361831 0.5755983
0.58983648 0.61289966 0.60576105
0.63434482 0.61023557 0.63288873
0.51450592 0.61546749 0.53519392
0.54786462 0.60295314 0.55635017
0.60157222 0.61310989 0.59154034
0.6491105 0.61341643 0.61966532
0.52633917 0.61658698 0.52598947
0.55964172 0.60412693 0.54414678
0.61433035 0.61429816 0.57831842
0.65874112 0.61072475 0.60042983
0.53918004 0.61970264 0.51680231
0.56837004 0.60234821 0.52994633
0.62707359 0.61650443 0.56411493
0.66839832 0.61001456 0.58222997
0.54999471 0.62084389 0.50661707
0.57914728 0.60352564 0.51776177
0.6377908 0.61673629 0.5489133
0.68517148 0.61518788 0.56900501
0.55776072 0.61903262 0.49443477
0.5899207 0.60370326 0.50555909
0.64443684 0.61303747 0.53071576
0.68973511 0.60956889 0.54681039
0.55532771 0.60440415 0.47420883
0.59865296 0.60292435 0.4913767
0.65617645 0.61424744 0.51651311
0.70041871 0.61083674 0.52962744
0.56512386 0.60556704 0.46304268
0.60738528 0.60214549 0.47719434
0.66487128 0.61350477 0.50033134
0.71008384 0.61212629 0.5114637
0.57186741 0.60277754 0.4498615
0.62019259 0.60629708 0.46602586
0.67559636 0.61573625 0.48516577
0.7187413 0.61141974 0.49328268
0.58064109 0.60296232 0.43769643
0.6289289 0.60651803 0.4518615
0.68327266 0.61501527 0.46800324
0.7274065 0.61271292 0.47513768
0.60363972 0.61793154 0.43453556
0.63664263 0.60576087 0.43669823
0.68994522 0.61329794 0.4508414
0.73604906 0.61302435 0.45597503
0.61239463 0.61813438 0.42137083
0.65148014 0.61288667 0.42654586
0.69965172 0.61555117 0.43469495
0.74269211 0.61334288 0.43684992
0.62116832 0.61831915 0.40920582
0.66224259 0.61508209 0.41337964
0.70430201 0.61285925 0.41655305
0.75236112 0.6156323 0.41870412
0.62994587 0.6195038 0.39705876
0.67501646 0.62026972 0.40022987
0.71401238 0.61611235 0.40042463
0.75497043 0.61198395 0.39858246
0.64072704 0.62168097 0.38489217
0.67970425 0.61754167 0.38408726
0.72271508 0.61736929 0.38427895
0.76564711 0.61626941 0.38045391
0.64848614 0.62288731 0.3717643
0.68642211 0.61778796 0.36896083
0.72939944 0.61865151 0.36717117
0.76423442 0.61165369 0.35938975
0.65623736 0.62209386 0.35860032
0.69314003 0.61803412 0.35383436
0.73405755 0.61795938 0.3490653
0.77593762 0.61791718 0.34227815
0.66297001 0.62132221 0.34445554
0.7018615 0.61927295 0.33868834
0.74074197 0.61924154 0.33195758
0.77350247 0.61232328 0.32021511
0.6666767 0.61857969 0.3293314
0.70553845 0.61856633 0.32160097
0.74642253 0.61952752 0.31485057
0.78318328 0.61761218 0.3021234
0.67441702 0.61980402 0.31520382
0.71125656 0.61881614 0.30649328
0.75008088 0.61883897 0.29676348
0.78480458 0.61696702 0.28207454
0.68115366 0.62003219 0.30107704
0.71695584 0.619084 0.29038596
0.74969071 0.61520141 0.2766982
0.78744829 0.61729991 0.2630246
0.68586403 0.61828595 0.28595215
0.72165149 0.61835569 0.27427942
0.75738281 0.61847973 0.2596077
0.79209942 0.61962527 0.24397312
0.69060093 0.61852121 0.27186295
0.72936225 0.62161589 0.25818858
0.76106769 0.61977267 0.24255633
0.69803071 0.53971452 0.20327505
0.69328511 0.61480051 0.25573993
0.73103571 0.61991656 0.24112071
0.75867391 0.61514252 0.22251059
0.54669809 0.41410652 0.15782088
0.70506316 0.62099159 0.24262694
0.73976892 0.62415487 0.22602876
0.56600058 0.44886959 0.16709146
0.56755507 0.43122727 0.14673631
0.71078509 0.62224126 0.22753732
0.59840405 0.49552962 0.17933294
0.55867088 0.44118547 0.15108426
0.54817742 0.41560569 0.1298108
0.71046591 0.61753154 0.21145263
0.55884993 0.45807409 0.15738854
0.54634511 0.42950195 0.13609861
0.54390424 0.4128738 0.11583665
0.55603665 0.47195587 0.1646948
0.54652029 0.4453907 0.14238487
0.54810524 0.43072972 0.12308346
0.56676871 0.43198702 0.10475055
0.54069173 0.45528385 0.14967543
0.55230629 0.44858572 0.13033025
0.56595492 0.44586158 0.11201923
0.60870045 0.46902892 0.093631759
0.54547399 0.45748273 0.13762158
0.56413746 0.45873994 0.11928868
0.5888046 0.46599272 0.099951476
0.6305089 0.48820001 0.079565465
0.55528986 0.46364471 0.1265455
0.57694972 0.46890864 0.10722865
0.62068009 0.49309033 0.087840751
0.64528036 0.50241506 0.064540952
0.56812084 0.47379535 0.11548515
0.59578437 0.48505479 0.095163986
0.61638826 0.4903765 0.072866939
0.60987723 0.47483492 0.048699521
0.58797002 0.48892 0.10438333
0.62063366 0.50517869 0.08305867
0.63418567 0.50656247 0.058821749
0.62165999 0.48704311 0.034694999
0.60178602 0.500085 0.092322543
0.63240862 0.51538718 0.069018111
0.6188792 0.49487156 0.044892129
0.62439829 0.49230278 0.019733807
0.61758673 0.51226062 0.07924252
0.63413531 0.51765102 0.054021649
0.62160963 0.49813157 0.0298949
-0.02611593 -0.059798401 0.050936799
0.63038027 0.52244741 0.066182837
0.63288814 0.51688993 0.041026823
0.63538122 0.51235026 0.014889169
0.63385224 0.50684333 -0.012190994
0.64917755 0.53862977 0.052118856
0.62658876 0.51218361 0.026054561
0.63510817 0.51462132 -6.9703907e-05
0.61355758 0.49315268 -0.025063042
0.62484825 0.51595497 0.039159812
0.63233042 0.51843238 0.011055015
0.62881666 0.51191467 -0.015005935
0.61628497 0.50043011 -0.04098786
0.62157488 0.51321954 0.025166871
0.63307595 0.5206818 -0.0029229932
0.60652924 0.49521366 -0.026894785
0.59901619 0.48871031 -0.05288057
0.63634241 0.52643478 0.010124337
0.61176574 0.50299531 -0.01584832
0.60726398 0.49948066 -0.041836426
0.58574772 0.48199329 -0.06575802
0.62403923 0.515733 -0.0038436316
0.60950398 0.50325572 -0.029805996
0.59099501 0.48775724 -0.05374793
0.58448279 0.48626751 -0.080662057
0.60274774 0.49802852 -0.015769295
0.61324197 0.5085119 -0.04478598
0.58874118 0.49001732 -0.067669563
0.6221984 0.52554047 -0.10366559
0.60750043 0.50226313 -0.02978643
0.59797293 0.49678484 -0.056716278
0.5754835 0.48128262 -0.079583377
0.72974849 0.63094908 -0.14878778
0.60423094 0.50052744 -0.043761358
0.59071511 0.49304575 -0.069652416
0.67911923 0.57959807 -0.11875857
0.72343516 0.63227797 -0.16565126
0.58996171 0.48879689 -0.055710442
0.58146846 0.48729616 -0.081587344
0.72176391 0.62494266 -0.14674625
0.71312964 0.63060361 -0.18149397
0.58571118 0.48704666 -0.068666905
0.68410051 0.58461547 -0.12076177
0.72044277 0.62927115 -0.16464928
0.20224889 0.15673587 -0.026448142
0.5774644 0.48129353 -0.080620617
0.73173332 0.6319598 -0.14980701
0.71712202 0.63360679 -0.18251473
0.19017828 0.14781664 -0.028384145
0.64214528 0.54157454 -0.10975108
0.72242361 0.62928206 -0.16568652
0.21322605 0.1657491 -0.029491656
-0.02611593 -0.059798401 0.050936799
0.73170978 0.62596083 -0.14991511
0.72308731 0.63462132 -0.18460879
0.19816293 0.15382308 -0.030425683
0.16410057 0.12691352 -0.028273981
0.73238826 0.63028216 -0.16785574
0.21022569 0.16074264 -0.028525718
-0.02611593 -0.059798401 0.050936799
-0.02611593 -0.059798401 0.050936799
0.72606325 0.62861151 -0.18477327
0.1931738 0.14680603 -0.028458536
0.16907398 0.12993124 -0.030313198
0.13804549 0.10699214 -0.027146138
0.20322907 0.15173312 -0.026557025
-0.02611593 -0.059798401 0.050936799
-0.02611593 -0.059798401 0.050936799
-0.02611593 -0.059798401 0.050936799
0.19715436 0.14680977 -0.02953336
0.16906612 0.12793159 -0.030349232
0.14402267 0.11100611 -0.029186126
0.12397525 0.098080099 -0.029044554
-0.02611593 -0.059798401 0.050936799
-0.02611593 -0.059798401 0.050936799
-0.02611593 -0.059798401 0.050936799
-0.02611593 -0.059798401 0.050936799
0.16210303 0.11788604 -0.02639924
0.15097699 0.11403473 -0.032262586
0.12994458 0.10009439 -0.031120591
0.10596102 0.084110901 -0.026959267
-0.02611593 -0.059798401 0.050936799
-0.02611593 -0.059798401 0.050936799
-0.02611593 -0.059798401 0.050936799
-0.02611593 -0.059798401 0.050936799
0.14101744 0.099982552 -0.02732864
0.12895168 0.097080417 -0.030156188
0.11488539 0.089168191 -0.032036588
0.090939276 0.073148519 -0.025875945
-0.02611593 -0.059798401 0.050936799
-0.02611593 -0.059798401 0.050936799
-0.02611593 -0.059798401 0.050936799
-0.02611593 -0.059798401 0.050936799
0.12595826 0.089056365 -0.028244644
0.11388859 0.085154377 -0.031090219
0.096889861 0.075180918 -0.028951637
0.078906126 0.064193115 -0.025812626
-0.02611593 -0.059798401 0.050936799
-0.02611593 -0.059798401 0.050936799
-0.02611593 -0.059798401 0.050936799
-0.02611593 -0.059798401 0.050936799
0.10892905 0.076101489 -0.027159788
0.10184063 0.077216893 -0.032008529
0.087834433 0.070250235 -0.030871943
0.071858183 0.061254922 -0.027734473
-0.02611593 -0.059798401 0.050936799
-0.02611593 -0.059798401 0.050936799
-0.02611593 -0.059798401 0.050936799
-0.02611593 -0.059798401 0.050936799
0.092918359 0.063124947 -0.025094051
