# .PCD v0.7 - Point Cloud Data file format
VERSION 0.7
FIELDS x y z
SIZE 4 4 4
TYPE F F F
COUNT 1 1 1
WIDTH 1423
HEIGHT 1
VIEWPOINT 0 0 0 1 0 0 0
POINTS 1423
DATA ascii
-0.32753175 0.28457722 2.0414844
-0.37325636 0.45413819 2.0774198
-0.33796364 0.39045402 2.0515981
-0.30741784 0.3335695 2.0379927
-0.27682287 0.27964833 2.0264406
-0.32295722 0.44057256 2.0422206
-0.28854024 0.37978292 2.0224698
-0.2612617 0.33224174 2.0461073
-0.23467557 0.28641444 2.085794
-0.27637959 0.43076733 2.0211639
-0.24691024 0.38403797 2.0547786
-0.22018519 0.34008366 2.1014988
-0.19034837 0.29601014 2.1541607
-0.23845622 0.43776488 2.0685966
-0.20755555 0.39563316 2.124275
-0.17685388 0.35068277 2.1699023
-0.14304042 0.3056131 2.2214715
-0.19917248 0.45043224 2.1341124
-0.16429915 0.40630457 2.1886799
-0.12971839 0.35944873 2.2281985
-0.13272956 0.54023278 3.6299999
-0.15695333 0.46114346 2.196537
-0.14677329 0.56387883 2.9314537
-0.10283129 0.55197299 3.2495236
-0.045678429 0.53784859 3.6323278
-0.12949452 0.57337552 2.6782165
-0.081410736 0.56328374 2.9502258
-0.027601618 0.55146873 3.2611098
0.041646585 0.53821051 3.6487048
-0.072209299 0.57188177 2.6931219
-0.01729925 0.56092775 2.9559846
0.045354519 0.54822534 3.2586844
0.12654829 0.5359782 3.6430731
-0.015017718 0.57047832 2.7030292
0.047913536 0.56047738 2.9667594
0.12043048 0.54686588 3.2622552
0.21239364 0.53379649 3.6344235
0.042113781 0.56812936 2.7099192
0.11400594 0.55813235 2.9714811
0.19662252 0.54639417 3.2718239
0.29937381 0.53248447 3.6327708
0.10042146 0.56761366 2.7258236
0.18121836 0.55767483 2.982218
0.27252588 0.54419404 3.266361
0.38632041 0.53220838 3.6291366
0.15963534 0.56718487 2.736711
0.24819823 0.5554347 2.9809232
0.34870312 0.54474026 3.2749474
0.47310942 0.5300774 3.6174691
0.21971011 0.56487948 2.7405457
0.31645185 0.55593729 2.9936585
-0.02611593 -0.059798401 0.050936799
-0.02611593 -0.059798401 0.050936799
0.27976617 0.56259209 2.743381
-0.02611593 -0.059798401 0.050936799
0.15998197 0.15207848 1.1846695
-0.02611593 -0.059798401 0.050936799
-0.02611593 -0.059798401 0.050936799
0.15805787 0.17609969 1.1841398
0.57640231 0.54015785 3.2575958
0.26969627 0.17021166 1.4310269
0.15217195 0.20009905 1.1856847
0.52375096 0.55486876 3.0077627
0.2678293 0.19919583 1.4325866
0.81617737 0.52767521 3.5649846
0.4653728 0.56231296 2.7739112
0.26517627 0.22998427 1.4451976
0.72683471 0.5361231 3.2266955
0.90186208 0.52765602 3.5473742
0.25728771 0.25800821 1.4458524
0.66162425 0.55246419 3.0001354
0.808079 0.53959656 3.2382412
0.98544961 0.52673459 3.5247848
0.28712064 0.25504574 1.4372374
0.73035645 0.5494523 2.9857891
0.88479888 0.53857356 3.2227812
1.0636519 0.52319336 3.4822423
0.65557361 0.55939627 2.7833006
0.8003062 0.54923725 2.9824743
0.95942158 0.53664851 3.2023423
1.1472058 0.52330792 3.4576716
0.71950173 0.55822098 2.7790809
0.86910236 0.54817063 2.9711633
1.0362015 0.53657115 3.1898992
1.2308574 0.52433199 3.4381173
0.781389 0.55608922 2.7728813
0.9400332 0.54797012 2.96683
1.110832 0.53664565 3.1694963
-0.02611593 -0.059798401 0.050936799
0.8484329 0.55579454 2.7746215
1.0087132 0.54601228 2.9495029
-0.02611593 -0.059798401 0.050936799
0.50936204 0.16051571 1.306322
0.91330469 0.55466998 2.7673841
-0.02611593 -0.059798401 0.050936799
0.4732056 0.1707975 1.2431636
-0.02611593 -0.059798401 0.050936799
0.98029244 0.55442953 2.7661252
0.383551 0.15056521 1.0534118
0.53131735 0.18355946 1.2993253
-0.02611593 -0.059798401 0.050936799
-0.02611593 -0.059798401 0.050936799
0.51837957 0.20362079 1.2989304
1.4049234 0.53235686 3.0658774
1.6255751 0.52399713 3.2596605
0.46583098 0.20430538 1.2168988
1.2886014 0.54301727 2.8881876
1.4835986 0.5343805 3.0474346
1.698715 0.52354568 3.2132673
0.52927977 0.22174107 1.290051
1.3603263 0.54301208 2.8728397
1.555001 0.53368306 3.0150743
1.769833 0.52211976 3.165894
1.2434757 0.54920644 2.7210879
1.4309576 0.54310101 2.8525119
1.6222693 0.53212678 2.9757733
1.8481109 0.52352345 3.1264405
1.3092123 0.54720509 2.7068162
1.4984318 0.54134572 2.8242073
1.6988097 0.53328437 2.9503527
1.9182179 0.52411884 3.0781224
1.3810908 0.54805505 2.6994836
1.5659246 0.53957224 2.7969022
1.7660217 0.53178233 2.9080527
1.989306 0.52472872 3.0287855
1.4508719 0.54800278 2.6871717
1.6396195 0.54159582 2.7795532
1.8363535 0.53216064 2.8717306
2.0594134 0.52532411 2.9804676
1.5154403 0.54616779 2.6639218
1.7070186 0.53991282 2.7472501
1.9077264 0.533499 2.8374069
2.1325798 0.52685422 2.9351099
1.5851653 0.54616982 2.6486111
1.7795974 0.54104865 2.7239037
1.9759423 0.53299314 2.7951059
2.2221415 0.53396416 2.9095528
1.6610097 0.54804146 2.6392219
1.8480418 0.54132563 2.6936169
2.0410836 0.53257042 2.748863
2.2901778 0.53563887 2.8572917
1.7244431 0.5453369 2.6089749
1.9133666 0.5397222 2.6573527
2.1031842 0.53119493 2.700659
2.3499835 0.53555977 2.7931488
1.7940332 0.54446572 2.5866489
1.9837918 0.54001004 2.6260288
2.1755049 0.5335837 2.6633356
2.4047108 0.53457111 2.7250831
1.8645895 0.54462695 2.5623224
2.0562582 0.54125434 2.5966845
2.2467694 0.53603053 2.6230321
2.4716914 0.53630364 2.6698418
1.9351419 0.54378831 2.5379782
2.1204748 0.5407629 2.5544591
2.3262088 0.54028535 2.5916109
2.5315607 0.53816998 2.6087341
2.0086789 0.54395688 2.5125957
2.1877656 0.54018831 2.5161755
2.4025176 0.54467767 2.5532489
2.5822701 0.53721368 2.5397437
2.0761011 0.54325563 2.4813101
2.2570455 0.54162431 2.4768913
2.4573722 0.54256254 2.4921627
2.6360245 0.53821021 2.4727325
2.1455266 0.54354709 2.4500051
2.3294182 0.54295909 2.4425488
2.51635 0.54332399 2.4370537
2.6918194 0.54016316 2.4077013
2.2077544 0.54104507 2.4087806
2.4231513 0.5508917 2.4259317
2.5813873 0.54500949 2.3848488
2.7090058 0.53381479 2.3122325
2.2924175 0.54506493 2.3892615
2.4801366 0.54864281 2.3718057
2.6464472 0.54767674 2.3336618
2.7577424 0.53484732 2.2443154
2.367846 0.54633468 2.3578618
2.5503261 0.55116546 2.3275223
2.6789382 0.54298478 2.2539415
2.8013825 0.53498846 2.1714764
2.4360766 0.54481095 2.3165426
2.6184714 0.55173182 2.2812409
2.7246859 0.54201037 2.1870446
2.8460858 0.53707129 2.1016533
2.5267277 0.55082703 2.2959473
2.6642299 0.54873967 2.2153077
2.7734745 0.54198873 2.1221087
2.9049633 0.54094076 2.0406003
2.5888057 0.54846972 2.2467258
2.70293 0.54482698 2.1464891
2.8354602 0.54473913 2.0669794
2.9547486 0.54493308 1.9747181
2.6590061 0.54897469 2.2034056
2.7669861 0.546498 2.0953026
2.888293 0.54666662 2.0040035
2.9751563 0.54237425 1.8902611
2.711895 0.54583067 2.1443386
2.8340225 0.54817629 2.0430603
2.9532857 0.55140597 1.9488539
3.0137634 0.54356927 1.8155345
2.7789798 0.5454551 2.0950592
2.8939817 0.54895222 1.9869326
2.9767036 0.54681861 1.865304
3.0453532 0.54480749 1.7399398
2.8572016 0.54691303 2.0526063
2.971122 0.55350375 1.9395546
3.0163815 0.54693788 1.7945395
3.0799422 0.54603505 1.6642889
2.9242344 0.54759151 2.0003462
2.9975951 0.54885143 1.8589475
3.0590818 0.54802811 1.724736
3.1226547 0.5501247 1.5945395
2.9952664 0.54825568 1.9480106
3.0554798 0.54970694 1.7988589
3.1027818 0.54911476 1.6549138
3.1512263 0.55139184 1.5180016
3.0349059 0.54339385 1.8761562
3.1042125 0.54973966 1.730924
3.1465042 0.55118316 1.5861093
3.1807826 0.55367327 1.4404631
3.1038859 0.54511929 1.8208771
3.1479044 0.54882663 1.6610658
3.1821079 0.5513891 1.511421
3.2063398 0.55596906 1.3629999
3.1748469 0.54685563 1.7645608
3.1986592 0.54983383 1.5941111
3.222775 0.55352253 1.4396739
3.2288754 0.55729383 1.2845753
3.2386889 0.54672593 1.702342
3.2503991 0.5518555 1.5261558
3.2604051 0.55570287 1.3659838
3.2474113 0.55863303 1.206226
3.3014753 0.54665411 1.6371431
3.3081791 0.55481911 1.4601053
3.281914 0.55504972 1.2865424
3.2729874 0.5609107 1.1297623
3.3642879 0.54856384 1.5729799
3.3447599 0.55403984 1.3843806
3.3195438 0.55723011 1.2128524
3.3015893 0.5651592 1.0542781
3.432081 0.55047375 1.5077231
3.3984661 0.55709022 1.3144066
3.353137 0.559461 1.1372381
3.3140888 0.5665561 0.97404224
3.5038586 0.55338728 1.4414095
3.4420722 0.5582673 1.2395861
3.377672 0.56077862 1.0587759
3.332629 0.5688951 0.89571089
-0.02611593 -0.059798401 0.050936799
3.4876595 0.55945528 1.1637284
3.4022069 0.5620963 0.98031384
3.342129 0.57030278 0.81553125
-0.02611593 -0.059798401 0.050936799
3.5252106 0.56070817 1.0860217
3.4327447 0.56439215 0.901757
3.3536515 0.57268494 0.73633176
3.6797214 0.55570298 1.2190832
3.567765 0.56294298 1.0082389
3.4613242 0.56765884 0.8252551
3.3571525 0.57411414 0.65626496
3.7262297 0.55595982 1.1391901
3.6042831 0.56523538 0.92856967
3.4868479 0.57099074 0.74581057
3.3676941 0.57648182 0.57808393
3.7726588 0.55528927 1.0552803
3.6437774 0.56653541 0.84782636
3.5033054 0.57140958 0.66348207
3.3782394 0.57984942 0.49992087
3.8422348 0.55940878 0.97802591
3.6792393 0.56888574 0.76517695
3.5167861 0.57282096 0.58222771
3.3777413 0.58129287 0.41992921
3.9037144 0.56264752 0.89590567
3.7157013 0.57123256 0.68250877
3.5302479 0.5742504 0.49997362
3.3812838 0.5836857 0.34187973
3.9259682 0.55922645 0.80339581
3.7521482 0.57459718 0.59885889
3.5527391 0.57862896 0.4186042
3.3697841 0.58416897 0.26207674
3.9853735 0.56254476 0.71731442
3.7815137 0.57605964 0.51130581
3.5501776 0.57813436 0.33561507
3.3783336 0.58854342 0.18396932
4.0417228 0.5659281 0.62829047
3.7998769 0.57656181 0.42394149
3.5786524 0.58350927 0.25315118
3.3869021 0.59289992 0.10686156
4.0899911 0.56741285 0.53538209
3.8492773 0.58293355 0.33710241
3.5670695 0.58206517 0.16931352
3.3684182 0.59239036 0.028171746
4.1372638 0.56990099 0.44251055
3.8625855 0.58350796 0.24683303
3.5485032 0.57962823 0.086589016
2.9418447 0.51321387 -0.036295727
4.1714368 0.5705266 0.34484893
3.5504751 0.53051132 0.14768432
3.2407665 0.52625549 0.007358355
2.9755857 0.52433473 -0.10574984
-0.02611593 -0.059798401 0.050936799
3.5388699 0.52808541 0.062828965
2.9673278 0.47848833 -0.057408154
2.7224321 0.47822413 -0.1558612
-0.02611593 -0.059798401 0.050936799
2.9640923 0.43360573 -0.0081427535
2.8430843 0.45807311 -0.11847197
2.758229 0.48928353 -0.22235391
3.5393302 0.46738172 0.045716476
2.9927878 0.43776381 -0.078628689
2.7508962 0.44350585 -0.17802967
2.49841 0.44187251 -0.25435784
2.9866292 0.38378489 -0.023471115
2.7525656 0.39869571 -0.13385651
2.662786 0.42985174 -0.23364583
2.5103037 0.4479104 -0.31449169
2.9832659 0.38109517 -0.095481202
2.7763186 0.40281749 -0.20124951
2.5168304 0.40522674 -0.27837375
2.5012233 0.44998813 -0.37230369
2.7690477 0.34895074 -0.15207112
2.5343964 0.36346722 -0.24044517
2.5606446 0.41623932 -0.34401712
2.2827089 0.41015729 -0.38993898
2.5750067 0.3195712 -0.19998583
2.531255 0.36457783 -0.30138692
2.2941489 0.36954582 -0.3588773
2.3076348 0.42012972 -0.44924539
2.6017737 0.32266426 -0.26645356
2.3555179 0.33684391 -0.33360925
2.3050954 0.37453315 -0.41601139
2.3414731 0.43215996 -0.51368314
1.909964 0.22171307 -0.23031488
2.3065777 0.3299039 -0.38183486
2.3429294 0.38554916 -0.48054236
2.4659209 0.46329454 -0.6034804
2.3120809 0.28122485 -0.34580621
2.3443809 0.33793855 -0.44741952
2.3807218 0.39560154 -0.54709059
2.4478979 0.46535027 -0.65812427
2.3439112 0.28624532 -0.40933287
2.3662169 0.34399474 -0.51074028
2.536931 0.42985588 -0.65043068
2.4945438 0.4815321 -0.73373055
2.3766849 0.29131651 -0.47587731
2.6240621 0.39026088 -0.63677365
2.4611156 0.41988665 -0.69120538
2.4277344 0.47353026 -0.7746383
2.504051 0.31147832 -0.56792843
2.510319 0.37333876 -0.67196208
2.4758821 0.42704019 -0.75837523
2.3679459 0.46648493 -0.81465995
2.5944374 0.32573777 -0.6573931
2.498179 0.37448165 -0.73273474
2.4140377 0.42005637 -0.80135822
-0.02611593 -0.059798401 0.050936799
2.4797173 0.30980101 -0.69154513
2.4432626 0.36854494 -0.77982992
-0.02611593 -0.059798401 0.050936799
0.17850657 -0.014080154 -0.033095766
2.3850098 0.29779175 -0.72600085
-0.02611593 -0.059798401 0.050936799
0.18845554 -0.017079357 -0.035337042
-0.02611593 -0.059798401 0.050936799
2.3678854 0.29793468 -0.78569788
-0.02611593 -0.059798401 0.050936799
-0.02611593 -0.059798401 0.050936799
0.15645744 -0.017964341 -0.034753766
-0.02611593 -0.059798401 0.050936799
0.18241432 -0.023038715 -0.036332078
0.16939105 -0.019956388 -0.038033072
-0.02611593 -0.059798401 0.050936799
0.18345068 -0.028095718 -0.033441976
-0.02611593 -0.059798401 0.050936799
-0.02611593 -0.059798401 0.050936799
0.12753673 -0.022949859 -0.029300634
-0.02611593 -0.059798401 0.050936799
0.1574032 -0.02694831 -0.035934389
0.14539845 -0.023887668 -0.036654513
-0.02611593 -0.059798401 0.050936799
0.16140547 -0.030980073 -0.03508196
-0.02611593 -0.059798401 0.050936799
-0.02611593 -0.059798401 0.050936799
0.11649344 -0.02487386 -0.031129297
-0.02611593 -0.059798401 0.050936799
0.13639526 -0.029872434 -0.035593845
0.12540905 -0.026833465 -0.03533309
-0.02611593 -0.059798401 0.050936799
0.13147014 -0.034944084 -0.030591682
-0.02611593 -0.059798401 0.050936799
-0.02611593 -0.059798401 0.050936799
0.10346924 -0.026808776 -0.031920712
-0.02611593 -0.059798401 0.050936799
0.11542477 -0.032832734 -0.033253979
0.11138503 -0.028764792 -0.03610573
-0.02611593 -0.059798401 0.050936799
0.11742739 -0.036857326 -0.032363966
-0.02611593 -0.059798401 0.050936799
-0.02611593 -0.059798401 0.050936799
0.090463772 -0.028761782 -0.031712476
-0.02611593 -0.059798401 0.050936799
0.10240056 -0.03476765 -0.034045391
0.097394533 -0.031732127 -0.034897048
-0.02611593 -0.059798401 0.050936799
0.10538431 -0.038777735 -0.034173835
-0.02611593 -0.059798401 0.050936799
-0.02611593 -0.059798401 0.050936799
0.078495562 -0.030754551 -0.029523708
-0.02611593 -0.059798401 0.050936799
0.090398833 -0.035724413 -0.033837926
0.088336088 -0.032645386 -0.037744939
-0.02611593 -0.059798401 0.050936799
0.088417001 -0.04075256 -0.031891119
-0.02611593 -0.059798401 0.050936799
-0.02611593 -0.059798401 0.050936799
0.073398925 -0.031645991 -0.034446076
-0.02611593 -0.059798401 0.050936799
0.0774308 -0.037713595 -0.031630363
0.076353088 -0.033620242 -0.036537811
-0.02611593 -0.059798401 0.050936799
0.074453086 -0.041738324 -0.029646747
-0.02611593 -0.059798401 0.050936799
-0.02611593 -0.059798401 0.050936799
0.061468162 -0.03367494 -0.030257981
-0.02611593 -0.059798401 0.050936799
0.070371978 -0.038634032 -0.034515835
0.067365594 -0.035605691 -0.035405077
-0.02611593 -0.059798401 0.050936799
0.068394087 -0.042662356 -0.032551009
-0.02611593 -0.059798401 0.050936799
-0.02611593 -0.059798401 0.050936799
0.052499399 -0.03567848 -0.028125588
-0.02611593 -0.059798401 0.050936799
0.060388613 -0.039616063 -0.03334628
0.060344227 -0.036562309 -0.036291216
-0.02611593 -0.059798401 0.050936799
0.057429615 -0.043658882 -0.030363005
-0.02611593 -0.059798401 0.050936799
-0.02611593 -0.059798401 0.050936799
0.046463057 -0.035620771 -0.030012164
-0.02611593 -0.059798401 0.050936799
0.050420031 -0.041616015 -0.031195093
0.052341759 -0.037533425 -0.036158912
-0.02611593 -0.059798401 0.050936799
0.050408248 -0.044615507 -0.031249151
-0.02611593 -0.059798401 0.050936799
-0.02611593 -0.059798401 0.050936799
0.04144131 -0.036584567 -0.030935884
-0.02611593 -0.059798401 0.050936799
0.043421313 -0.041590892 -0.031063557
0.044358019 -0.038522635 -0.035026945
-0.02611593 -0.059798401 0.050936799
0.043390807 -0.044572294 -0.032117281
-0.02611593 -0.059798401 0.050936799
-0.02611593 -0.059798401 0.050936799
0.033495024 -0.03760995 -0.027804602
-0.02611593 -0.059798401 0.050936799
0.040346976 -0.041507769 -0.035005838
0.040283866 -0.038435925 -0.038950428
-0.02611593 -0.059798401 0.050936799
0.036406882 -0.045565091 -0.031004101
-0.02611593 -0.059798401 0.050936799
-0.02611593 -0.059798401 0.050936799
0.028473286 -0.038573746 -0.028728329
-0.02611593 -0.059798401 0.050936799
0.031415652 -0.043547485 -0.030874111
0.033303872 -0.038428891 -0.037819229
-0.02611593 -0.059798401 0.050936799
-0.02611593 -0.059798401 0.050936799
-0.02611593 -0.059798401 0.050936799
-0.02611593 -0.059798401 0.050936799
0.026402691 -0.03749438 -0.032671366
-0.02611593 -0.059798401 0.050936799
0.026397849 -0.04351145 -0.031779826
0.029263226 -0.039378185 -0.039761413
-0.02611593 -0.059798401 0.050936799
0.026348621 -0.046474762 -0.033833198
-0.02611593 -0.059798401 0.050936799
-0.02611593 -0.059798401 0.050936799
-0.02611593 -0.059798401 0.050936799
-0.02611593 -0.059798401 0.050936799
0.02234241 -0.04344283 -0.034703646
0.025207791 -0.039309565 -0.042685237
-0.02611593 -0.059798401 0.050936799
-0.02611593 -0.059798401 0.050936799
-0.02611593 -0.059798401 0.050936799
-0.02611593 -0.059798401 0.050936799
-0.02611593 -0.059798401 0.050936799
-0.02611593 -0.059798401 0.050936799
-0.02611593 -0.059798401 0.050936799
0.017298942 -0.040371127 -0.037554618
-0.02611593 -0.059798401 0.050936799
-0.02611593 -0.059798401 0.050936799
-0.02611593 -0.059798401 0.050936799
-0.02611593 -0.059798401 0.050936799
-0.02611593 -0.059798401 0.050936799
-0.02611593 -0.059798401 0.050936799
-0.02611593 -0.059798401 0.050936799
0.013262226 -0.04032059 -0.039478783
-0.02611593 -0.059798401 0.050936799
-0.02611593 -0.059798401 0.050936799
-0.02611593 -0.059798401 0.050936799
-0.02611593 -0.059798401 0.050936799
-0.02611593 -0.059798401 0.050936799
-0.02611593 -0.059798401 0.050936799
-0.02611593 -0.059798401 0.050936799
-0.02611593 -0.059798401 0.050936799
-0.02611593 -0.059798401 0.050936799
-0.02611593 -0.059798401 0.050936799
-0.02611593 -0.059798401 0.050936799
-0.02611593 -0.059798401 0.050936799
-0.02611593 -0.059798401 0.050936799
-0.02611593 -0.059798401 0.050936799
-0.02611593 -0.059798401 0.050936799
-0.02611593 -0.059798401 0.050936799
-0.02611593 -0.059798401 0.050936799
-0.02611593 -0.059798401 0.050936799
-0.02611593 -0.059798401 0.050936799
-0.02611593 -0.059798401 0.050936799
-0.02611593 -0.059798401 0.050936799
-0.02611593 -0.059798401 0.050936799
-0.02611593 -0.059798401 0.050936799
-0.02611593 -0.059798401 0.050936799
-0.02611593 -0.059798401 0.050936799
-0.02611593 -0.059798401 0.050936799
-0.02611593 -0.059798401 0.050936799
-0.02611593 -0.059798401 0.050936799
-0.02611593 -0.059798401 0.050936799
-0.02611593 -0.059798401 0.050936799
-0.02611593 -0.059798401 0.050936799
-0.02611593 -0.059798401 0.050936799
-0.02611593 -0.059798401 0.050936799
-0.02611593 -0.059798401 0.050936799
-0.02611593 -0.059798401 0.050936799
-0.02611593 -0.059798401 0.050936799
-0.02611593 -0.059798401 0.050936799
-0.02611593 -0.059798401 0.050936799
-0.02611593 -0.059798401 0.050936799
-0.02611593 -0.059798401 0.050936799
-0.02611593 -0.059798401 0.050936799
-0.02611593 -0.059798401 0.050936799
-0.02611593 -0.059798401 0.050936799
-0.02611593 -0.059798401 0.050936799
-0.02611593 -0.059798401 0.050936799
-0.02611593 -0.059798401 0.050936799
-0.02611593 -0.059798401 0.050936799
-0.02611593 -0.059798401 0.050936799
-0.02611593 -0.059798401 0.050936799
-0.02611593 -0.059798401 0.050936799
-0.02611593 -0.059798401 0.050936799
-0.02611593 -0.059798401 0.050936799
-0.02611593 -0.059798401 0.050936799
-0.02611593 -0.059798401 0.050936799
-0.02611593 -0.059798401 0.050936799
-0.02611593 -0.059798401 0.050936799
-0.02611593 -0.059798401 0.050936799
-0.02611593 -0.059798401 0.050936799
-0.02611593 -0.059798401 0.050936799
-0.02611593 -0.059798401 0.050936799
-0.02611593 -0.059798401 0.050936799
-0.02611593 -0.059798401 0.050936799
-0.02611593 -0.059798401 0.050936799
-0.02611593 -0.059798401 0.050936799
-0.02611593 -0.059798401 0.050936799
-0.02611593 -0.059798401 0.050936799
-0.02611593 -0.059798401 0.050936799
-0.02611593 -0.059798401 0.050936799
-0.02611593 -0.059798401 0.050936799
-0.02611593 -0.059798401 0.050936799
-0.02611593 -0.059798401 0.050936799
-0.02611593 -0.059798401 0.050936799
-0.02611593 -0.059798401 0.050936799
-0.02611593 -0.059798401 0.050936799
-0.02611593 -0.059798401 0.050936799
-0.02611593 -0.059798401 0.050936799
-0.02611593 -0.059798401 0.050936799
-0.02611593 -0.059798401 0.050936799
-0.02611593 -0.059798401 0.050936799
-0.02611593 -0.059798401 0.050936799
-0.02611593 -0.059798401 0.050936799
-0.02611593 -0.059798401 0.050936799
-0.02611593 -0.059798401 0.050936799
-0.02611593 -0.059798401 0.050936799
-0.02611593 -0.059798401 0.050936799
-0.02611593 -0.059798401 0.050936799
-0.02611593 -0.059798401 0.050936799
-0.02611593 -0.059798401 0.050936799
-0.02611593 -0.059798401 0.050936799
-0.02611593 -0.059798401 0.050936799
-0.02611593 -0.059798401 0.050936799
-0.02611593 -0.059798401 0.050936799
-0.02611593 -0.059798401 0.050936799
-0.02611593 -0.059798401 0.050936799
-0.02611593 -0.059798401 0.050936799
-0.02611593 -0.059798401 0.050936799
-0.02611593 -0.059798401 0.050936799
-0.02611593 -0.059798401 0.050936799
-0.02611593 -0.059798401 0.050936799
-0.02611593 -0.059798401 0.050936799
-0.02611593 -0.059798401 0.050936799
-0.02611593 -0.059798401 0.050936799
-0.02611593 -0.059798401 0.050936799
-0.02611593 -0.059798401 0.050936799
-0.02611593 -0.059798401 0.050936799
-0.02611593 -0.059798401 0.050936799
-0.02611593 -0.059798401 0.050936799
-0.02611593 -0.059798401 0.050936799
-0.02611593 -0.059798401 0.050936799
-0.02611593 -0.059798401 0.050936799
-0.02611593 -0.059798401 0.050936799
-0.02611593 -0.059798401 0.050936799
-0.02611593 -0.059798401 0.050936799
-0.02611593 -0.059798401 0.050936799
-0.02611593 -0.059798401 0.050936799
-0.02611593 -0.059798401 0.050936799
-0.02611593 -0.059798401 0.050936799
-0.02611593 -0.059798401 0.050936799
-0.02611593 -0.059798401 0.050936799
-0.02611593 -0.059798401 0.050936799
-0.02611593 -0.059798401 0.050936799
-0.02611593 -0.059798401 0.050936799
-0.02611593 -0.059798401 0.050936799
-0.02611593 -0.059798401 0.050936799
-0.02611593 -0.059798401 0.050936799
-0.02611593 -0.059798401 0.050936799
-0.02611593 -0.059798401 0.050936799
-0.02611593 -0.059798401 0.050936799
-0.02611593 -0.059798401 0.050936799
-0.02611593 -0.059798401 0.050936799
-0.02611593 -0.059798401 0.050936799
-0.02611593 -0.059798401 0.050936799
-0.02611593 -0.059798401 0.050936799
-0.02611593 -0.059798401 0.050936799
-0.02611593 -0.059798401 0.050936799
-0.02611593 -0.059798401 0.050936799
-0.02611593 -0.059798401 0.050936799
-0.02611593 -0.059798401 0.050936799
-0.02611593 -0.059798401 0.050936799
-0.02611593 -0.059798401 0.050936799
-0.02611593 -0.059798401 0.050936799
-0.02611593 -0.059798401 0.050936799
-0.02611593 -0.059798401 0.050936799
-0.02611593 -0.059798401 0.050936799
-0.02611593 -0.059798401 0.050936799
-0.02611593 -0.059798401 0.050936799
-0.02611593 -0.059798401 0.050936799
-0.02611593 -0.059798401 0.050936799
-0.02611593 -0.059798401 0.050936799
-0.02611593 -0.059798401 0.050936799
-0.02611593 -0.059798401 0.050936799
-0.02611593 -0.059798401 0.050936799
-0.02611593 -0.059798401 0.050936799
-0.02611593 -0.059798401 0.050936799
-0.02611593 -0.059798401 0.050936799
-0.02611593 -0.059798401 0.050936799
-0.02611593 -0.059798401 0.050936799
-0.02611593 -0.059798401 0.050936799
-0.02611593 -0.059798401 0.050936799
-0.072707243 -0.041029863 -0.036881153
-0.02611593 -0.059798401 0.050936799
-0.077643223 -0.044083767 -0.032842614
-0.02611593 -0.059798401 0.050936799
-0.02611593 -0.059798401 0.050936799
-0.02611593 -0.059798401 0.050936799
-0.02611593 -0.059798401 0.050936799
-0.02611593 -0.059798401 0.050936799
-0.07666906 -0.041051686 -0.034806665
-0.02611593 -0.059798401 0.050936799
-0.02611593 -0.059798401 0.050936799
-0.02611593 -0.059798401 0.050936799
-0.02611593 -0.059798401 0.050936799
-0.02611593 -0.059798401 0.050936799
-0.02611593 -0.059798401 0.050936799
-0.02611593 -0.059798401 0.050936799
-0.082682759 -0.040012233 -0.035675563
-0.02611593 -0.059798401 0.050936799
-0.08554814 -0.044145502 -0.027693976
-0.02611593 -0.059798401 0.050936799
-0.02611593 -0.059798401 0.050936799
-0.02611593 -0.059798401 0.050936799
-0.02611593 -0.059798401 0.050936799
-0.086558826 -0.042124163 -0.028638806
-0.089696273 -0.038969196 -0.036525678
-0.02611593 -0.059798401 0.050936799
-0.091561839 -0.043106049 -0.028562874
-0.02611593 -0.059798401 0.050936799
-0.02611593 -0.059798401 0.050936799
-0.084588781 -0.040095501 -0.030639671
-0.02611593 -0.059798401 0.050936799
-0.09562815 -0.041019674 -0.032450326
-0.094657913 -0.038987428 -0.0344324
-0.02611593 -0.059798401 0.050936799
-0.09855663 -0.042081095 -0.028413322
-0.02611593 -0.059798401 0.050936799
-0.02611593 -0.059798401 0.050936799
-0.088531889 -0.040135413 -0.027565531
-0.02611593 -0.059798401 0.050936799
-0.09548229 -0.042164218 -0.024471048
-0.10167143 -0.037944388 -0.035282504
-0.02611593 -0.059798401 0.050936799
-0.10655124 -0.041052554 -0.028244976
-0.02611593 -0.059798401 0.050936799
-0.02611593 -0.059798401 0.050936799
-0.093530968 -0.040117465 -0.02747158
-0.02611593 -0.059798401 0.050936799
-0.10552877 -0.040074401 -0.027246092
-0.10765161 -0.037940942 -0.034170102
-0.02611593 -0.059798401 0.050936799
-0.11049434 -0.041092463 -0.025170837
-0.02611593 -0.059798401 0.050936799
-0.02611593 -0.059798401 0.050936799
-0.099511147 -0.040114023 -0.026359178
-0.02611593 -0.059798401 0.050936799
-0.11557919 -0.038984418 -0.030039147
-0.11361308 -0.037955586 -0.032058042
-0.02611593 -0.059798401 0.050936799
-0.123559 -0.038973793 -0.028889168
-0.02611593 -0.059798401 0.050936799
-0.02611593 -0.059798401 0.050936799
-0.1085391 -0.038045887 -0.028153341
-0.02611593 -0.059798401 0.050936799
-0.12153671 -0.037999231 -0.027909063
-0.12262622 -0.036905367 -0.032870565
-0.02611593 -0.059798401 0.050936799
-0.12646483 -0.039053474 -0.023834486
-0.02611593 -0.059798401 0.050936799
-0.02611593 -0.059798401 0.050936799
-0.11857077 -0.036973987 -0.029946737
-0.02611593 -0.059798401 0.050936799
-0.13154967 -0.036945421 -0.028702807
-0.13162065 -0.035873238 -0.032683432
-0.02611593 -0.059798401 0.050936799
-0.13847351 -0.036992654 -0.024572629
-0.02611593 -0.059798401 0.050936799
-0.02611593 -0.059798401 0.050936799
-0.12351369 -0.037010312 -0.026853804
-0.02611593 -0.059798401 0.050936799
-0.14353962 -0.034902699 -0.028441284
-0.13855927 -0.03490255 -0.029534891
-0.02611593 -0.059798401 0.050936799
-0.15653332 -0.033856209 -0.02817899
-0.02611593 -0.059798401 0.050936799
-0.02611593 -0.059798401 0.050936799
-0.13656355 -0.03590956 -0.029590487
-0.02611593 -0.059798401 0.050936799
-0.15048218 -0.034931842 -0.025310766
-0.14955333 -0.033863243 -0.029310174
-0.02611593 -0.059798401 0.050936799
-0.16345324 -0.032903615 -0.02403079
-0.02611593 -0.059798401 0.050936799
-0.02611593 -0.059798401 0.050936799
-0.14248757 -0.035960384 -0.025479108
-0.02611593 -0.059798401 0.050936799
-0.17054163 -0.031788215 -0.028879534
-0.16052866 -0.032842025 -0.028085809
-0.02611593 -0.059798401 0.050936799
-0.18347521 -0.029796166 -0.025600247
-0.02611593 -0.059798401 0.050936799
-0.02611593 -0.059798401 0.050936799
-0.15348163 -0.034921076 -0.025254395
-0.02611593 -0.059798401 0.050936799
-0.18652691 -0.028731305 -0.028524831
-0.17753643 -0.030763261 -0.028729983
-0.02611593 -0.059798401 0.050936799
-0.20649275 -0.025678124 -0.02709531
-0.02611593 -0.059798401 0.050936799
-0.02611593 -0.059798401 0.050936799
-0.16445696 -0.033899855 -0.024030019
-0.02611593 -0.059798401 0.050936799
-0.20651148 -0.025660034 -0.028094962
-0.19653988 -0.027677497 -0.029318575
-0.02611593 -0.059798401 0.050936799
-0.23650506 -0.020535128 -0.028440822
-0.02611593 -0.059798401 0.050936799
-0.02611593 -0.059798401 0.050936799
-0.17740929 -0.031889714 -0.021750379
-0.02611593 -0.059798401 0.050936799
-0.23350954 -0.021545725 -0.028515212
-0.22257949 -0.024530426 -0.031774953
-0.02611593 -0.059798401 0.050936799
-0.25943288 -0.017507363 -0.024955601
-0.02611593 -0.059798401 0.050936799
-0.02611593 -0.059798401 0.050936799
-0.20748171 -0.027692284 -0.026112892
-0.02611593 -0.059798401 0.050936799
-0.26047018 -0.017467596 -0.026936129
-0.24652196 -0.020481151 -0.029252581
-0.02611593 -0.059798401 0.050936799
-0.97359776 0.11267725 -0.21129277
-0.02611593 -0.059798401 0.050936799
-0.02611593 -0.059798401 0.050936799
-0.24053484 -0.023502171 -0.029419385
-0.98623568 0.11338005 -0.19203693
-0.96973437 0.10677247 -0.21747401
-0.25940332 -0.019543201 -0.02299232
-0.02611593 -0.059798401 0.050936799
-1.0008507 0.11507176 -0.17172579
-0.98537177 0.107486 -0.19816181
-0.02611593 -0.059798401 0.050936799
-0.26446643 -0.021470647 -0.025933389
-1.0074337 0.11569876 -0.14958371
-0.99295455 0.10811659 -0.17600089
-0.98049778 0.099559873 -0.2033982
-0.02611593 -0.059798401 0.050936799
-1.0070029 0.11528271 -0.1265915
-1.0055737 0.10880131 -0.15574537
-0.99713498 0.10027701 -0.18406719
-0.96861804 0.088591032 -0.20782053
-1.0246134 0.11798503 -0.106206
-1.0051471 0.10738542 -0.13277119
-0.99670833 0.098861143 -0.161093
-0.98829609 0.088355295 -0.19045049
-1.0341958 0.11862278 -0.084007524
-1.0267795 0.10912035 -0.11332822
-1.0143266 0.099563792 -0.14074352
-0.9999007 0.088018492 -0.1692321
-1.0467925 0.12028921 -0.062734336
-1.0283484 0.10871147 -0.090298429
-1.022917 0.09819831 -0.11859988
-1.0034772 0.08561714 -0.14620078
-1.0733746 0.12500541 -0.041144013
-1.0529577 0.11143892 -0.069781393
-1.0255085 0.096811287 -0.096568972
-1.0251322 0.086370327 -0.12777546
-1.0909476 0.12767152 -0.018759184
-1.0705533 0.11312329 -0.048414223
-1.0451037 0.098502845 -0.075164251
-1.0327041 0.084983155 -0.10465096
-1.0974931 0.12826236 0.0053822398
-1.0981206 0.11682516 -0.025823474
-1.0747122 0.10124823 -0.054553263
-1.0382804 0.082588993 -0.08158204
-1.1160473 0.13091397 0.028785519
-1.1056697 0.11641973 -0.0016812831
-1.0862793 0.10087525 -0.031335562
-1.0669115 0.084349029 -0.062007532
-1.1265692 0.1325009 0.054019779
-1.1242054 0.11905325 0.022721659
-1.0998422 0.10150929 -0.0080622733
-1.0794784 0.083979636 -0.038771041
-1.132111 0.13408795 0.078160428
-1.1357498 0.11966202 0.046957023
-1.1163858 0.10213599 0.016267058
-1.0850319 0.082567208 -0.014684446
-1.1476282 0.13669263 0.10350666
-1.1432763 0.12023833 0.072116897
-1.1259307 0.10273758 0.040464837
-1.1005796 0.082190499 0.0096080601
-1.1661222 0.14028981 0.12992695
-1.1547982 0.12182885 0.097369947
-1.1444364 0.10333525 0.066831067
-1.1181231 0.082820781 0.033956181
-0.02611593 -0.059798401 0.050936799
-1.1643056 0.12239424 0.12356706
-1.150986 0.10292624 0.090954468
-1.1266572 0.081401028 0.059098806
-1.1910868 0.14440548 0.18448728
-1.1767899 0.12395215 0.15083823
-1.1554983 0.10247386 0.11703961
-1.1561759 0.08305613 0.084690079
-1.1955724 0.14593469 0.21160814
-1.1942545 0.12550993 0.179203
-1.1659867 0.10302478 0.14425516
-1.1746629 0.08363574 0.11205597
-0.02611593 -0.059798401 0.050936799
-1.199744 0.12604287 0.20632461
-1.1944267 0.10560378 0.17384431
-0.02611593 -0.059798401 0.050936799
-1.2423637 0.15498373 0.27466923
-1.2171673 0.1285643 0.23670673
-1.2058963 0.10614017 0.20207834
-1.2066045 0.083741024 0.16867509
-1.2737164 0.16050062 0.30836749
-0.02611593 -0.059798401 0.050936799
-1.203395 0.10464477 0.22901359
-0.02611593 -0.059798401 0.050936799
-0.02611593 -0.059798401 0.050936799
-1.2639288 0.1355775 0.30173114
-1.2467121 0.10916871 0.2649186
-1.2105669 0.079746485 0.22469601
-1.2815568 0.16342881 0.36958799
-1.2842953 0.13805541 0.3351686
-0.02611593 -0.059798401 0.050936799
-0.02611593 -0.059798401 0.050936799
-0.02611593 -0.059798401 0.050936799
-0.02611593 -0.059798401 0.050936799
-1.2904297 0.11311739 0.33283156
-0.02611593 -0.059798401 0.050936799
-3.12411 0.4966096 0.98632145
-1.3607321 0.14988603 0.41684142
-1.2759347 0.11057909 0.3595233
-0.02611593 -0.059798401 0.050936799
-3.081953 0.49132359 1.0484576
-3.1295028 0.42976558 0.97821057
-1.363879 0.12193774 0.41439393
-1.2920417 0.082641266 0.35931945
-3.1490576 0.50681365 1.1470275
-3.0823741 0.42247999 1.0392171
-3.1298902 0.35988605 0.97095126
-0.02611593 -0.059798401 0.050936799
-3.2160685 0.52221334 1.2505958
-3.1434991 0.43294945 1.1375842
-3.0787473 0.35156819 1.0328643
-3.1303089 0.28200784 0.96354783
-3.2800052 0.53752977 1.3581065
-3.2114882 0.44431719 1.2430985
-3.1378884 0.35803109 1.1311218
-3.0751708 0.27267578 1.0253677
-3.3508244 0.55376279 1.4717644
-3.2754405 0.45563442 1.3505371
-3.2167897 0.36734822 1.2418051
-3.136286 0.27611023 1.1256081
-3.428447 0.57183969 1.5955868
-3.3521581 0.46878091 1.4702517
-3.2797203 0.37462634 1.3511519
-3.2161653 0.28139544 1.2382374
-3.5406201 0.59764278 1.7422035
-3.4416738 0.48479259 1.6002616
-3.3534396 0.38274485 1.47172
-3.2800739 0.28464162 1.3495302
-3.7764213 0.64667851 1.9585786
-3.5013423 0.49682394 1.7226377
-3.4479139 0.39472091 1.6047505
-3.3627241 0.2907204 1.4742301
-3.7269588 0.64307749 2.0366139
-4.4965782 0.65886325 2.3274074
-3.4996221 0.40174249 1.7258866
-3.4353426 0.29572725 1.600723
-3.5815396 0.62205398 2.0615194
-4.4813037 0.65962738 2.4481761
-4.7226596 0.56352687 2.4499571
-4.8424478 0.43823826 2.3799098
-3.6418657 0.6397804 2.2010169
-3.4690356 0.49962449 2.004179
-4.5914316 0.54679662 2.5172203
-4.6952496 0.419469 2.4458368
-3.5953426 0.6371358 2.2821252
-4.6849241 0.70146644 2.8348763
-3.4681933 0.39740318 2.0153179
-4.5758281 0.40360075 2.5233402
-3.4885893 0.62296164 2.3238845
-4.5577335 0.68478668 2.9002154
-4.6781278 0.55912185 2.8511798
-3.4683592 0.28816849 2.027349
-3.4983535 0.63188648 2.4412684
-3.1865768 0.46307474 2.1392753
-3.2300174 0.36727306 2.081336
-4.6703668 0.40777507 2.8673024
-2.6116867 0.46085045 1.9153956
-4.3430467 0.66031611 3.0458028
-3.1401927 0.35610515 2.1264675
-4.5391159 0.39202657 2.9355831
-3.2298925 0.59329784 2.4705541
-2.6146452 0.37551385 1.9339136
-3.1421731 0.35818329 2.2335784
-4.4286633 0.37917206 3.0143092
-3.325289 0.62130129 2.6579103
-2.7578082 0.4034726 2.1341677
-2.5978107 0.2862871 1.941987
-4.3133264 0.36540824 3.0869255
-3.2964809 0.62346721 2.7534423
-2.4605231 0.35679185 1.9957104
-2.7773943 0.31181818 2.1738896
-2.5967231 0.19386499 1.9643025
-3.2558098 0.62471682 2.8417335
-2.4076312 0.35171953 2.0436447
-2.7281792 0.30745253 2.2389116
-2.7476547 0.20858333 2.1794677
-1.9021825 0.34311536 1.7449243
-2.3498557 0.34573796 2.0854688
-3.9099796 0.47114915 3.3473749
-3.980427 0.32928938 3.298111
-1.8486874 0.33741954 1.7718289
-1.8793689 0.26793706 1.7491386
-1.9159477 0.2003853 1.7315955
-2.3864765 0.17184249 2.086009
-1.8207523 0.33741796 1.8213224
-1.8337375 0.26314312 1.7832092
-1.8604156 0.19464611 1.7604618
-1.8940481 0.12312046 1.7407911
-1.9692827 0.3778353 2.052913
-1.8930531 0.2788482 1.9236513
-1.818686 0.1907759 1.7996238
-1.8434176 0.1183086 1.7747676
-2.1556621 0.42732361 2.3443964
-2.0649393 0.3147192 2.190609
-1.9809358 0.2159204 2.049201
-1.8958298 0.12404449 1.9118992
-3.301743 0.70380944 3.735327
-2.2599325 0.35684305 2.504128
-2.1761408 0.24720895 2.3535249
-2.0716364 0.14178821 2.1866047
-3.2125998 0.69735479 3.7965622
-3.2646012 0.55499637 3.770952
-3.3136704 0.41469914 3.7413228
-3.3599246 0.27055454 3.7025681
-3.1156149 0.68901664 3.8496134
-3.1714432 0.54750943 3.8330934
-3.2184753 0.40716892 3.8054259
-3.2635987 0.26289415 3.7736499
-2.6967232 0.60094327 3.4840536
-3.0743799 0.54009873 3.8901613
-3.1203561 0.39970025 3.8654742
-3.170306 0.25628048 3.8428073
-2.9383979 0.67718315 3.9681215
-2.9851983 0.53360796 3.9533958
-3.0300627 0.39309734 3.9346876
-3.0671537 0.24775788 3.904743
-2.8444462 0.66989177 4.019248
-2.8959572 0.52806276 4.0196471
-2.9319804 0.38566491 3.9927363
-2.9630914 0.24032202 3.9616795
-2.7582564 0.66541141 4.0825748
-2.8018706 0.52164453 4.0777893
-2.8338385 0.37917805 4.0538025
-2.8717234 0.23364316 4.0348725
-2.6604409 0.65723234 4.1266103
-2.7058256 0.51425546 4.1338758
-2.7396393 0.37265125 4.1179423
-2.7725251 0.22709846 4.0989184
-2.5606587 0.65008217 4.1686273
-2.6165991 0.50972807 4.1991453
-2.6454589 0.36614254 4.1810827
-2.6703837 0.22059721 4.1599092
-2.4222491 0.63005704 4.1396637
-2.525429 0.50524795 4.2613788
-2.5464067 0.36074233 4.2371497
-2.5741291 0.21400896 4.2270107
-2.3090885 0.61843628 4.1493378
-2.4313757 0.49986562 4.3175397
-2.453166 0.35518277 4.3033257
-2.4768851 0.20943487 4.2931299
-2.2992775 0.6368112 4.3485546
-2.3382101 0.49437854 4.3797174
-2.3569973 0.35068464 4.3654652
-2.3767207 0.20392254 4.355176
-2.2120614 0.63430887 4.4128981
-2.2489607 0.4908329 4.4460044
-2.2627378 0.34510344 4.432622
-2.2784624 0.19832695 4.4222574
-2.1219661 0.62990463 4.4711509
-2.1499465 0.48546889 4.5000715
-2.1655464 0.34158343 4.49576
-2.1772566 0.19377472 4.4863024
-1.9733233 0.60656428 4.4019222
-2.0577161 0.48193067 4.5653038
-2.0644572 0.33613992 4.5537882
-2.0741115 0.18826969 4.5472922
-1.8871634 0.60411984 4.4632854
-1.959641 0.47751579 4.622407
-1.9672508 0.33160198 4.617908
-1.9738082 0.18463042 4.6163712
-1.0016962 0.30370328 2.5146127
-0.99918324 0.22286907 2.5040998
-0.99954575 0.14493658 2.4996955
-1.0037539 0.067873582 2.5033815
-0.91883767 0.28943539 2.4557834
-0.91335499 0.2106263 2.4432507
-0.91268718 0.13567162 2.4398813
-0.9129256 0.060630102 2.441529
-0.84092206 0.27513129 2.4000468
-0.83339047 0.19927827 2.3895304
-0.82979023 0.12638482 2.3821416
-0.82326555 0.053553004 2.3706985
-0.76598322 0.2618196 2.3453846
-0.75651908 0.18803144 2.3308675
-0.74804294 0.11724636 2.3164234
-0.74993527 0.048903313 2.3352292
-0.69221663 0.24767449 2.2817259
-0.68262452 0.17777713 2.2732792
-0.67594904 0.10981783 2.2689233
-0.67206311 0.042670146 2.2756381
-0.62896037 0.23811577 2.2433558
-0.61740214 0.16924725 2.2328899
-0.60685444 0.10240005 2.2214794
-0.60754007 0.038871694 2.2503531
-0.56580162 0.22764771 2.1999691
-0.55238956 0.15991655 2.1814866
-0.54173654 0.095978379 2.1751285
-0.53292948 0.032902528 2.1768231
-0.50575864 0.21629912 2.1506231
-0.49310607 0.15235376 2.144227
-0.48330995 0.091292068 2.1449394
-0.46976197 0.029451355 2.1325631
-0.45134309 0.20862761 2.120455
-0.4339574 0.1439178 2.099952
-0.42230365 0.084993303 2.0926657
-0.44953209 0.034295741 2.3033299
-0.39714134 0.19915551 2.0792551
-0.3805939 0.13730401 2.0668223
-0.36685777 0.080299661 2.0635328
-0.39445642 0.032008249 2.3072586
-0.34580013 0.19156721 2.045145
-0.33009094 0.13257407 2.0407825
-0.31354651 0.074739985 2.027422
-0.33398485 0.029278249 2.2790675
-0.29822958 0.18477601 2.023124
-0.28049415 0.12775728 2.0197597
-0.26823646 0.074270971 2.0435705
-0.27464813 0.025678616 2.2438798
-0.25669017 0.18510407 2.051362
-0.24053468 0.12969424 2.0700634
-0.22710866 0.076041564 2.1028528
-0.21751696 0.022285149 2.1977329
-0.21768913 0.18800831 2.1037018
-0.19944429 0.13150102 2.1273463
-0.18288776 0.077710941 2.1670766
-0.16617055 0.021758422 2.2157683
-0.17747837 0.1917098 2.1670375
-0.15614048 0.13510127 2.1956236
-0.40917647 0.42331654 7.569396
-0.32673144 0.21671104 7.4720826
-0.13426426 0.19640033 2.2303348
-0.25842804 0.48916179 6.1582866
-0.22482926 0.40000224 7.32444
-0.142948 0.20297411 7.1952996
-0.1627845 0.51638031 5.0156007
-0.12121721 0.48747981 6.2217088
-0.053831458 0.37807819 7.0607524
0.029931054 0.18918622 6.9237208
-0.053640783 0.5098092 5.0234413
0.020381764 0.48335919 6.2529936
0.10553212 0.35785317 6.8163199
0.18745747 0.17684036 6.6864681
0.056177869 0.50760424 5.06636
0.16301534 0.48426086 6.3383679
0.25424254 0.33934167 6.5901241
0.33637178 0.16716453 6.4694314
0.16778235 0.50359124 5.0982089
0.30915353 0.4836188 6.3976407
0.39408571 0.32073584 6.3710952
0.47425061 0.15756436 6.2506018
0.2818515 0.5031364 5.1540833
0.44599792 0.46711272 6.2847414
0.52428341 0.30583963 6.1703196
0.60447192 0.14866713 6.0499349
0.39661703 0.50196755 5.1939268
0.56836075 0.44606537 6.0940056
0.64878178 0.29067552 5.9856524
0.72571748 0.14078391 5.8504548
0.51531774 0.4988389 5.2306609
0.68716669 0.42761588 5.9263902
0.76421469 0.27761573 5.7971907
0.84245473 0.13344818 5.6770778
0.63734806 0.49839148 5.2843862
0.79885769 0.40830004 5.7528911
-0.02611593 -0.059798401 0.050936799
-0.02611593 -0.059798401 0.050936799
0.78741038 0.51499289 5.4959483
-0.02611593 -0.059798401 0.050936799
0.18560973 0.0058110245 1.1925466
1.0594682 0.12133069 5.3586874
-0.02611593 -0.059798401 0.050936799
1.0080336 0.37497976 5.447269
1.0833585 0.24278475 5.3294272
0.27904636 -0.014909825 1.3784853
1.016574 0.49281389 5.4002242
0.26476458 0.047681071 1.4048939
0.28835368 0.01587172 1.3888714
1.2527788 0.11202747 5.0557971
0.26999778 0.078549311 1.4113564
1.1922406 0.34373069 5.1431513
1.2719491 0.22319368 5.0434451
1.3431129 0.10722737 4.9139709
1.2005666 0.45579144 5.1390209
1.2848988 0.33058107 5.0201373
1.3530031 0.21367998 4.8877025
1.4317551 0.10414468 4.7882133
1.2849406 0.43692482 5.0020537
1.3652223 0.3178001 4.8793545
1.4407234 0.2065111 4.7668891
1.5153193 0.10015246 4.6585321
1.3675851 0.41981176 4.8791552
1.4479613 0.30561385 4.7605448
1.5224633 0.19934568 4.6471887
-0.02611593 -0.059798401 0.050936799
1.4494996 0.40444875 4.7703066
1.5276672 0.29447436 4.6398096
-0.02611593 -0.059798401 0.050936799
0.37654686 -0.023031445 1.086414
1.5262091 0.38930258 4.6505561
1.6045648 0.28416461 4.5291457
0.37551719 -0.0019228905 1.0808132
0.48727757 -0.015998958 1.2825345
1.5990131 0.37408042 4.5358787
-0.02611593 -0.059798401 0.050936799
0.48630106 0.0090727303 1.2790049
1.8205678 0.091367319 4.1914997
-0.02611593 -0.059798401 0.050936799
0.48956722 0.033894911 1.288396
1.8199315 0.17432065 4.1950135
1.8822525 0.088345341 4.0682483
0.48775938 0.058807395 1.2938824
1.8173625 0.25520912 4.2025275
1.8796045 0.16830634 4.0717459
1.9523551 0.086896345 3.9668751
1.8007094 0.33322066 4.2062516
1.8771361 0.24608678 4.0852036
1.9478084 0.16375649 3.9763541
2.0174253 0.086501338 3.8636148
1.8678256 0.32073003 4.1077356
1.9433246 0.2375448 3.9897773
2.0139561 0.15926811 3.878001
2.0836411 0.084958151 3.7683151
1.9320214 0.3091777 4.0132928
2.0064237 0.23010388 3.8894272
2.0750675 0.15483384 3.7777426
2.1499774 0.085306115 3.679049
1.9910681 0.29778796 3.9109464
2.0676358 0.2225616 3.7951128
2.1435409 0.15203044 3.6963823
2.2111981 0.08478073 3.5838611
2.0513434 0.28717738 3.8205955
2.1310608 0.21681279 3.7117932
2.2007694 0.14850181 3.6022153
2.2643452 0.084356397 3.4848249
2.1065257 0.27667528 3.7253399
2.189311 0.20924512 3.6195345
2.2559798 0.14499846 3.5070858
2.3278127 0.084588513 3.4026127
2.1710329 0.26783293 3.6469457
2.2456064 0.20364805 3.5293486
2.3133056 0.14237925 3.4179349
2.3861876 0.084928997 3.3154967
2.2273691 0.25818229 3.5596867
2.3019769 0.19797868 3.4431615
2.3737991 0.13958645 3.3377247
2.437433 0.085421242 3.2215142
2.2807095 0.2495423 3.472502
2.3542693 0.19139615 3.3530328
2.4220147 0.13710806 3.2427449
2.495939 0.085635103 3.1413956
2.336102 0.23984095 3.3882611
2.4127934 0.18657468 3.2748232
2.4825869 0.13524273 3.1665514
2.5524118 0.086892165 3.0593331
2.3895397 0.23211034 3.306093
2.4641645 0.18092322 3.18873
2.5370674 0.13348937 3.0854723
2.6038251 0.087221593 2.9743478
2.4399972 0.22437236 3.2249806
2.5166748 0.17714122 3.1096518
2.5854552 0.13184801 2.9995072
2.6583774 0.089413315 2.8963394
2.4934914 0.21658747 3.1458113
2.5681622 0.17238106 3.0295744
2.6410284 0.13000064 2.9234076
2.7108886 0.090648547 2.8163514
2.542949 0.20885307 3.0647182
2.6237469 0.16851595 2.9544382
2.6925507 0.12922171 2.8444021
2.7613626 0.091927141 2.7344019
2.5934851 0.20204256 2.9876227
2.6752944 0.16470134 2.877378
2.7359164 0.12661655 2.7575135
2.8190262 0.09399955 2.6623352
2.6491325 0.19510558 2.9164312
2.7197273 0.16002056 2.7944334
2.7915728 0.12669647 2.6854486
2.8553343 0.095491193 2.5716517
2.6935575 0.18842514 2.8334506
2.7723536 0.15712985 2.7213709
2.8380959 0.12593549 2.6065371
2.9272242 0.098296121 2.5113361
2.7472055 0.18149535 2.7622967
2.820883 0.15334412 2.6433678
2.8836002 0.12519619 2.5266445
3.0103257 0.10286224 2.4618459
2.7845943 0.17487623 2.677448
2.8613205 0.14967754 2.5605161
2.9819534 0.12745556 2.4908321
3.0608599 0.10508639 2.3829131
2.8332093 0.16900039 2.6044068
2.9485557 0.15008527 2.5188761
3.0325546 0.1276077 2.4158618
3.0982652 0.1074838 2.2972274
2.8848431 0.1630957 2.5323088
3.013371 0.14797044 2.4556029
3.0780442 0.12788633 2.3349879
3.162029 0.11144391 2.2300823
2.9812183 0.16132675 2.498461
3.0609231 0.14517002 2.3786356
3.1307011 0.127977 2.262979
3.2085643 0.11368242 2.1512251
3.0227039 0.15560265 2.4185536
3.113591 0.14324299 2.307591
3.1782465 0.12819418 2.1850667
3.2550843 0.11693884 2.0713859
3.0723414 0.15070496 2.3465114
3.1591251 0.14046784 2.2296615
3.2268333 0.1293714 2.1091526
4.6782265 0.19431706 2.7953856
3.1209424 0.14584704 2.2724884
3.2087188 0.13862389 2.1546745
3.2845306 0.13040781 2.0390673
4.7593398 0.2008453 2.6929507
3.1685429 0.1409927 2.1984842
3.2593305 0.1367583 2.0806677
4.7194352 0.20997778 2.7498822
4.8131661 0.20474233 2.5759735
3.2181432 0.1361312 2.1244426
4.6745343 0.21511078 2.8078351
4.7884192 0.21165849 2.6415842
4.6225948 0.19580789 2.3362987
3.27384 0.13215753 2.0553045
4.7455392 0.21274881 2.7014272
4.5857038 0.19889443 2.3950653
4.7058401 0.20220235 2.2408235
4.6998878 0.20459819 2.7751594
4.8175669 0.21136498 2.5960178
4.6528001 0.2004738 2.2928026
5.0472422 0.22361283 2.2548237
4.7769918 0.19910666 2.6745825
4.6078377 0.19462672 2.3495584
4.859128 0.21038038 2.2531059
5.1161699 0.23036504 2.142617
4.6479669 0.18339355 2.4646428
4.6749597 0.1931704 2.2492411
5.0823994 0.22128007 2.210108
8.5665092 0.42975843 3.3130212
4.623168 0.17313379 2.3178716
5.0335369 0.20732209 2.2737918
5.1392169 0.22316666 2.0930386
8.5822792 0.43477461 3.08674
4.704392 0.16951904 2.2232535
5.0984354 0.20609005 2.1615164
8.9000483 0.42798448 3.338753
8.5961494 0.44170716 2.8655307
5.0558496 0.1767875 2.2428114
5.1623144 0.20487967 2.0482602
8.9358759 0.42985696 3.1160407
8.5748844 0.44589248 2.6379273
5.1147137 0.17159574 2.1295769
9.6001816 0.42333534 3.4996152
9.0804243 0.43765333 2.9294121
8.6240177 0.45444584 2.4300916
10.378242 0.3946242 3.9796908
9.7262669 0.42261383 3.2901704
9.1122112 0.43857667 2.7047575
8.5857925 0.45865604 2.204807
10.835167 0.39791197 3.8641565
9.9630556 0.42882699 3.1157904
9.1873484 0.44401908 2.4973788
8.561739 0.46365294 1.9882746
11.165024 0.39668393 3.6939006
10.166386 0.43159336 2.9179664
9.2795048 0.45038232 2.2906985
8.5507412 0.4695487 1.7745146
11.625348 0.40053618 3.5463018
10.301287 0.43202031 2.6983743
9.3545055 0.45495155 2.0763042
8.5558786 0.47726017 1.5674878
11.93241 0.39714739 3.3344197
10.613946 0.44208661 2.5156403
9.4596453 0.46228606 1.868398
8.5259399 0.48317 1.3570839
12.231269 0.39398628 3.1116915
10.634075 0.4376654 2.2570958
9.471406 0.46531695 1.6421558
8.4689589 0.4862133 1.145134
12.71976 0.3975305 2.9195447
10.827942 0.44191611 2.0344675
9.477128 0.46740571 1.4140092
8.4692335 0.49481589 0.94521666
12.929716 0.39055437 2.6503963
10.844095 0.43849105 1.7770158
9.5541048 0.47500345 1.1976321
6.1469698 0.34892657 0.55592465
13.409471 0.39283311 2.4193769
11.012705 0.44308472 1.5408622
9.5137882 0.47529384 0.96831447
5.9759879 0.34340718 0.39997321
12.711142 0.35731262 1.9896634
11.800631 0.47418913 1.3636127
6.0745668 0.28531396 0.49410862
6.0354657 0.35464326 0.26301646
12.132806 0.32640538 1.6108038
6.1742034 0.2181282 0.59306139
6.0057878 0.28322884 0.34730884
-0.02611593 -0.059798401 0.050936799
11.589079 0.2987965 1.2633667
6.0082092 0.20959139 0.43696189
6.0191674 0.28670371 0.20707369
3.0525537 0.15679054 0.015201619
6.1240005 0.12513402 0.54730362
6.053556 0.21096984 0.29508972
3.6754918 0.15454508 0.059512943
3.0882368 0.16294123 -0.056379475
5.9750361 0.11550021 0.39286602
3.6623094 0.10362701 0.11285679
3.0819011 0.12117741 -0.013001607
3.1228685 0.17014959 -0.13092275
6.019383 0.11186501 0.25192219
3.0805559 0.077395976 0.030246265
3.114521 0.12539345 -0.087561347
2.70995 0.14348333 -0.17068765
6.0867109 0.10916521 0.10956456
3.1112022 0.078583546 -0.042330634
2.8104198 0.10953312 -0.1401725
2.7427092 0.14957245 -0.23821372
3.1179292 0.02466657 0.0065847011
3.1437917 0.079818204 -0.11794409
2.739275 0.10688846 -0.19990857
2.7684653 0.15468682 -0.30562627
3.3064606 0.027377186 -0.073923379
2.7358332 0.062204819 -0.16163944
2.7729883 0.11101047 -0.26948878
2.3113258 0.12342301 -0.30263191
3.4858065 0.03030101 -0.16425894
2.7705572 0.064305499 -0.23027483
2.8216472 0.11613278 -0.34233183
2.3811085 0.13236073 -0.36979955
3.393358 0.026021475 -0.239631
2.8062439 0.066438779 -0.30092832
2.3775434 0.08980336 -0.33849201
2.4059587 0.13738824 -0.43219501
3.2820065 0.021719683 -0.30964777
2.0258777 0.031632997 -0.25293112
2.4163537 0.094816834 -0.40314987
2.4357557 0.14345193 -0.49766538
1.9524715 -0.011817677 -0.21232897
2.4945714 0.053163998 -0.38436139
