# .PCD v0.7 - Point Cloud Data file format
VERSION 0.7
FIELDS x y z
SIZE 4 4 4
TYPE F F F
COUNT 1 1 1
WIDTH 1381
HEIGHT 1
VIEWPOINT 0 0 0 1 0 0 0
POINTS 1381
DATA ascii
-0.66948986 0.62209415 0.75855708
-0.72351259 0.62834126 0.75668097
-0.77460778 0.63063246 0.75167733
-0.60205978 0.62443715 0.78034437
-0.6561622 0.62473947 0.77536112
-0.70430708 0.62405664 0.76824772
-0.75734174 0.62730062 0.76629871
-0.58292133 0.62222457 0.78794861
-0.63892192 0.62444329 0.78803724
-0.69193786 0.62766927 0.78708792
-0.74202627 0.62693924 0.78301108
-0.5656997 0.62194657 0.7996251
-0.62170422 0.62316543 0.79969579
-0.67275113 0.62340277 0.79765511
-0.72476029 0.62360746 0.79763252
-0.54751575 0.62170106 0.80928349
-0.60737282 0.62680703 0.81649894
-0.65742773 0.62504095 0.81440353
-0.7123763 0.62620205 0.81745434
-0.53033173 0.62145913 0.81896067
-0.58531076 0.61963874 0.82095778
-0.64408135 0.62766832 0.8322072
-0.69410658 0.62386644 0.83207488
-0.51121193 0.61926466 0.82556522
-0.57001692 0.62331289 0.83574289
-0.62586772 0.62538695 0.8438288
-0.67878711 0.62450492 0.84880537
-0.49400127 0.62100434 0.83627808
-0.55184084 0.62106776 0.84536523
-0.60665047 0.62410182 0.85544974
-0.66149455 0.62315464 0.86446249
-0.47583607 0.62077695 0.84493685
-0.53266102 0.61981887 0.85498685
-0.59036863 0.62477291 0.87016201
-0.64323968 0.62183702 0.87810147
-0.4557766 0.61763328 0.84850562
-0.51447713 0.61957335 0.86464518
-0.57019687 0.62152076 0.87972873
-0.62789756 0.62345719 0.89584953
-0.43761137 0.61740589 0.85716432
-0.49629316 0.61932784 0.87430358
-0.55004382 0.61828673 0.88829583
-0.60964268 0.62213957 0.90948856
-0.41946098 0.61819643 0.8648414
-0.47713208 0.61809701 0.88292551
-0.53375411 0.62095743 0.90304416
-0.5913651 0.62180364 0.92414528
-0.40231037 0.61899054 0.87253726
-0.45798966 0.61688429 0.89054775
-0.51551402 0.62065768 0.91570151
-0.57019359 0.61854786 0.93369323
-0.38320547 0.617814 0.87816024
-0.44073761 0.61958766 0.90327793
-0.49726608 0.62235755 0.92839491
-0.55191207 0.61921179 0.94836795
-0.36411926 0.61665547 0.88278347
-0.42161399 0.618393 0.90990049
-0.47615063 0.61915606 0.93494385
-0.5316723 0.61890483 0.96098769
-0.34501037 0.61647874 0.8884244
-0.40153581 0.61523134 0.91446894
-0.4579066 0.61985618 0.94761926
-0.50954235 0.61468184 0.96849954
-0.32694268 0.61534202 0.89206678
-0.3823669 0.61600006 0.92312694
-0.43676853 0.61763638 0.95518595
-0.49312845 0.62024349 0.98929989
-0.30782995 0.6161651 0.89772576
-0.36228472 0.61383826 0.92771333
-0.41662636 0.61642009 0.96278942
-0.47101715 0.61603868 0.99581206
-0.28971699 0.61699182 0.90340346
-0.34506622 0.61757755 0.93846232
-0.39839709 0.61813807 0.97448313
-0.449819 0.61476439 1.0063957
-0.27071348 0.61390603 0.90399218
-0.32213926 0.60953259 0.93588662
-0.3753421 0.61398387 0.97797751
-0.42863563 0.61450821 1.0159976
-0.25261924 0.6147508 0.90867019
-0.30398494 0.61132288 0.94358176
-0.35710898 0.61670166 0.98968929
-0.40741086 0.6152156 1.027617
-0.23361185 0.61266482 0.90927678
-0.28485343 0.6121279 0.95024037
-0.33504596 0.61455071 0.99323851
-0.38529557 0.61201054 1.0341473
-0.21551761 0.61350965 0.91395491
-0.26378632 0.61098033 0.95382631
-0.31392267 0.61334884 0.99982345
-0.36406687 0.61371773 1.0457846
-0.19650628 0.61242354 0.91457951
-0.24565069 0.61278886 0.96052182
-0.29371253 0.61507779 1.0104799
-0.34281951 0.61540687 1.0584216
-0.17747623 0.61131936 0.91620386
-0.22558339 0.6116448 0.96412665
-0.27264541 0.61393023 1.014066
-0.31878343 0.61126721 1.0608975
-0.15939678 0.61318207 0.91990024
-0.20549344 0.61148256 0.96874911
-0.25153694 0.61374629 1.0196694
-0.29755083 0.61397421 1.0725529
-0.14132126 0.6140449 0.92357862
-0.1845465 0.60844398 0.96630114
-0.22949263 0.61161345 1.0222189
-0.27253366 0.60984898 1.0740105
-0.12237004 0.61201322 0.92118633
-0.16545242 0.60928518 0.97096038
-0.2074257 0.61046231 1.0257862
-0.24944817 0.6086762 1.0785586
-0.10433197 0.61291236 0.92286539
-0.14533591 0.61110443 0.97661865
-0.18535484 0.61031097 1.0293714
-0.22632132 0.60846698 1.085124
-0.086229868 0.61575675 0.92757952
-0.12534742 0.60903305 0.97620678
-0.16335191 0.60721445 1.0299037
-0.20223603 0.60729063 1.0896534
-0.067301288 0.61274338 0.92416948
-0.10526833 0.61088854 0.97986567
-0.14227694 0.60806656 1.0335257
-0.17914662 0.60711759 1.0942193
-0.049240559 0.61462408 0.92686623
-0.085321233 0.60785353 0.97743648
-0.12024745 0.60695159 1.0350937
-0.15597446 0.60887188 1.1028202
-0.031307876 0.61261415 0.92349303
-0.065328807 0.6067819 0.97704268
-0.099085785 0.61073089 1.0427684
-0.13185868 0.61067688 1.1084032
-0.01331117 0.61254954 0.92315483
-0.045268442 0.60865551 0.97970188
-0.077011004 0.61157936 1.0463716
-0.10776553 0.61150014 1.1129687
0.0037122974 0.61447006 0.92387104
-0.025208076 0.61052907 0.98236108
-0.055018958 0.61050063 1.0459402
-0.082841985 0.60746539 1.1094277
0.021626256 0.6124782 0.91949815
-0.0063622538 0.60558838 0.97491628
-0.031985719 0.6103819 1.0475074
-0.058812849 0.60634327 1.1109581
0.039690912 0.61535883 0.92221296
0.013698108 0.60746205 0.97757554
-0.0099670924 0.61128461 1.0481117
-0.034798518 0.60623908 1.1115068
0.057627525 0.61434859 0.91885769
0.032611884 0.60546649 0.97318381
0.011070436 0.6121729 1.0497344
-0.010742815 0.6070984 1.1140728
0.075568065 0.61433828 0.91552049
0.052525483 0.6034674 0.96877337
0.033025034 0.6111303 1.0473037
0.013143472 0.6031034 1.1085515
0.092440836 0.61138636 0.90914899
0.072589777 0.60634089 0.97145063
0.054938272 0.609124 1.0428556
0.037244476 0.60592633 1.1131529
0.11049069 0.61528492 0.91088223
0.092484646 0.60435987 0.96604037
0.076787472 0.60517246 1.0353725
0.062243827 0.60683644 1.1127011
0.12736347 0.61233294 0.90451074
0.11144765 0.60532767 0.96370208
0.098704636 0.60416591 1.0309424
0.087179154 0.60580122 1.1092144
0.14530793 0.61332244 0.90119159
0.13145183 0.60725564 0.96336234
0.12070454 0.6050868 1.0305471
0.1110733 0.60380584 1.103729
0.16216198 0.61038852 0.89382041
0.15135065 0.60627443 0.9579702
0.14159922 0.60310227 1.0251181
0.13511419 0.60568321 1.1053134
0.17908399 0.61039984 0.88950235
0.17026836 0.60527867 0.95359647
0.16354297 0.60407734 1.0217237
0.15892953 0.60276031 1.0958115
0.1960099 0.61141104 0.88520223
0.1891486 0.60431921 0.94722348
0.18550542 0.60503447 1.0193291
0.18285024 0.60274655 1.0913618
0.2129319 0.61142236 0.88088423
0.20909664 0.60630143 0.94388473
0.20740777 0.60504597 1.0139173
0.20777078 0.60272914 1.0868933
0.22981253 0.61047012 0.87454873
0.22799954 0.60632366 0.93852937
0.228265 0.6030975 1.0064892
0.23275535 0.60465729 1.0854599
0.24565196 0.60855776 0.86621487
0.24794364 0.60730606 0.93517256
0.25025797 0.60703605 1.0051482
0.25555605 0.6027559 1.0749952
0.26260054 0.61055064 0.86293244
0.2658093 0.60736805 0.92783678
0.27003261 0.60316384 0.99370396
0.27943933 0.60277832 1.0685463
0.27950773 0.6115799 0.8576327
0.28367102 0.60643017 0.92048287
0.29302543 0.60709876 0.99234426
0.30121756 0.59989887 1.0570825
0.29430601 0.60870755 0.84730017
0.30253649 0.60648865 0.91312826
0.31178153 0.6032483 0.9799192
0.32404092 0.59897923 1.0476353
0.3122583 0.6116966 0.84401703
0.32246187 0.60748911 0.90877181
0.33262795 0.60331762 0.97152728
0.34793207 0.60100132 1.0412225
0.32810169 0.61078411 0.83570105
0.33926758 0.60660905 0.89843774
0.35242921 0.60142714 0.96111882
0.37182316 0.60302335 1.0348095
0.3429226 0.60889339 0.82638621
0.35711452 0.60668921 0.89010221
0.37538457 0.60539812 0.95775974
0.39358664 0.60116184 1.0223643
0.35985634 0.6119042 0.82212216
0.37387496 0.60384578 0.87773281
0.39414853 0.60354733 0.94537073
0.4164139 0.60124213 1.0129352
0.37570363 0.61199147 0.81382424
0.39069939 0.60294771 0.86839837
0.41291645 0.60269642 0.93299985
0.43926778 0.60330391 1.0045416
0.38950601 0.6101225 0.80352855
0.40959144 0.60498768 0.86207938
0.43172187 0.60180932 0.9226281
0.46208024 0.60440212 0.99413085
0.40432692 0.60823178 0.79421371
0.42640111 0.60510761 0.85176337
0.45257607 0.60387826 0.91427231
0.48385158 0.60454023 0.98172152
0.42124194 0.61126077 0.78894997
0.44422933 0.60520583 0.84242815
0.47030279 0.60206735 0.89990276
0.50355917 0.60274011 0.96631479
0.43605199 0.61138779 0.7786715
0.46208408 0.60728556 0.83412874
0.49011585 0.60317618 0.88954842
0.52737939 0.60583442 0.95592129
0.45088071 0.61149675 0.76939273
0.47889379 0.60740548 0.82381266
0.50477517 0.59843075 0.87218213
0.54606843 0.60405594 0.93953365
0.46570948 0.6116057 0.76011389
0.49361715 0.60460538 0.8094815
0.52665979 0.6034776 0.86486119
0.56579882 0.60323757 0.92514455
0.4774482 0.60779852 0.74682081
0.51045334 0.6067068 0.80020118
0.54440904 0.60264832 0.85150945
0.58242816 0.60052079 0.90577745
0.49432582 0.61086363 0.73955774
0.52724427 0.60684478 0.78888541
0.56116259 0.60282248 0.83819437
0.60112125 0.59974217 0.88940787
0.50709486 0.61003423 0.72729957
0.5409717 0.60504818 0.77459109
0.57889718 0.60301107 0.82386088
0.6219005 0.60188353 0.87705332
0.52090114 0.60916501 0.71702176
0.55777055 0.60718578 0.76331145
0.59767693 0.60515958 0.81154394
0.64057875 0.60212284 0.85970211
0.53367406 0.60933536 0.70478165
0.57354295 0.6073454 0.75101483
0.61132562 0.60243547 0.79323292
0.65621227 0.60040951 0.84037185
0.54848409 0.60946244 0.69450319
0.58829677 0.60752672 0.73773736
0.63112766 0.60556215 0.78191495
0.67593557 0.60260874 0.82503712
0.56227952 0.61061108 0.68326181
0.60204691 0.6067118 0.72446066
0.64479893 0.60381979 0.76462156
0.68952417 0.598939 0.80370915
0.57507122 0.61076343 0.67202127
0.6157822 0.60691482 0.71020234
0.65845162 0.60209548 0.74632859
0.7072292 0.60116351 0.78741235
0.58988518 0.61189026 0.66176087
0.63256234 0.60907054 0.69792306
0.6741944 0.60429102 0.73206866
0.72286659 0.60044992 0.76810014
0.60163563 0.61108255 0.64852166
0.64118534 0.60438281 0.67867029
0.68886948 0.60354483 0.71477461
0.73850799 0.60073614 0.74880594
0.61236751 0.61029643 0.63430178
0.65901047 0.60849839 0.66840744
0.70458961 0.60475856 0.69949698
0.75519437 0.60298234 0.73152828
0.62207311 0.60753238 0.61906487
0.67068613 0.60776299 0.65116978
0.71724629 0.60403764 0.68124086
0.76881343 0.60229409 0.71125394
0.63380486 0.6067428 0.60482615
0.68342155 0.60796958 0.63693023
0.72990692 0.60431665 0.66300267
0.7844587 0.60358012 0.6919778
0.64762294 0.60887307 0.59460253
0.69816458 0.6101687 0.62268919
0.74258626 0.60457748 0.64576411
0.79605943 0.60291713 0.67074144
0.66040379 0.61104316 0.5823983
0.70985883 0.60941517 0.60645103
0.7582916 0.6068092 0.62950492
0.81070876 0.60520673 0.65150201
0.67315793 0.61123163 0.56915843
0.72360206 0.61161792 0.59222877
0.76586252 0.60317904 0.60729003
0.82126832 0.60358357 0.62826705
0.6848976 0.61244172 0.55495572
0.7363041 0.6128605 0.57600796
0.78057593 0.60741401 0.59108567
0.83389544 0.60489845 0.6080476
0.69461095 0.61167729 0.53975487
0.74598002 0.61213231 0.55880779
0.78816563 0.60376579 0.56987041
0.84550011 0.60523534 0.5868293
0.70534688 0.61189103 0.52555293
0.75665975 0.61240035 0.54160684
0.80083013 0.6050446 0.55165023
0.85506761 0.6056155 0.56364912
0.71403772 0.61014843 0.50935322
0.76836187 0.61364651 0.52540481
0.81350249 0.60832304 0.5334661
0.86264634 0.60398501 0.54147023
0.72477758 0.61136204 0.49516925
0.77499312 0.61096555 0.50622565
0.82314098 0.60763103 0.51426661
0.87323642 0.6053434 0.51928902
0.73346853 0.60961956 0.47896951
0.78162819 0.60928452 0.48706454
0.83074641 0.60798222 0.49312341
0.88182282 0.60570908 0.49712735
0.74318975 0.6108548 0.46380472
0.79128939 0.6095742 0.46888271
0.84239239 0.60928261 0.47392234
0.88939077 0.60609639 0.47398484
0.75593317 0.61306107 0.44960123
0.79894698 0.60887128 0.45072046
0.85001642 0.60961568 0.45377883
0.90000337 0.60843647 0.45282128
0.76363206 0.61332184 0.43345633
0.80963057 0.61013913 0.43353754
0.8535921 0.60699987 0.43165705
0.90857899 0.61081982 0.42969599
0.77232695 0.61257905 0.41727459
0.8182959 0.61143225 0.41539258
0.86524594 0.61029994 0.41249207
0.91819185 0.61316347 0.40855125
0.7830559 0.61581045 0.40212706
0.82293135 0.60975838 0.39626902
0.8708477 0.60965848 0.39136845
0.92173785 0.6125834 0.38446617
0.79075098 0.61507136 0.38596413
0.83462268 0.61302221 0.3791033
0.8764534 0.61001676 0.37026277
0.92730612 0.61297792 0.36136124
0.79742748 0.6143539 0.36882037
0.83924341 0.61236626 0.35899815
0.88708878 0.61333853 0.35011691
0.92985231 0.61240149 0.33729497
0.80611145 0.61562896 0.351675
0.84387887 0.61069238 0.33987463
0.89069086 0.61270422 0.32903087
0.93442076 0.61279958 0.31420884
0.81481421 0.6168859 0.33552933
0.85152954 0.61300701 0.32076675
0.89830416 0.61505508 0.3079237
0.93697083 0.6132229 0.2901606
0.81744611 0.61421931 0.31642532
0.85919505 0.61430371 0.30264056
0.89988798 0.61444598 0.28587556
0.93751347 0.61165386 0.26611391
0.82513028 0.61549795 0.29929879
0.86481947 0.61464399 0.28253457
0.89846057 0.61084819 0.26382974
0.94411606 0.61602604 0.2440619
0.82978845 0.61480576 0.28119293
0.86946285 0.61496973 0.26344708
0.90607762 0.61419892 0.24274057
0.6599552 0.41744706 0.16976488
0.83847636 0.61708069 0.26406562
0.87106138 0.61334276 0.24238056
0.63900834 0.42048576 0.17221285
0.59327722 0.37118033 0.14316733
0.84514201 0.61838102 0.24595821
0.62006104 0.42351723 0.17462327
0.58037806 0.37715361 0.14751837
0.58395183 0.36450326 0.12721574
0.72395134 0.5206244 0.20244415
0.58153433 0.39305681 0.15278617
0.56601912 0.36651322 0.13058898
0.56458592 0.35188115 0.11034428
0.56965375 0.39900845 0.15811807
0.56919378 0.38239121 0.13681889
0.55873471 0.36079261 0.11661715
0.56432384 0.35213441 0.096349023
0.56035787 0.39029551 0.14412977
0.55890208 0.37468168 0.12286738
0.54942805 0.35409746 0.10166523
0.55404001 0.34642455 0.082433566
0.54099506 0.37365603 0.1281859
0.55361736 0.36895391 0.10885797
0.55219197 0.35632148 0.088649295
0.55778891 0.34966293 0.068417206
-0.02611593 -0.059798401 0.050936799
0.55437374 0.36918551 0.095843583
0.55094481 0.35556042 0.075654477
0.55452341 0.34892714 0.054460298
0.53950757 0.3691127 0.10312307
0.54811573 0.36544284 0.082888663
0.55170912 0.3577916 0.062676132
0.5562914 0.35215461 0.041481178
0.56338269 0.38620454 0.0929818
0.54786843 0.36467817 0.069875039
0.55246949 0.35902303 0.04967976
-0.02611593 -0.059798401 0.050936799
0.55711675 0.38046226 0.079990834
0.55766934 0.37185815 0.057817336
0.5532338 0.36125427 0.036701415
-0.02611593 -0.059798401 0.050936799
0.558873 0.38069025 0.06695766
0.56747043 0.37903818 0.045759629
0.56401974 0.36944857 0.023643272
0.56756181 0.36786869 -0.00045979396
0.56767035 0.38687399 0.054900724
0.57723784 0.38725415 0.031720612
0.57176888 0.37768987 0.0086421743
0.57531095 0.37610996 -0.015460886
0.5905121 0.40500546 0.042796947
0.57900196 0.38948181 0.018723479
0.564511 0.37395081 -0.0042939559
-0.02611593 -0.059798401 0.050936799
0.61330861 0.42117342 0.028657801
0.58175105 0.39272377 0.0047259033
0.57528615 0.38416287 -0.018315725
0.58477974 0.38963261 -0.046404041
0.62606466 0.43139642 0.013598792
0.58349645 0.39496949 -0.0092708915
0.56402123 0.37843853 -0.031212732
0.58051842 0.38990024 -0.06032414
0.61478794 0.42267257 0.0006477274
0.57424986 0.38921988 -0.02120582
0.56176341 0.37969878 -0.045152392
0.59524143 0.40616927 -0.0783116
0.58750832 0.40297183 -0.010201566
0.56998456 0.38848764 -0.03514393
0.58150816 0.39693159 -0.062216122
-0.02611593 -0.059798401 0.050936799
0.58125043 0.39922926 -0.023156494
0.57075268 0.39171872 -0.048104268
0.59223121 0.40819782 -0.079218864
0.87316352 0.62695754 -0.18055587
0.56698507 0.38849843 -0.035087556
0.58249414 0.40296319 -0.064126119
0.60695028 0.42346701 -0.097224325
0.86379075 0.62735164 -0.20037997
0.56674951 0.39073327 -0.048047118
0.59122825 0.41221881 -0.080127664
0.86817616 0.62997496 -0.18040785
0.84942579 0.62474608 -0.21916452
0.57349098 0.39697841 -0.063065469
0.60993588 0.4294914 -0.099171922
0.85979927 0.62936568 -0.20026876
0.194179 0.11468126 -0.022056293
0.57923263 0.40322721 -0.078065008
0.86415428 0.62900758 -0.18135037
0.85043734 0.62774199 -0.21912926
-0.02611593 -0.059798401 0.050936799
0.60493588 0.42449209 -0.098168388
0.85479236 0.62738395 -0.20021084
0.21011479 0.12773018 -0.028120667
0.1839966 0.11088064 -0.030937407
0.86416912 0.62798965 -0.18036874
0.84942281 0.62876344 -0.22009212
0.20105544 0.12179966 -0.030058984
-0.02611593 -0.059798401 0.050936799
0.85780656 0.62635523 -0.1992856
-0.02611593 -0.059798401 0.050936799
-0.02611593 -0.059798401 0.050936799
0.15297598 0.089941211 -0.027734313
0.85542166 0.62874192 -0.22020486
-0.02611593 -0.059798401 0.050936799
0.17397095 0.10391773 -0.030875634
-0.02611593 -0.059798401 0.050936799
0.1981674 0.11668465 -0.023095075
0.18700393 0.11286954 -0.03095774
-0.02611593 -0.059798401 0.050936799
0.13590237 0.080040097 -0.029594377
0.20205133 0.12079626 -0.030095793
-0.02611593 -0.059798401 0.050936799
0.14790894 0.087013923 -0.030693389
-0.02611593 -0.059798401 0.050936799
0.18002994 0.10484175 -0.027971379
0.16491158 0.097987212 -0.032813944
-0.02611593 -0.059798401 0.050936799
0.11587369 0.067095987 -0.028453145
-0.02611593 -0.059798401 0.050936799
-0.02611593 -0.059798401 0.050936799
0.12589149 0.072059251 -0.028550956
-0.02611593 -0.059798401 0.050936799
0.15496382 0.086934529 -0.027825948
0.14386044 0.084064968 -0.032671604
-0.02611593 -0.059798401 0.050936799
0.095878534 0.053115893 -0.025330607
-0.02611593 -0.059798401 0.050936799
-0.02611593 -0.059798401 0.050936799
0.11383269 0.066139527 -0.030432902
-0.02611593 -0.059798401 0.050936799
0.13890482 0.076011911 -0.028723162
0.12682036 0.073127851 -0.032550365
-0.02611593 -0.059798401 0.050936799
0.087830774 0.050181281 -0.027233668
-0.02611593 -0.059798401 0.050936799
-0.02611593 -0.059798401 0.050936799
0.096826106 0.054166391 -0.028330367
-0.02611593 -0.059798401 0.050936799
0.120861 0.064078562 -0.028601155
0.10879525 0.061176401 -0.03142871
-0.02611593 -0.059798401 0.050936799
0.076805294 0.043221951 -0.027153097
-0.02611593 -0.059798401 0.050936799
-0.02611593 -0.059798401 0.050936799
-0.02611593 -0.059798401 0.050936799
-0.02611593 -0.059798401 0.050936799
0.10484337 0.054119591 -0.027481031
0.098736055 0.05524949 -0.033348233
-0.02611593 -0.059798401 0.050936799
0.064817436 0.036230035 -0.025054414
-0.02611593 -0.059798401 0.050936799
-0.02611593 -0.059798401 0.050936799
0.074779078 0.041247565 -0.028151214
-0.02611593 -0.059798401 0.050936799
0.092795417 0.046182103 -0.028399352
0.083755694 0.045250755 -0.030247573
-0.02611593 -0.059798401 0.050936799
0.055818167 0.031245099 -0.023975734
-0.02611593 -0.059798401 0.050936799
-0.02611593 -0.059798401 0.050936799
0.061802272 0.032241479 -0.025070116
-0.02611593 -0.059798401 0.050936799
0.080788851 0.039208274 -0.027300335
0.078677788 0.044341225 -0.034170292
-0.02611593 -0.059798401 0.050936799
0.04780392 0.027274488 -0.023897484
-0.02611593 -0.059798401 0.050936799
-0.02611593 -0.059798401 0.050936799
0.057728112 0.032328188 -0.028993599
-0.02611593 -0.059798401 0.050936799
0.070767105 0.033245187 -0.02722054
0.067671031 0.037363812 -0.033090059
-0.02611593 -0.059798401 0.050936799
0.03883817 0.021253536 -0.020837493
-0.02611593 -0.059798401 0.050936799
-0.02611593 -0.059798401 0.050936799
0.047758624 0.025311004 -0.025932841
-0.02611593 -0.059798401 0.050936799
0.061745189 0.027278509 -0.027159534
0.058671769 0.032378867 -0.032011367
-0.02611593 -0.059798401 0.050936799
0.033812508 0.019289916 -0.021779239
-0.02611593 -0.059798401 0.050936799
-0.02611593 -0.059798401 0.050936799
0.043703184 0.025379626 -0.028856661
-0.02611593 -0.059798401 0.050936799
0.055700988 0.02533656 -0.029082149
0.050672308 0.027390344 -0.030951485
-0.02611593 -0.059798401 0.050936799
0.026835525 0.015279537 -0.019720461
-0.02611593 -0.059798401 0.050936799
-0.02611593 -0.059798401 0.050936799
0.034756154 0.019340593 -0.024797015
-0.02611593 -0.059798401 0.050936799
0.042776428 0.015276382 -0.023020092
0.04462811 0.025448395 -0.032874096
-0.02611593 -0.059798401 0.050936799
0.021813784 0.01431574 -0.020644184
-0.02611593 -0.059798401 0.050936799
-0.02611593 -0.059798401 0.050936799
0.027779169 0.015330216 -0.022738237
-0.02611593 -0.059798401 0.050936799
0.038735781 0.014327086 -0.024962269
0.037632406 0.021456104 -0.03181497
-0.02611593 -0.059798401 0.050936799
0.016821643 0.011316104 -0.019604627
-0.02611593 -0.059798401 0.050936799
-0.02611593 -0.059798401 0.050936799
0.023723735 0.015398839 -0.02566205
-0.02611593 -0.059798401 0.050936799
0.030755054 0.0093204724 -0.02290272
0.029670397 0.016431402 -0.028755762
-0.02611593 -0.059798401 0.050936799
0.014758899 0.01439513 -0.023511637
-0.02611593 -0.059798401 0.050936799
-0.02611593 -0.059798401 0.050936799
0.018716794 0.013417122 -0.025604133
-0.02611593 -0.059798401 0.050936799
0.027718158 0.0093674175 -0.024845667
0.027585004 0.018528689 -0.033680454
-0.02611593 -0.059798401 0.050936799
0.0097706839 0.012395324 -0.022454061
-0.02611593 -0.059798401 0.050936799
-0.02611593 -0.059798401 0.050936799
0.015679901 0.013464067 -0.027547088
-0.02611593 -0.059798401 0.050936799
0.022692498 0.0074037896 -0.025787406
0.019626923 0.014503809 -0.030603219
-0.02611593 -0.059798401 0.050936799
0.0067229196 0.01446002 -0.025360633
-0.02611593 -0.059798401 0.050936799
-0.02611593 -0.059798401 0.050936799
0.010691679 0.011464261 -0.026489515
-0.02611593 -0.059798401 0.050936799
0.017670766 0.0064399852 -0.02671114
0.01756026 0.016583003 -0.034528244
-0.02611593 -0.059798401 0.050936799
0.0017494957 0.011442294 -0.023321413
-0.02611593 -0.059798401 0.050936799
-0.02611593 -0.059798401 0.050936799
0.0057034623 0.0094644623 -0.025431935
-0.02611593 -0.059798401 0.050936799
0.012697339 0.0034222673 -0.024671916
0.011587017 0.013568868 -0.03247023
-0.02611593 -0.059798401 0.050936799
-0.001268676 0.01147115 -0.024264701
-0.02611593 -0.059798401 0.050936799
-0.02611593 -0.059798401 0.050936799
0.0026892172 0.010493142 -0.026357207
-0.02611593 -0.059798401 0.050936799
0.0086606266 0.0034728008 -0.026596081
0.0065948744 0.010569232 -0.031430669
-0.02611593 -0.059798401 0.050936799
-0.0052383561 0.0094496738 -0.022226259
-0.02611593 -0.059798401 0.050936799
-0.02611593 -0.059798401 0.050936799
-0.0013287724 0.010525586 -0.027281705
-0.02611593 -0.059798401 0.050936799
0.0046239146 0.0035233346 -0.028520238
0.0025768811 0.010601676 -0.032355171
-0.02611593 -0.059798401 0.050936799
-0.0092563471 0.0094821183 -0.023150757
-0.02611593 -0.059798401 0.050936799
-0.02611593 -0.059798401 0.050936799
-0.0053319694 0.0095401192 -0.027224563
-0.02611593 -0.059798401 0.050936799
0.0016057389 0.0035521905 -0.029463522
-0.0014598309 0.01065221 -0.034279335
-0.02611593 -0.059798401 0.050936799
-0.012300183 0.012546636 -0.026039314
-0.02611593 -0.059798401 0.050936799
-0.02611593 -0.059798401 0.050936799
-0.0093499608 0.0095725637 -0.028149061
-0.02611593 -0.059798401 0.050936799
-0.003378551 0.0025522155 -0.02838793
-0.0064254003 0.009634153 -0.032204077
-0.02611593 -0.059798401 0.050936799
-0.015299634 0.012557403 -0.025982942
-0.02611593 -0.059798401 0.050936799
-0.02611593 -0.059798401 0.050936799
-0.012349412 0.0095833298 -0.02809269
-0.02611593 -0.059798401 0.050936799
-0.02611593 -0.059798401 0.050936799
-0.0094731627 0.011698841 -0.035110652
-0.02611593 -0.059798401 0.050936799
-0.019298902 0.012571759 -0.025907777
-0.02611593 -0.059798401 0.050936799
-0.02611593 -0.059798401 0.050936799
-0.01639699 0.011651607 -0.030980468
-0.02611593 -0.059798401 0.050936799
-0.02611593 -0.059798401 0.050936799
-0.014446585 0.0086811222 -0.033071436
-0.02611593 -0.059798401 0.050936799
-0.022283558 0.011564606 -0.024869759
-0.02611593 -0.059798401 0.050936799
-0.02611593 -0.059798401 0.050936799
-0.020362742 0.010629954 -0.028924003
-0.02611593 -0.059798401 0.050936799
-0.02611593 -0.059798401 0.050936799
-0.018441927 0.0096953092 -0.032978255
-0.02611593 -0.059798401 0.050936799
-0.026282825 0.011578961 -0.024794597
-0.02611593 -0.059798401 0.050936799
-0.02611593 -0.059798401 0.050936799
-0.02611593 -0.059798401 0.050936799
-0.02611593 -0.059798401 0.050936799
-0.02611593 -0.059798401 0.050936799
-0.022396808 0.0066558979 -0.029958162
-0.02611593 -0.059798401 0.050936799
-0.02611593 -0.059798401 0.050936799
-0.02611593 -0.059798401 0.050936799
-0.02611593 -0.059798401 0.050936799
-0.02736146 0.010655076 -0.028792471
-0.02611593 -0.059798401 0.050936799
-0.02611593 -0.059798401 0.050936799
-0.026473979 0.010760021 -0.034809232
-0.02611593 -0.059798401 0.050936799
-0.031259261 0.012578648 -0.023682967
-0.02611593 -0.059798401 0.050936799
-0.02611593 -0.059798401 0.050936799
-0.02611593 -0.059798401 0.050936799
-0.02611593 -0.059798401 0.050936799
-0.02611593 -0.059798401 0.050936799
-0.028380916 0.0056595192 -0.028863773
-0.02611593 -0.059798401 0.050936799
-0.035258532 0.012593004 -0.023607805
-0.02611593 -0.059798401 0.050936799
-0.02611593 -0.059798401 0.050936799
-0.02611593 -0.059798401 0.050936799
-0.02611593 -0.059798401 0.050936799
-0.02611593 -0.059798401 0.050936799
-0.032424569 0.0087276343 -0.031733539
-0.02611593 -0.059798401 0.050936799
-0.038239259 0.012585681 -0.022551771
-0.02611593 -0.059798401 0.050936799
-0.02611593 -0.059798401 0.050936799
-0.02611593 -0.059798401 0.050936799
-0.02611593 -0.059798401 0.050936799
-0.02611593 -0.059798401 0.050936799
-0.036375523 0.0066880537 -0.028695431
-0.02611593 -0.059798401 0.050936799
-0.041249577 0.014614198 -0.023459025
-0.02611593 -0.059798401 0.050936799
-0.02611593 -0.059798401 0.050936799
-0.040317707 0.011665384 -0.026530854
-0.02611593 -0.059798401 0.050936799
-0.02611593 -0.059798401 0.050936799
-0.040400457 0.0097380867 -0.03056553
-0.02611593 -0.059798401 0.050936799
-0.045230124 0.014610465 -0.022384204
-0.02611593 -0.059798401 0.050936799
-0.02611593 -0.059798401 0.050936799
-0.044331774 0.01269766 -0.027437333
-0.02611593 -0.059798401 0.050936799
-0.041375525 0.0016887635 -0.027691908
-0.044414517 0.010770355 -0.031472016
-0.02611593 -0.059798401 0.050936799
-0.049269848 0.01867841 -0.025235951
-0.02611593 -0.059798401 0.050936799
-0.02611593 -0.059798401 0.050936799
-0.048312318 0.012693927 -0.026362512
-0.02611593 -0.059798401 0.050936799
-0.045352142 0.002684861 -0.026599068
-0.049424473 0.01280605 -0.032341693
-0.02611593 -0.059798401 0.050936799
-0.051221166 0.016631661 -0.022235423
-0.02611593 -0.059798401 0.050936799
-0.02611593 -0.059798401 0.050936799
-0.052288935 0.013690024 -0.025269672
-0.02611593 -0.059798401 0.050936799
-0.050395615 0.0057565644 -0.029450048
-0.053405017 0.012802317 -0.031266864
-0.02611593 -0.059798401 0.050936799
-0.053157695 0.013566989 -0.018253252
-0.02611593 -0.059798401 0.050936799
-0.02611593 -0.059798401 0.050936799
-0.056332588 0.016758138 -0.028139435
-0.02611593 -0.059798401 0.050936799
-0.054357439 0.0057347422 -0.02737556
-0.057381634 0.013798414 -0.030174017
-0.02611593 -0.059798401 0.050936799
-0.055090293 0.01150215 -0.014253065
-0.02611593 -0.059798401 0.050936799
-0.02611593 -0.059798401 0.050936799
-0.060309209 0.017754229 -0.027046591
-0.02611593 -0.059798401 0.050936799
-0.057338163 0.0057274196 -0.02631953
-0.063450582 0.019909376 -0.034951475
-0.02611593 -0.059798401 0.050936799
-0.02611593 -0.059798401 0.050936799
-0.02611593 -0.059798401 0.050936799
-0.02611593 -0.059798401 0.050936799
-0.065315232 0.020789761 -0.027898245
-0.02611593 -0.059798401 0.050936799
-0.061299987 0.0057055973 -0.024245039
-0.067412406 0.019887554 -0.032876994
-0.02611593 -0.059798401 0.050936799
-0.065146729 0.02062696 -0.018901296
-0.02611593 -0.059798401 0.050936799
-0.02611593 -0.059798401 0.050936799
-0.06827724 0.020764351 -0.025842555
-0.02611593 -0.059798401 0.050936799
-0.068353958 0.010802221 -0.028022058
-0.073418245 0.02292666 -0.033709854
-0.02611593 -0.059798401 0.050936799
-0.02611593 -0.059798401 0.050936799
-0.02611593 -0.059798401 0.050936799
-0.02611593 -0.059798401 0.050936799
-0.069161706 0.016641993 -0.018898208
-0.02611593 -0.059798401 0.050936799
-0.072326653 0.01279815 -0.026911199
-0.078390755 0.024926178 -0.032580208
-0.02611593 -0.059798401 0.050936799
-0.02611593 -0.059798401 0.050936799
-0.02611593 -0.059798401 0.050936799
-0.02611593 -0.059798401 0.050936799
-0.072123714 0.016616583 -0.016842518
-0.02611593 -0.059798401 0.050936799
-0.076288469 0.012776327 -0.024836719
-0.081334047 0.024882678 -0.02952484
-0.02611593 -0.059798401 0.050936799
-0.081190288 0.032772779 -0.023382727
-0.02611593 -0.059798401 0.050936799
-0.02611593 -0.059798401 0.050936799
-0.085268363 0.03185967 -0.027324229
-0.02611593 -0.059798401 0.050936799
-0.082290381 0.016815273 -0.025651559
-0.088354498 0.028943293 -0.031320564
-0.02611593 -0.059798401 0.050936799
-0.086173654 0.036790047 -0.023216702
-0.02611593 -0.059798401 0.050936799
-0.02611593 -0.059798401 0.050936799
-0.09128508 0.036916528 -0.029120713
-0.02611593 -0.059798401 0.050936799
-0.088277504 0.019836299 -0.025484763
-0.09533751 0.032967739 -0.031116959
-0.02611593 -0.059798401 0.050936799
-0.093190178 0.041850504 -0.024994403
-0.02611593 -0.059798401 0.050936799
-0.02611593 -0.059798401 0.050936799
-0.092188269 0.032812256 -0.023176033
-0.02611593 -0.059798401 0.050936799
-0.096289918 0.025900163 -0.027225647
-0.099291474 0.034945577 -0.029006429
-0.02611593 -0.059798401 0.050936799
-0.097148076 0.042828508 -0.022901896
-0.02611593 -0.059798401 0.050936799
-0.02611593 -0.059798401 0.050936799
-0.10019676 0.039875958 -0.024898909
-0.02611593 -0.059798401 0.050936799
-0.10428754 0.030946117 -0.027984895
-0.10727037 0.039973434 -0.02876601
-0.02611593 -0.059798401 0.050936799
-0.10412716 0.047852777 -0.022680268
-0.02611593 -0.059798401 0.050936799
-0.02611593 -0.059798401 0.050936799
-0.10819045 0.045921743 -0.02564013
-0.02611593 -0.059798401 0.050936799
-0.1071973 0.029866602 -0.022948232
-0.11526407 0.046019219 -0.029507242
-0.02611593 -0.059798401 0.050936799
-0.11012515 0.052891556 -0.0234771
-0.02611593 -0.059798401 0.050936799
-0.02611593 -0.059798401 0.050936799
-0.11415884 0.048924677 -0.024473671
-0.02611593 -0.059798401 0.050936799
-0.11821611 0.038958825 -0.025578354
-0.12423886 0.052050494 -0.029230013
-0.02611593 -0.059798401 0.050936799
-0.11607482 0.055876397 -0.021310978
-0.02611593 -0.059798401 0.050936799
-0.02611593 -0.059798401 0.050936799
-0.12112313 0.052931033 -0.023270406
-0.02611593 -0.059798401 0.050936799
-0.12819071 0.044993691 -0.025282338
-0.13219902 0.057060272 -0.027989931
-0.02611593 -0.059798401 0.050936799
-0.12606029 0.063929006 -0.021978579
-0.02611593 -0.059798401 0.050936799
-0.02611593 -0.059798401 0.050936799
-0.134115 0.064011991 -0.024827242
-0.02611593 -0.059798401 0.050936799
-0.13917208 0.05404973 -0.025913134
-0.14316559 0.06509839 -0.027639087
-0.02611593 -0.059798401 0.050936799
-0.13504596 0.071978025 -0.022664987
-0.02611593 -0.059798401 0.050936799
-0.02611593 -0.059798401 0.050936799
-0.14308585 0.071043096 -0.024531998
-0.02611593 -0.059798401 0.050936799
-0.14910924 0.06004842 -0.0236178
-0.15715727 0.076182939 -0.029177152
-0.02611593 -0.059798401 0.050936799
-0.14399807 0.078991055 -0.021370072
-0.02611593 -0.059798401 0.050936799
-0.02611593 -0.059798401 0.050936799
-0.15604027 0.082087882 -0.024089519
-0.02611593 -0.059798401 0.050936799
-0.1671032 0.075164728 -0.026008278
-0.169101 0.085206389 -0.027789831
-0.02611593 -0.059798401 0.050936799
-0.15798584 0.09107545 -0.022890113
-0.02611593 -0.059798401 0.050936799
-0.02611593 -0.059798401 0.050936799
-0.17100519 0.095157593 -0.02457308
-0.02611593 -0.059798401 0.050936799
-0.18203853 0.086198606 -0.024528552
-0.18403241 0.097240083 -0.026292082
-0.02611593 -0.059798401 0.050936799
-0.17595714 0.10717351 -0.024262905
-0.02611593 -0.059798401 0.050936799
-0.02611593 -0.059798401 0.050936799
-0.18796974 0.10823449 -0.025019065
-0.02611593 -0.059798401 0.050936799
-0.20297185 0.10227124 -0.023845654
-0.20497659 0.11533048 -0.026572816
-0.02611593 -0.059798401 0.050936799
-0.18889678 0.11720037 -0.022838783
-0.02611593 -0.059798401 0.050936799
-0.02611593 -0.059798401 0.050936799
-0.20588489 0.12427828 -0.023392871
-0.02611593 -0.059798401 0.050936799
-0.2339163 0.1294322 -0.02577563
-0.22087429 0.12633176 -0.023074981
-0.02611593 -0.059798401 0.050936799
-0.20983703 0.13629059 -0.02310149
-0.02611593 -0.059798401 0.050936799
-0.02611593 -0.059798401 0.050936799
-0.23081262 0.14638235 -0.023526371
-0.02611593 -0.059798401 0.050936799
-0.25778502 0.147461 -0.022001341
-0.25578359 0.15748829 -0.023858055
-0.02611593 -0.059798401 0.050936799
-0.23576064 0.15939808 -0.023198176
-0.02611593 -0.059798401 0.050936799
-0.02611593 -0.059798401 0.050936799
-0.25971308 0.17048235 -0.022549003
-0.02611593 -0.059798401 0.050936799
-0.82165468 0.64821905 -0.15843225
-0.78867847 0.65313596 -0.16096154
-0.02611593 -0.059798401 0.050936799
-0.25662994 0.17741612 -0.019480258
-0.82327986 0.64786446 -0.13840142
-0.79134095 0.65282112 -0.14291129
-0.75638473 0.65273172 -0.14556828
-0.02611593 -0.059798401 0.050936799
-0.82490498 0.64750981 -0.11837061
-0.79099703 0.64947796 -0.12397178
-0.7610805 0.65346009 -0.12946172
-0.72515887 0.64938581 -0.13320923
-0.826545 0.64817321 -0.099321477
-0.79666579 0.65219146 -0.10681073
-0.76277351 0.65016019 -0.11248396
-0.72987711 0.64913237 -0.11812036
-0.8261745 0.64681154 -0.079346262
-0.79333031 0.64683783 -0.087963626
-0.76746517 0.65188837 -0.096359387
-0.7376166 0.65292531 -0.10490238
-0.82879555 0.6474604 -0.059278645
-0.79399705 0.64551604 -0.069968969
-0.77016902 0.65060991 -0.080326453
-0.74233872 0.65167207 -0.089831524
-0.82843983 0.64711672 -0.040285096
-0.79866999 0.6472261 -0.052844748
-0.76786679 0.64629585 -0.063441873
-0.74305075 0.64838672 -0.073872209
-0.82608837 0.64576596 -0.021347128
-0.79833299 0.64690053 -0.034850843
-0.77554613 0.65103436 -0.047206879
-0.74877965 0.65015465 -0.059728168
-0.82571393 0.64540422 -0.0013539046
-0.79899973 0.64557862 -0.016856171
-0.77224803 0.64571685 -0.030359104
-0.75050241 0.64889067 -0.044713698
-0.82535428 0.64606041 0.017657671
-0.80166912 0.6482814 0.00024849921
-0.77893144 0.64945197 -0.014160916
-0.75422078 0.64863372 -0.029643625
-0.82299894 0.64570946 0.036613651
-0.80034018 0.64595258 0.018187575
-0.77363777 0.6431275 0.0026312545
-0.75594354 0.64736974 -0.01462914
-0.81665605 0.64234477 0.055440415
-0.79999924 0.64662677 0.036199495
-0.77931738 0.64785874 0.018828668
-0.75565583 0.64408082 0.0013113916
-0.81530052 0.64199752 0.074415185
-0.79667062 0.64429075 0.054100975
-0.77802587 0.64556611 0.034768414
-0.75737458 0.64381665 0.016343888
-0.809991 0.6396724 0.091279432
-0.79933608 0.64799333 0.071223669
-0.77771151 0.64425874 0.05174464
-0.75907862 0.64253461 0.032358021
-0.80961955 0.64332801 0.11034507
-0.7930572 0.64268321 0.087015405
-0.77840781 0.64497274 0.067776024
-0.75980145 0.64126706 0.047353715
-0.8032915 0.64098126 0.12819019
-0.78972471 0.64134705 0.10493492
-0.77810824 0.6446833 0.083770595
-0.76747692 0.64700526 0.063606724
-0.79995114 0.64164466 0.14614575
-0.78939855 0.64303917 0.12196518
-0.77780867 0.64439386 0.099765174
-0.7652269 0.6437453 0.077510342
-0.79364181 0.63931602 0.1629912
-0.78707665 0.64372426 0.13893986
-0.77649456 0.64308292 0.11672261
-0.76791894 0.64546633 0.09359733
-0.79625404 0.64698166 0.18218526
-0.78376293 0.64240617 0.15585971
-0.77718693 0.64479673 0.13277201
-0.76463956 0.64016706 0.10944545
-0.78396159 0.64063209 0.19884592
-0.77944535 0.6420843 0.17277879
-0.76990443 0.64048296 0.14856298
-0.76931947 0.64489466 0.12562406
-0.7766524 0.63829982 0.21567258
-0.77612758 0.64176601 0.18971667
-0.77356958 0.644189 0.16570446
-0.7690199 0.64460522 0.14161864
-0.77033526 0.63797081 0.23255408
-0.77181 0.64144415 0.20663573
-0.76927477 0.64288551 0.18160585
-0.76375961 0.63931686 0.15642951
-0.76303697 0.63765627 0.24841714
-0.76948428 0.64312911 0.22362843
-0.76398784 0.63957864 0.19745243
-0.76941669 0.64502984 0.1736446
-0.75968474 0.64131922 0.26642671
-0.76119798 0.63981152 0.23941863
-0.76068884 0.63927841 0.21339065
-0.76911712 0.6447404 0.18963918
-0.75139457 0.63900137 0.28223494
-0.75689518 0.64050752 0.25535607
-0.75739378 0.63797837 0.22931081
-0.76086134 0.63844144 0.20437568
-0.74210054 0.63767982 0.29804239
-0.75159657 0.64020014 0.27125669
-0.75409091 0.63867807 0.24526703
-0.76651442 0.64515418 0.22160877
-0.73382115 0.63737983 0.31288695
-0.74230647 0.63787878 0.2870461
-0.75079185 0.63837785 0.26120526
-0.76023167 0.64084393 0.23741853
-0.72452718 0.63605827 0.3286944
-0.73306167 0.63359392 0.30080017
-0.74649298 0.63807404 0.27712464
-0.75793242 0.64054728 0.25337553
-0.7182169 0.63874668 0.3446303
-0.73072422 0.63827837 0.31784692
-0.73722947 0.63377106 0.2918784
-0.75266039 0.6382584 0.26824045
-0.70796454 0.63645798 0.35840163
-0.72442573 0.63796747 0.33372876
-0.73589969 0.63645953 0.30890787
-0.75133836 0.63894707 0.28523391
-0.69571632 0.63316214 0.37211734
-0.71615028 0.63666755 0.34855536
-0.73259276 0.63815892 0.32488212
-0.74606633 0.63665819 0.30009884
-0.69139791 0.6378575 0.38812685
-0.70887071 0.63637108 0.3634187
-0.72334403 0.63487387 0.33865422
-0.74176747 0.63635439 0.31601825
-0.67522234 0.6306023 0.39869636
-0.69764107 0.63309693 0.37615356
-0.71902257 0.63555193 0.35559133
-0.73944175 0.63803935 0.33301097
-0.66693115 0.63330173 0.41359496
-0.68836582 0.6317935 0.39096135
-0.71373868 0.63626248 0.37051031
-0.73514289 0.63773555 0.34893039
-0.6576668 0.6340161 0.42743915
-0.68010515 0.63151157 0.40480629
-0.70744032 0.63595146 0.38639215
-0.73084795 0.63643199 0.36483175
-0.64643323 0.6317417 0.44019201
-0.67382151 0.63221848 0.41970646
-0.69818759 0.63366622 0.40018222
-0.72652251 0.63810968 0.38178691
-0.63324147 0.62849665 0.45088995
-0.66553432 0.63391817 0.43458706
-0.69288117 0.63535851 0.41611892
-0.71727777 0.63382488 0.39554095
-0.6239692 0.63121051 0.46477014
-0.65726966 0.63463598 0.44845003
-0.68265134 0.63208795 0.42887253
-0.71097928 0.63351393 0.41142279
-0.61077744 0.62796545 0.47546807
-0.64408576 0.62939119 0.45911193
-0.67437196 0.6317879 0.44371712
-0.7066766 0.63420999 0.42736024
-0.60250503 0.63068289 0.48936707
-0.63579857 0.63109076 0.47399259
-0.66808438 0.63349479 0.45863533
-0.69937831 0.63389546 0.44322327
-0.59030122 0.63044089 0.50013787
-0.62655282 0.63182324 0.48683709
-0.65685475 0.63022059 0.47137019
-0.69209874 0.63359898 0.45808664
-0.57810539 0.62819916 0.5108726
-0.6104148 0.62460411 0.49540722
-0.64859414 0.62993866 0.4852151
-0.6848231 0.6323027 0.47293201
-0.5649057 0.62695378 0.52160656
-0.6041193 0.62831062 0.51036149
-0.64131063 0.630642 0.5000965
-0.67555177 0.6299994 0.4877218
-0.55369389 0.62871492 0.5324322
-0.5938738 0.62903941 0.52318722
-0.63105035 0.63035291 0.51390386
-0.66727233 0.62969929 0.50256634
-0.5434671 0.62946177 0.54425824
-0.58167791 0.62679768 0.53392196
-0.62180859 0.63008541 0.5267303
-0.66292042 0.63335872 0.52055717
-0.52833188 0.6262638 0.55191964
-0.5724057 0.62951159 0.54780215
-0.6115483 0.62979627 0.54053771
-0.65169078 0.63008451 0.53329206
-0.51712406 0.62702519 0.56272721
-0.56120175 0.62927312 0.55859172
-0.60032964 0.62853992 0.55230892
-0.64141172 0.62977731 0.54809904
-0.50395793 0.62681568 0.57147986
-0.54802871 0.62604612 0.56829
-0.59006929 0.62825078 0.56611627
-0.63115537 0.62848836 0.56188834
-0.48884532 0.6226359 0.57812357
-0.53777528 0.62877452 0.58115178
-0.58082354 0.62898314 0.57896078
-0.62189883 0.62720305 0.57569647
-0.47960263 0.62738568 0.5900405
-0.52656746 0.62953597 0.59195936
-0.57055938 0.62969387 0.59278613
-0.61259305 0.62888092 0.59155798
-0.4683682 0.63012862 0.60188371
-0.51534086 0.63027924 0.60376662
-0.55833691 0.62943375 0.60455662
-0.6003598 0.62660301 0.60429198
-0.45522472 0.62893748 0.60961878
-0.50120944 0.62608492 0.61142868
-0.54709554 0.62915909 0.61734551
-0.58714926 0.62333989 0.61598963
-0.44205466 0.62972784 0.61838949
-0.48997492 0.62882787 0.62327206
-0.53391469 0.62793165 0.62707978
-0.5778622 0.62503588 0.63085151
-0.42795277 0.62756932 0.62408829
-0.47778991 0.62860394 0.63304311
-0.52266926 0.62865692 0.63988668
-0.56662083 0.62476122 0.6436404
-0.41384694 0.62641072 0.62980527
-0.46557832 0.63036156 0.64385003
-0.51144278 0.62940025 0.65169394
-0.55533803 0.62545025 0.65844661
-0.40069562 0.6272192 0.63757622
-0.44951117 0.62421477 0.64843953
-0.49823922 0.62915456 0.6624459
-0.54211968 0.62418669 0.67018026
-0.38949856 0.62999839 0.64742023
-0.43729565 0.62697208 0.65926439
-0.48406237 0.62692374 0.67214346
-0.53183281 0.62587911 0.68502331
-0.37346497 0.62488753 0.65002841
-0.42412558 0.6277625 0.66803503
-0.46797261 0.6217587 0.67775065
-0.51859188 0.62559724 0.69777465
-0.36128297 0.628681 0.65887195
-0.40905043 0.62361896 0.67267942
-0.45478776 0.62153113 0.68750298
-0.5063467 0.62631887 0.71056277
-0.34624523 0.62457353 0.66151702
-0.39395264 0.62045705 0.67834145
-0.44253477 0.62425238 0.70032722
-0.4911474 0.62506628 0.72125918
-0.33313137 0.62541819 0.66728878
-0.38366485 0.62716675 0.69227493
-0.43030444 0.62599188 0.71213365
-0.47694796 0.62381727 0.73197436
-0.31999877 0.62624466 0.67406011
-0.37144935 0.62992418 0.70309985
-0.41709691 0.62674606 0.72290373
-0.4607715 0.62157923 0.74163425
-0.30493447 0.62411886 0.67774087
-0.35345742 0.62384254 0.7036531
-0.40195382 0.62554771 0.73060107
-0.44752264 0.6232971 0.75442159
-0.29091141 0.62103295 0.67942309
-0.34031004 0.62365115 0.71140617
-0.38583356 0.62336397 0.73726201
-0.43234208 0.62206256 0.76411837
-0.27774826 0.62484086 0.68724811
-0.32620025 0.62349236 0.71714103
-0.37069046 0.62216562 0.74495947
-0.41813868 0.6218133 0.77485156
-0.26465312 0.62570363 0.69202018
-0.31109068 0.62333 0.72285712
-0.35747904 0.62391967 0.75574744
-0.40293157 0.62256032 0.78558397
-0.24965282 0.62163234 0.69266593
-0.29698092 0.62317127 0.72859204
-0.34137353 0.62275386 0.76142675
-0.38579273 0.62035495 0.79322577
-0.23653501 0.62347692 0.69845563
-0.28280711 0.6249578 0.73736197
-0.32529464 0.61960655 0.76607043
-0.37058562 0.62110204 0.80395824
-0.22341329 0.6263212 0.70426339
-0.26682967 0.61990124 0.73697126
-0.31109819 0.62237489 0.77585799
-0.35248837 0.61792934 0.80956388
-0.20843172 0.62226808 0.70390952
-0.25173879 0.619757 0.74168772
-0.29495132 0.62217271 0.78355461
-0.33728126 0.61867642 0.82029635
-0.19533263 0.62413055 0.70869958
-0.23855695 0.62354678 0.75051242
-0.27886456 0.62102509 0.78823429
-0.32013455 0.61847067 0.8279742
-0.18127903 0.62402606 0.71143544
-0.22157577 0.61948651 0.75012088
-0.26280048 0.61889565 0.79189616
-0.30205604 0.61531609 0.83258021
-0.16722149 0.62492132 0.71418935
-0.20750345 0.6193639 0.75385648
-0.24762294 0.62167841 0.80066532
-0.28397357 0.61316139 0.83720422
-0.15318662 0.6248349 0.71592557
-0.19240865 0.62021947 0.75859088
-0.23055901 0.6195454 0.80430847
-0.26775876 0.61590445 0.84795392
-0.13922362 0.62080348 0.71459085
-0.17638201 0.61812615 0.76025361
-0.21442303 0.62136102 0.81104159
-0.2505855 0.61768031 0.85666746
-0.12611668 0.62466562 0.71941692
-0.16319622 0.62291586 0.76909637
-0.1974231 0.61728257 0.81164968
-0.23250306 0.6155256 0.86129153
-0.11205914 0.625561 0.72217083
-0.14722967 0.61987704 0.76774198
-0.18033262 0.61713111 0.81632859
-0.21445803 0.61340708 0.86391622
-0.097156405 0.62058038 0.71780026
-0.13215752 0.61975086 0.77145875
-0.16419271 0.61994666 0.82307965
-0.19723946 0.61714643 0.8746652
-0.084121339 0.62049752 0.71955532
-0.11612301 0.61965722 0.77315742
-0.14809808 0.62079853 0.82779527
-0.17813061 0.6169697 0.88030612
-0.070942514 0.62830484 0.72745246
-0.1010883 0.61956722 0.77487487
-0.13106769 0.61970156 0.82945716
-0.15914588 0.61390203 0.87989503
-0.056062445 0.62234253 0.7220642
-0.086053602 0.61947721 0.77659237
-0.11401461 0.61958629 0.83213669
-0.14101027 0.61571044 0.88659042
-0.043114047 0.61933249 0.71976656
-0.070950955 0.62233245 0.78136289
-0.096961573 0.61947101 0.83481622
-0.12204817 0.61166102 0.88516164
-0.029044732 0.6232273 0.72257453
-0.05502183 0.61932981 0.77800918
-0.07897272 0.61740673 0.83444196
-0.1029541 0.61250222 0.88982099
-0.016047111 0.62318063 0.72233021
-0.039941825 0.62120324 0.781762
-0.062851526 0.62024021 0.84019339
-0.083856106 0.61434323 0.89449835
-0.0030947914 0.62117052 0.72005063
-0.024054082 0.61723697 0.77639097
-0.044945419 0.61624867 0.83578438
-0.064803421 0.6142208 0.89714032
0.010929226 0.62310183 0.72082329
-0.01003792 0.61716861 0.77712756
-0.027911082 0.61615145 0.83746421
-0.045814745 0.61215293 0.89674723
0.023817522 0.61914635 0.71550858
0.0059591522 0.61711121 0.77682692
-0.0099143786 0.61608684 0.83712602
-0.026776854 0.61304843 0.89840752
0.037864186 0.6220594 0.71729887
0.020982986 0.61903894 0.77758074
0.0060600452 0.61504775 0.83580774
-0.007738959 0.61394387 0.90006787
0.05086574 0.62301254 0.71707267
0.037002705 0.61996329 0.77829784
0.023011636 0.61302322 0.83345294
0.011257563 0.61387569 0.89971089
0.063731387 0.61807525 0.71074033
0.051935941 0.61796409 0.7749809
0.041162964 0.61883098 0.84022039
0.030208783 0.611844 0.89731842
0.077781983 0.62198818 0.71254861
0.066895753 0.61794645 0.77269971
0.058013082 0.61489731 0.83283126
0.049118638 0.60884875 0.89290869
0.090719499 0.62099594 0.70928735
0.081874281 0.61791062 0.77141821
0.075013898 0.61583608 0.8325299
0.069160275 0.61074042 0.89456832
0.10361173 0.61804026 0.70399076
0.097856574 0.61887115 0.77013594
0.09192805 0.61384785 0.82817578
0.088119358 0.61070842 0.89221191
0.11762094 0.62098956 0.70378172
0.11279372 0.61787176 0.76683706
0.10891014 0.61480469 0.82687461
0.10703313 0.60871297 0.8878203
0.12953602 0.61901915 0.69952154
0.12778009 0.61983573 0.76559156
0.12686941 0.61477625 0.8245371
0.12705998 0.61162245 0.88849819
0.14245482 0.61804497 0.69526058
0.14267589 0.61787266 0.76027536
0.14381011 0.61476958 0.82121867
0.14489119 0.60770333 0.88009053
0.15646404 0.62099427 0.69505155
0.15763962 0.61885476 0.75801224
0.16077349 0.61574453 0.81891793
0.1637902 0.60672575 0.87471724
0.16729261 0.61610037 0.6867575
0.17253542 0.61689174 0.75269604
0.1776502 0.61379242 0.81256449
0.18270789 0.60573006 0.87034357
0.18125652 0.61708605 0.68451315
0.18745779 0.61691028 0.74841553
0.19461748 0.61576724 0.81028175
0.2037877 0.61259925 0.87307405
0.19317944 0.61711538 0.68028903
0.20238014 0.61692876 0.74413502
0.21152076 0.61579663 0.80496401
0.2205137 0.60577452 0.85963291
0.20610215 0.61714107 0.67604607
0.21730644 0.61794716 0.73987252
0.22739765 0.61384815 0.79862934
0.24055232 0.61168367 0.86036485
0.22114171 0.62306815 0.67687196
0.23118761 0.61700559 0.73359346
0.24430485 0.61487734 0.79332966
0.25836876 0.60878241 0.85097557
0.23199686 0.62015575 0.6696136
0.24609126 0.61704224 0.72831333
0.25914052 0.61196876 0.78499639
0.27727562 0.60980451 0.84563828
0.24490085 0.62019962 0.66437101
0.25999507 0.61708242 0.72305197
0.27604777 0.61299801 0.7796967
0.29514122 0.60986656 0.83830243
0.25575602 0.61728722 0.65711266
0.27387625 0.6161409 0.71677285
0.29293624 0.61404538 0.77339733
0.31298423 0.60894686 0.8299489
0.26970515 0.61929095 0.65388668
0.28874248 0.61621362 0.7094934
0.30777973 0.61313641 0.76510012
0.32874483 0.60610694 0.81759822
0.28159058 0.61935639 0.64766318
0.30160508 0.61529386 0.70223349
0.32364577 0.61320561 0.75780183
0.3486633 0.61012495 0.81229621
0.29349476 0.61940378 0.64243942
0.31444505 0.61339223 0.6939559
0.34051555 0.6142711 0.75050282
0.36655548 0.61216849 0.80599612
0.30640271 0.62044734 0.63721484
0.32935655 0.61542851 0.68871176
0.35638553 0.61534011 0.74322259
0.38125229 0.60738683 0.79062921
0.31728446 0.61951661 0.63099217
0.341178 0.61354852 0.67945331
0.36912403 0.61152929 0.72991067
0.39705819 0.60651052 0.78031397
0.33019632 0.6215601 0.62578565
0.35709324 0.61658108 0.67420834
0.38503927 0.6145618 0.72466576
0.41489032 0.6076085 0.77099681
0.34101403 0.61868387 0.61652792
0.36786959 0.61274123 0.66293335
0.40086782 0.61466724 0.71536815
0.43068147 0.60775012 0.75969982
0.35495228 0.62270534 0.6123383
0.38276631 0.61579543 0.65670758
0.4136329 0.61283791 0.70309186
0.44749504 0.60886985 0.74940181
0.36479279 0.6208145 0.60411704
0.39354652 0.61295545 0.64545053
0.42848429 0.61392862 0.69483072
0.46326748 0.60902947 0.73710525
0.37870842 0.62385416 0.59890974
0.40843931 0.61500978 0.63920671
